338.384 63.8298 369.352
338.384 74.4681 98.2318
338.384 85.1064 210.216
338.384 95.7447 237.721
338.384 106.383 111.984
338.384 117.021 111.984
338.384 127.66 212.181
338.384 138.298 78.5855
338.384 148.936 78.5855
338.384 159.574 131.631
338.384 170.213 49.1159
338.384 180.851 106.09
338.384 191.489 51.0806
338.384 202.128 133.595
338.384 212.766 43.222
338.384 223.404 94.3026
338.384 234.043 31.4342
338.384 244.681 166.994
338.384 255.319 121.807
338.384 265.957 200.393
338.384 276.596 53.0452
338.384 712.766 70.7269
338.384 723.404 308.448
338.384 734.043 188.605
338.384 744.681 35.3635
338.384 755.319 115.914
338.384 765.957 23.5756
338.384 776.596 21.611
338.384 787.234 23.5756
338.384 797.872 56.9745
338.384 808.511 27.5049
338.384 819.149 82.5147
338.384 829.787 41.2574
338.384 840.426 147.348
338.384 851.064 139.489
338.384 861.702 86.444
338.384 872.34 131.631
338.384 882.979 255.403
338.384 893.617 351.67
338.384 904.255 569.745
338.384 914.894 495.088
338.384 925.532 396.857
338.384 936.17 603.143
338.384 946.809 669.941
338.384 957.447 500.982
343.434 42.5532 662.083
343.434 53.1915 856.582
343.434 63.8298 369.352
343.434 74.4681 98.2318
343.434 85.1064 239.686
343.434 95.7447 371.316
343.434 106.383 113.949
343.434 117.021 98.2318
343.434 127.66 188.605
343.434 138.298 70.7269
343.434 148.936 70.7269
343.434 159.574 119.843
343.434 170.213 106.09
343.434 180.851 106.09
343.434 191.489 45.1866
343.434 202.128 139.489
343.434 212.766 58.9391
343.434 223.404 88.4086
343.434 234.043 76.6208
343.434 244.681 125.737
343.434 255.319 151.277
343.434 265.957 200.393
343.434 276.596 49.1159
343.434 712.766 29.4695
343.434 723.404 235.756
343.434 734.043 237.721
343.434 744.681 41.2574
343.434 755.319 129.666
343.434 765.957 27.5049
343.434 776.596 21.611
343.434 787.234 23.5756
343.434 797.872 66.7976
343.434 808.511 31.4342
343.434 819.149 82.5147
343.434 829.787 35.3635
343.434 840.426 82.5147
343.434 851.064 131.631
343.434 861.702 155.206
343.434 872.34 129.666
343.434 882.979 326.13
343.434 893.617 410.609
343.434 904.255 583.497
343.434 914.894 497.053
343.434 925.532 188.605
343.434 936.17 603.143
343.434 946.809 669.941
343.434 957.447 500.982
348.485 42.5532 797.642
348.485 53.1915 662.083
348.485 63.8298 369.352
348.485 74.4681 98.2318
348.485 85.1064 212.181
348.485 95.7447 371.316
348.485 106.383 131.631
348.485 117.021 131.631
348.485 127.66 212.181
348.485 138.298 70.7269
348.485 148.936 64.833
348.485 159.574 121.807
348.485 170.213 100.196
348.485 180.851 49.1159
348.485 191.489 106.09
348.485 202.128 131.631
348.485 212.766 58.9391
348.485 223.404 88.4086
348.485 234.043 117.878
348.485 244.681 137.525
348.485 255.319 225.933
348.485 265.957 190.57
348.485 276.596 62.8684
348.485 712.766 31.4342
348.485 723.404 176.817
348.485 734.043 280.943
348.485 744.681 82.5147
348.485 755.319 76.6208
348.485 765.957 25.5403
348.485 776.596 25.5403
348.485 787.234 25.5403
348.485 797.872 68.7623
348.485 808.511 70.7269
348.485 819.149 98.2318
348.485 829.787 41.2574
348.485 840.426 82.5147
348.485 851.064 86.444
348.485 861.702 166.994
348.485 872.34 106.09
348.485 882.979 345.776
348.485 893.617 326.13
348.485 904.255 703.34
348.485 914.894 599.214
348.485 925.532 239.686
348.485 936.17 601.179
348.485 946.809 669.941
348.485 957.447 669.941
353.535 42.5532 856.582
353.535 53.1915 493.124
353.535 63.8298 96.2672
353.535 74.4681 188.605
353.535 85.1064 212.181
353.535 95.7447 241.65
353.535 106.383 131.631
353.535 117.021 210.216
353.535 127.66 190.57
353.535 138.298 70.7269
353.535 148.936 121.807
353.535 159.574 113.949
353.535 170.213 106.09
353.535 180.851 41.2574
353.535 191.489 92.3379
353.535 202.128 39.2927
353.535 212.766 121.807
353.535 223.404 123.772
353.535 234.043 149.312
353.535 244.681 96.2672
353.535 255.319 233.792
353.535 265.957 78.5855
353.535 276.596 60.9037
353.535 712.766 31.4342
353.535 723.404 106.09
353.535 734.043 237.721
353.535 744.681 111.984
353.535 755.319 80.5501
353.535 765.957 29.4695
353.535 776.596 25.5403
353.535 787.234 23.5756
353.535 797.872 31.4342
353.535 808.511 82.5147
353.535 819.149 92.3379
353.535 829.787 49.1159
353.535 840.426 98.2318
353.535 851.064 155.206
353.535 861.702 165.029
353.535 872.34 141.454
353.535 882.979 394.892
353.535 893.617 449.902
353.535 904.255 554.028
353.535 914.894 701.375
353.535 925.532 328.094
353.535 936.17 603.143
353.535 946.809 500.982
353.535 957.447 671.906
353.535 968.085 500.982
358.586 31.9149 489.194
358.586 42.5532 856.582
358.586 53.1915 275.049
358.586 63.8298 96.2672
358.586 74.4681 188.605
358.586 85.1064 98.2318
358.586 95.7447 241.65
358.586 106.383 131.631
358.586 117.021 212.181
358.586 127.66 80.5501
358.586 138.298 72.6916
358.586 148.936 121.807
358.586 159.574 51.0806
358.586 170.213 92.3379
358.586 180.851 43.222
358.586 191.489 82.5147
358.586 202.128 43.222
358.586 212.766 88.4086
358.586 223.404 131.631
358.586 234.043 149.312
358.586 244.681 96.2672
358.586 255.319 249.509
358.586 265.957 55.0098
358.586 276.596 72.6916
358.586 712.766 25.5403
358.586 723.404 64.833
358.586 734.043 200.393
358.586 744.681 180.747
358.586 755.319 72.6916
358.586 765.957 29.4695
358.586 776.596 25.5403
358.586 787.234 29.4695
358.586 797.872 25.5403
358.586 808.511 74.6562
358.586 819.149 92.3379
358.586 829.787 49.1159
358.586 840.426 53.0452
358.586 851.064 190.57
358.586 861.702 241.65
358.586 872.34 131.631
358.586 882.979 326.13
358.586 893.617 410.609
358.586 904.255 497.053
358.586 914.894 701.375
358.586 925.532 328.094
358.586 936.17 190.57
358.586 946.809 396.857
358.586 957.447 671.906
358.586 968.085 673.87
363.636 31.9149 660.118
363.636 42.5532 856.582
363.636 53.1915 322.2
363.636 63.8298 84.4794
363.636 74.4681 170.923
363.636 85.1064 111.984
363.636 95.7447 241.65
363.636 106.383 131.631
363.636 117.021 212.181
363.636 127.66 90.3733
363.636 138.298 80.5501
363.636 148.936 121.807
363.636 159.574 55.0098
363.636 170.213 100.196
363.636 180.851 41.2574
363.636 191.489 84.4794
363.636 202.128 37.3281
363.636 212.766 78.5855
363.636 223.404 123.772
363.636 234.043 137.525
363.636 244.681 184.676
363.636 255.319 255.403
363.636 265.957 94.3026
363.636 276.596 68.7623
363.636 723.404 64.833
363.636 734.043 170.923
363.636 744.681 247.544
363.636 755.319 111.984
363.636 765.957 68.7623
363.636 776.596 25.5403
363.636 787.234 27.5049
363.636 797.872 27.5049
363.636 808.511 74.6562
363.636 819.149 92.3379
363.636 829.787 41.2574
363.636 840.426 53.0452
363.636 851.064 204.322
363.636 861.702 326.13
363.636 872.34 155.206
363.636 882.979 277.014
363.636 893.617 326.13
363.636 904.255 497.053
363.636 914.894 730.845
363.636 925.532 241.65
363.636 936.17 190.57
363.636 946.809 396.857
363.636 957.447 396.857
363.636 968.085 673.87
368.687 31.9149 742.633
368.687 42.5532 709.234
368.687 53.1915 210.216
368.687 63.8298 110.02
368.687 74.4681 155.206
368.687 85.1064 168.959
368.687 95.7447 188.605
368.687 106.383 131.631
368.687 117.021 241.65
368.687 127.66 90.3733
368.687 138.298 157.171
368.687 148.936 131.631
368.687 159.574 113.949
368.687 170.213 113.949
368.687 180.851 51.0806
368.687 191.489 84.4794
368.687 202.128 82.5147
368.687 212.766 74.6562
368.687 223.404 155.206
368.687 234.043 106.09
368.687 244.681 220.039
368.687 255.319 151.277
368.687 265.957 62.8684
368.687 276.596 31.4342
368.687 723.404 29.4695
368.687 734.043 92.3379
368.687 744.681 214.145
368.687 755.319 106.09
368.687 765.957 96.2672
368.687 776.596 21.611
368.687 787.234 29.4695
368.687 797.872 25.5403
368.687 808.511 70.7269
368.687 819.149 137.525
368.687 829.787 35.3635
368.687 840.426 45.1866
368.687 851.064 131.631
368.687 861.702 263.261
368.687 872.34 129.666
368.687 882.979 257.367
368.687 893.617 326.13
368.687 904.255 544.204
368.687 914.894 693.517
368.687 925.532 278.978
368.687 936.17 190.57
368.687 946.809 192.534
368.687 957.447 396.857
368.687 968.085 675.835
368.687 978.723 500.982
373.737 31.9149 740.668
373.737 42.5532 618.861
373.737 53.1915 239.686
373.737 63.8298 129.666
373.737 74.4681 188.605
373.737 85.1064 141.454
373.737 95.7447 68.7623
373.737 106.383 86.444
373.737 117.021 212.181
373.737 127.66 90.3733
373.737 138.298 155.206
373.737 148.936 60.9037
373.737 159.574 121.807
373.737 170.213 60.9037
373.737 180.851 108.055
373.737 191.489 88.4086
373.737 202.128 117.878
373.737 212.766 33.3988
373.737 223.404 149.312
373.737 234.043 166.994
373.737 244.681 214.145
373.737 255.319 56.9745
373.737 265.957 60.9037
373.737 276.596 29.4695
373.737 723.404 27.5049
373.737 734.043 58.9391
373.737 744.681 237.721
373.737 755.319 147.348
373.737 765.957 64.833
373.737 776.596 21.611
373.737 787.234 25.5403
373.737 797.872 25.5403
373.737 808.511 27.5049
373.737 819.149 111.984
373.737 829.787 82.5147
373.737 840.426 45.1866
373.737 851.064 119.843
373.737 861.702 202.358
373.737 872.34 174.853
373.737 882.979 241.65
373.737 893.617 222.004
373.737 904.255 497.053
373.737 914.894 667.976
373.737 925.532 369.352
373.737 936.17 190.57
373.737 946.809 190.57
373.737 957.447 396.857
373.737 968.085 502.947
373.737 978.723 675.835
378.788 31.9149 740.668
378.788 42.5532 616.896
378.788 53.1915 113.949
378.788 63.8298 96.2672
378.788 74.4681 210.216
378.788 85.1064 153.242
378.788 95.7447 56.9745
378.788 106.383 117.878
378.788 117.021 119.843
378.788 127.66 88.4086
378.788 138.298 170.923
378.788 148.936 72.6916
378.788 159.574 131.631
378.788 170.213 66.7976
378.788 180.851 108.055
378.788 191.489 37.3281
378.788 202.128 113.949
378.788 212.766 68.7623
378.788 223.404 190.57
378.788 234.043 190.57
378.788 244.681 106.09
378.788 255.319 51.0806
378.788 265.957 66.7976
378.788 723.404 27.5049
378.788 734.043 60.9037
378.788 744.681 172.888
378.788 755.319 263.261
378.788 765.957 64.833
378.788 776.596 17.6817
378.788 787.234 23.5756
378.788 797.872 25.5403
378.788 808.511 25.5403
378.788 819.149 68.7623
378.788 829.787 86.444
378.788 840.426 49.1159
378.788 851.064 111.984
378.788 861.702 141.454
378.788 872.34 257.367
378.788 882.979 241.65
378.788 893.617 241.65
378.788 904.255 554.028
378.788 914.894 781.925
378.788 925.532 599.214
378.788 936.17 190.57
378.788 946.809 190.57
378.788 957.447 396.857
378.788 968.085 396.857
378.788 978.723 675.835
383.838 31.9149 791.749
383.838 42.5532 616.896
383.838 53.1915 113.949
383.838 63.8298 210.216
383.838 74.4681 168.959
383.838 85.1064 188.605
383.838 95.7447 76.6208
383.838 106.383 119.843
383.838 117.021 49.1159
383.838 127.66 47.1513
383.838 138.298 155.206
383.838 148.936 66.7976
383.838 159.574 143.418
383.838 170.213 72.6916
383.838 180.851 121.807
383.838 191.489 82.5147
383.838 202.128 70.7269
383.838 212.766 72.6916
383.838 223.404 196.464
383.838 234.043 190.57
383.838 244.681 70.7269
383.838 255.319 51.0806
383.838 265.957 51.0806
383.838 734.043 64.833
383.838 744.681 58.9391
383.838 755.319 255.403
383.838 765.957 133.595
383.838 776.596 23.5756
383.838 787.234 25.5403
383.838 797.872 25.5403
383.838 808.511 27.5049
383.838 819.149 64.833
383.838 829.787 86.444
383.838 840.426 49.1159
383.838 851.064 111.984
383.838 861.702 141.454
383.838 872.34 257.367
383.838 882.979 241.65
383.838 893.617 222.004
383.838 904.255 499.018
383.838 914.894 571.709
383.838 925.532 636.542
383.838 936.17 328.094
383.838 946.809 157.171
383.838 957.447 190.57
383.838 968.085 396.857
383.838 978.723 762.279
388.889 31.9149 789.784
388.889 42.5532 491.159
388.889 53.1915 98.2318
388.889 63.8298 168.959
388.889 74.4681 188.605
388.889 85.1064 153.242
388.889 95.7447 111.984
388.889 106.383 186.64
388.889 117.021 49.1159
388.889 127.66 110.02
388.889 138.298 119.843
388.889 148.936 58.9391
388.889 159.574 141.454
388.889 170.213 70.7269
388.889 180.851 190.57
388.889 191.489 137.525
388.889 202.128 31.4342
388.889 212.766 72.6916
388.889 223.404 190.57
388.889 234.043 127.701
388.889 244.681 13.7525
388.889 255.319 74.6562
388.889 265.957 55.0098
388.889 734.043 25.5403
388.889 744.681 66.7976
388.889 755.319 220.039
388.889 765.957 263.261
388.889 776.596 23.5756
388.889 787.234 25.5403
388.889 797.872 25.5403
388.889 808.511 31.4342
388.889 819.149 64.833
388.889 829.787 68.7623
388.889 840.426 43.222
388.889 851.064 104.126
388.889 861.702 141.454
388.889 872.34 165.029
388.889 882.979 271.12
388.889 893.617 143.418
388.889 904.255 499.018
388.889 914.894 394.892
388.889 925.532 542.24
388.889 936.17 278.978
388.889 946.809 190.57
388.889 957.447 190.57
388.889 968.085 398.821
388.889 978.723 762.279
388.889 989.362 500.982
393.939 31.9149 825.147
393.939 42.5532 491.159
393.939 53.1915 129.666
393.939 63.8298 210.216
393.939 74.4681 168.959
393.939 85.1064 88.4086
393.939 95.7447 76.6208
393.939 106.383 210.216
393.939 117.021 62.8684
393.939 127.66 102.161
393.939 138.298 45.1866
393.939 148.936 119.843
393.939 159.574 119.843
393.939 170.213 70.7269
393.939 180.851 176.817
393.939 191.489 88.4086
393.939 202.128 25.5403
393.939 212.766 168.959
393.939 223.404 202.358
393.939 234.043 131.631
393.939 244.681 19.6464
393.939 255.319 86.444
393.939 734.043 23.5756
393.939 744.681 74.6562
393.939 755.319 92.3379
393.939 765.957 322.2
393.939 776.596 33.3988
393.939 787.234 31.4342
393.939 797.872 19.6464
393.939 808.511 25.5403
393.939 819.149 64.833
393.939 829.787 80.5501
393.939 840.426 41.2574
393.939 851.064 98.2318
393.939 861.702 119.843
393.939 872.34 111.984
393.939 882.979 286.837
393.939 893.617 206.287
393.939 904.255 379.175
393.939 914.894 497.053
393.939 925.532 497.053
393.939 936.17 278.978
393.939 946.809 396.857
393.939 957.447 243.615
393.939 968.085 502.947
393.939 978.723 607.073
393.939 989.362 675.835
398.99 31.9149 848.723
398.99 42.5532 436.149
398.99 53.1915 129.666
398.99 63.8298 210.216
398.99 74.4681 190.57
398.99 85.1064 78.5855
398.99 95.7447 86.444
398.99 106.383 168.959
398.99 117.021 78.5855
398.99 127.66 119.843
398.99 138.298 45.1866
398.99 148.936 104.126
398.99 159.574 58.9391
398.99 170.213 58.9391
398.99 180.851 176.817
398.99 191.489 84.4794
398.99 202.128 68.7623
398.99 212.766 161.1
398.99 223.404 155.206
398.99 234.043 131.631
398.99 244.681 19.6464
398.99 255.319 86.444
398.99 734.043 23.5756
398.99 744.681 74.6562
398.99 755.319 60.9037
398.99 765.957 332.024
398.99 776.596 208.251
398.99 787.234 29.4695
398.99 797.872 29.4695
398.99 808.511 35.3635
398.99 819.149 90.3733
398.99 829.787 90.3733
398.99 840.426 47.1513
398.99 851.064 104.126
398.99 861.702 53.0452
398.99 872.34 98.2318
398.99 882.979 241.65
398.99 893.617 192.534
398.99 904.255 222.004
398.99 914.894 499.018
398.99 925.532 457.76
398.99 936.17 239.686
398.99 946.809 396.857
398.99 957.447 190.57
398.99 968.085 241.65
398.99 978.723 502.947
398.99 989.362 675.835
404.04 21.2766 485.265
404.04 31.9149 868.369
404.04 42.5532 365.422
404.04 53.1915 237.721
404.04 63.8298 210.216
404.04 74.4681 170.923
404.04 85.1064 78.5855
404.04 95.7447 78.5855
404.04 106.383 188.605
404.04 117.021 78.5855
404.04 127.66 119.843
404.04 138.298 49.1159
404.04 148.936 98.2318
404.04 159.574 41.2574
404.04 170.213 49.1159
404.04 180.851 165.029
404.04 191.489 88.4086
404.04 202.128 66.7976
404.04 212.766 137.525
404.04 223.404 131.631
404.04 234.043 135.56
404.04 244.681 15.7171
404.04 255.319 90.3733
404.04 744.681 25.5403
404.04 755.319 49.1159
404.04 765.957 127.701
404.04 776.596 300.589
404.04 787.234 27.5049
404.04 797.872 29.4695
404.04 808.511 43.222
404.04 819.149 111.984
404.04 829.787 104.126
404.04 840.426 98.2318
404.04 851.064 104.126
404.04 861.702 49.1159
404.04 872.34 98.2318
404.04 882.979 227.898
404.04 893.617 214.145
404.04 904.255 204.322
404.04 914.894 499.018
404.04 925.532 412.574
404.04 936.17 497.053
404.04 946.809 396.857
404.04 957.447 328.094
404.04 968.085 328.094
404.04 978.723 502.947
404.04 989.362 677.8
404.04 1000 504.912
409.091 21.2766 652.259
409.091 31.9149 740.668
409.091 42.5532 208.251
409.091 53.1915 237.721
409.091 63.8298 194.499
409.091 74.4681 170.923
409.091 85.1064 100.196
409.091 95.7447 88.4086
409.091 106.383 168.959
409.091 117.021 78.5855
409.091 127.66 141.454
409.091 138.298 49.1159
409.091 148.936 106.09
409.091 159.574 39.2927
409.091 170.213 49.1159
409.091 180.851 106.09
409.091 191.489 82.5147
409.091 202.128 74.6562
409.091 212.766 137.525
409.091 223.404 137.525
409.091 234.043 176.817
409.091 244.681 19.6464
409.091 255.319 80.5501
409.091 755.319 47.1513
409.091 765.957 39.2927
409.091 776.596 290.766
409.091 787.234 106.09
409.091 797.872 25.5403
409.091 808.511 31.4342
409.091 819.149 96.2672
409.091 829.787 41.2574
409.091 840.426 111.984
409.091 851.064 111.984
409.091 861.702 111.984
409.091 872.34 104.126
409.091 882.979 166.994
409.091 893.617 255.403
409.091 904.255 178.782
409.091 914.894 499.018
409.091 925.532 328.094
409.091 936.17 544.204
409.091 946.809 398.821
409.091 957.447 502.947
409.091 968.085 330.059
409.091 978.723 677.8
409.091 989.362 677.8
409.091 1000 677.8
414.141 21.2766 783.89
414.141 31.9149 614.931
414.141 42.5532 186.64
414.141 53.1915 237.721
414.141 63.8298 192.534
414.141 74.4681 170.923
414.141 85.1064 88.4086
414.141 95.7447 88.4086
414.141 106.383 170.923
414.141 117.021 70.7269
414.141 127.66 129.666
414.141 138.298 49.1159
414.141 148.936 98.2318
414.141 159.574 43.222
414.141 170.213 55.0098
414.141 180.851 113.949
414.141 191.489 88.4086
414.141 202.128 74.6562
414.141 212.766 76.6208
414.141 223.404 198.428
414.141 234.043 198.428
414.141 244.681 25.5403
414.141 255.319 86.444
414.141 755.319 13.7525
414.141 765.957 43.222
414.141 776.596 196.464
414.141 787.234 166.994
414.141 797.872 21.611
414.141 808.511 35.3635
414.141 819.149 86.444
414.141 829.787 41.2574
414.141 840.426 113.949
414.141 851.064 45.1866
414.141 861.702 121.807
414.141 872.34 45.1866
414.141 882.979 113.949
414.141 893.617 288.802
414.141 904.255 166.994
414.141 914.894 371.316
414.141 925.532 396.857
414.141 936.17 544.204
414.141 946.809 190.57
414.141 957.447 502.947
414.141 968.085 330.059
414.141 978.723 677.8
414.141 989.362 332.024
414.141 1000 679.764
419.192 21.2766 844.794
419.192 31.9149 434.185
419.192 42.5532 186.64
419.192 53.1915 235.756
419.192 63.8298 157.171
419.192 74.4681 155.206
419.192 85.1064 78.5855
419.192 95.7447 78.5855
419.192 106.383 119.843
419.192 117.021 64.833
419.192 127.66 119.843
419.192 138.298 45.1866
419.192 148.936 98.2318
419.192 159.574 45.1866
419.192 170.213 43.222
419.192 180.851 121.807
419.192 191.489 100.196
419.192 202.128 74.6562
419.192 212.766 72.6916
419.192 223.404 176.817
419.192 234.043 233.792
419.192 244.681 25.5403
419.192 255.319 108.055
419.192 265.957 33.3988
419.192 755.319 13.7525
419.192 765.957 43.222
419.192 776.596 147.348
419.192 787.234 192.534
419.192 797.872 19.6464
419.192 808.511 31.4342
419.192 819.149 76.6208
419.192 829.787 147.348
419.192 840.426 106.09
419.192 851.064 41.2574
419.192 861.702 106.09
419.192 872.34 41.2574
419.192 882.979 92.3379
419.192 893.617 190.57
419.192 904.255 147.348
419.192 914.894 214.145
419.192 925.532 371.316
419.192 936.17 544.204
419.192 946.809 192.534
419.192 957.447 502.947
419.192 968.085 330.059
419.192 978.723 677.8
419.192 989.362 504.912
419.192 1000 677.8
424.242 21.2766 864.44
424.242 31.9149 235.756
424.242 42.5532 98.2318
424.242 53.1915 186.64
424.242 63.8298 96.2672
424.242 74.4681 153.242
424.242 85.1064 70.7269
424.242 95.7447 127.701
424.242 106.383 119.843
424.242 117.021 49.1159
424.242 127.66 110.02
424.242 138.298 45.1866
424.242 148.936 111.984
424.242 159.574 41.2574
424.242 170.213 45.1866
424.242 180.851 121.807
424.242 191.489 82.5147
424.242 202.128 31.4342
424.242 212.766 72.6916
424.242 223.404 241.65
424.242 234.043 198.428
424.242 244.681 70.7269
424.242 255.319 70.7269
424.242 265.957 66.7976
424.242 765.957 15.7171
424.242 776.596 123.772
424.242 787.234 200.393
424.242 797.872 23.5756
424.242 808.511 31.4342
424.242 819.149 123.772
424.242 829.787 125.737
424.242 840.426 113.949
424.242 851.064 45.1866
424.242 861.702 121.807
424.242 872.34 41.2574
424.242 882.979 92.3379
424.242 893.617 170.923
424.242 904.255 157.171
424.242 914.894 202.358
424.242 925.532 371.316
424.242 936.17 583.497
424.242 946.809 157.171
424.242 957.447 502.947
424.242 968.085 330.059
424.242 978.723 502.947
424.242 989.362 330.059
424.242 1000 679.764
429.293 10.6383 728.88
429.293 21.2766 864.44
429.293 31.9149 186.64
429.293 42.5532 111.984
429.293 53.1915 208.251
429.293 63.8298 86.444
429.293 74.4681 139.489
429.293 85.1064 53.0452
429.293 95.7447 110.02
429.293 106.383 45.1866
429.293 117.021 47.1513
429.293 127.66 104.126
429.293 138.298 43.222
429.293 148.936 96.2672
429.293 159.574 39.2927
429.293 170.213 45.1866
429.293 180.851 145.383
429.293 191.489 82.5147
429.293 202.128 31.4342
429.293 212.766 72.6916
429.293 223.404 259.332
429.293 234.043 163.065
429.293 244.681 62.8684
429.293 255.319 31.4342
429.293 265.957 102.161
429.293 276.596 17.6817
429.293 765.957 41.2574
429.293 776.596 123.772
429.293 787.234 214.145
429.293 797.872 21.611
429.293 808.511 31.4342
429.293 819.149 117.878
429.293 829.787 190.57
429.293 840.426 157.171
429.293 851.064 106.09
429.293 861.702 131.631
429.293 872.34 49.1159
429.293 882.979 92.3379
429.293 893.617 170.923
429.293 904.255 139.489
429.293 914.894 202.358
429.293 925.532 330.059
429.293 936.17 538.31
429.293 946.809 157.171
429.293 957.447 398.821
429.293 968.085 330.059
429.293 978.723 502.947
429.293 989.362 330.059
429.293 1000 679.764
434.343 10.6383 819.253
434.343 21.2766 489.194
434.343 31.9149 186.64
434.343 42.5532 131.631
434.343 53.1915 208.251
434.343 63.8298 76.6208
434.343 74.4681 139.489
434.343 85.1064 58.9391
434.343 95.7447 129.666
434.343 106.383 68.7623
434.343 117.021 47.1513
434.343 127.66 110.02
434.343 138.298 51.0806
434.343 148.936 102.161
434.343 159.574 35.3635
434.343 170.213 33.3988
434.343 180.851 137.525
434.343 191.489 84.4794
434.343 202.128 29.4695
434.343 212.766 80.5501
434.343 223.404 259.332
434.343 234.043 131.631
434.343 244.681 88.4086
434.343 255.319 33.3988
434.343 265.957 72.6916
434.343 276.596 45.1866
434.343 765.957 68.7623
434.343 776.596 147.348
434.343 787.234 216.11
434.343 797.872 25.5403
434.343 808.511 31.4342
434.343 819.149 155.206
434.343 829.787 180.747
434.343 840.426 106.09
434.343 851.064 180.747
434.343 861.702 157.171
434.343 872.34 53.0452
434.343 882.979 157.171
434.343 893.617 180.747
434.343 904.255 155.206
434.343 914.894 190.57
434.343 925.532 312.377
434.343 936.17 583.497
434.343 946.809 133.595
434.343 957.447 396.857
434.343 968.085 241.65
434.343 978.723 502.947
434.343 989.362 330.059
434.343 1000 677.8
439.394 0 479.371
439.394 10.6383 819.253
439.394 21.2766 235.756
439.394 31.9149 186.64
439.394 42.5532 98.2318
439.394 53.1915 111.984
439.394 63.8298 208.251
439.394 74.4681 168.959
439.394 85.1064 78.5855
439.394 95.7447 62.8684
439.394 106.383 153.242
439.394 117.021 51.0806
439.394 127.66 102.161
439.394 138.298 47.1513
439.394 148.936 51.0806
439.394 159.574 90.3733
439.394 170.213 31.4342
439.394 180.851 137.525
439.394 191.489 29.4695
439.394 202.128 72.6916
439.394 212.766 80.5501
439.394 223.404 251.473
439.394 234.043 127.701
439.394 244.681 92.3379
439.394 255.319 23.5756
439.394 265.957 64.833
439.394 276.596 49.1159
439.394 287.234 13.7525
439.394 765.957 78.5855
439.394 776.596 159.136
439.394 787.234 178.782
439.394 797.872 27.5049
439.394 808.511 27.5049
439.394 819.149 208.251
439.394 829.787 190.57
439.394 840.426 190.57
439.394 851.064 113.949
439.394 861.702 330.059
439.394 872.34 131.631
439.394 882.979 155.206
439.394 893.617 137.525
439.394 904.255 137.525
439.394 914.894 212.181
439.394 925.532 310.413
439.394 936.17 585.462
439.394 946.809 241.65
439.394 957.447 396.857
439.394 968.085 241.65
439.394 978.723 400.786
439.394 989.362 679.764
439.394 1000 504.912
444.444 0 479.371
444.444 10.6383 652.259
444.444 21.2766 233.792
444.444 31.9149 208.251
444.444 42.5532 111.984
444.444 53.1915 96.2672
444.444 63.8298 166.994
444.444 74.4681 139.489
444.444 85.1064 58.9391
444.444 95.7447 62.8684
444.444 106.383 139.489
444.444 117.021 78.5855
444.444 127.66 56.9745
444.444 138.298 104.126
444.444 148.936 47.1513
444.444 159.574 102.161
444.444 170.213 43.222
444.444 180.851 129.666
444.444 191.489 35.3635
444.444 202.128 80.5501
444.444 212.766 80.5501
444.444 223.404 151.277
444.444 234.043 184.676
444.444 244.681 84.4794
444.444 255.319 19.6464
444.444 265.957 64.833
444.444 276.596 25.5403
444.444 287.234 45.1866
444.444 755.319 51.0806
444.444 765.957 127.701
444.444 776.596 192.534
444.444 787.234 121.807
444.444 797.872 25.5403
444.444 808.511 25.5403
444.444 819.149 310.413
444.444 829.787 212.181
444.444 840.426 155.206
444.444 851.064 300.589
444.444 861.702 302.554
444.444 872.34 155.206
444.444 882.979 155.206
444.444 893.617 137.525
444.444 904.255 145.383
444.444 914.894 214.145
444.444 925.532 371.316
444.444 936.17 585.462
444.444 946.809 277.014
444.444 957.447 396.857
444.444 968.085 241.65
444.444 978.723 400.786
444.444 989.362 677.8
449.495 0 479.371
449.495 10.6383 652.259
449.495 21.2766 269.155
449.495 31.9149 210.216
449.495 42.5532 98.2318
449.495 53.1915 98.2318
449.495 63.8298 168.959
449.495 74.4681 129.666
449.495 85.1064 55.0098
449.495 95.7447 56.9745
449.495 106.383 153.242
449.495 117.021 62.8684
449.495 127.66 56.9745
449.495 138.298 110.02
449.495 148.936 45.1866
449.495 159.574 43.222
449.495 170.213 102.161
449.495 180.851 49.1159
449.495 191.489 88.4086
449.495 202.128 102.161
449.495 212.766 35.3635
449.495 223.404 168.959
449.495 234.043 157.171
449.495 244.681 117.878
449.495 255.319 17.6817
449.495 265.957 58.9391
449.495 276.596 21.611
449.495 287.234 58.9391
449.495 297.872 19.6464
449.495 755.319 49.1159
449.495 765.957 137.525
449.495 776.596 186.64
449.495 787.234 88.4086
449.495 797.872 25.5403
449.495 808.511 70.7269
449.495 819.149 296.66
449.495 829.787 131.631
449.495 840.426 190.57
449.495 851.064 359.528
449.495 861.702 241.65
449.495 872.34 176.817
449.495 882.979 212.181
449.495 893.617 170.923
449.495 904.255 153.242
449.495 914.894 369.352
449.495 925.532 381.139
449.495 936.17 540.275
449.495 946.809 277.014
449.495 957.447 398.821
449.495 968.085 330.059
449.495 978.723 766.208
449.495 989.362 677.8
454.545 10.6383 730.845
454.545 21.2766 412.574
454.545 31.9149 206.287
454.545 42.5532 98.2318
454.545 53.1915 88.4086
454.545 63.8298 78.5855
454.545 74.4681 218.075
454.545 85.1064 64.833
454.545 95.7447 64.833
454.545 106.383 64.833
454.545 117.021 139.489
454.545 127.66 68.7623
454.545 138.298 119.843
454.545 148.936 41.2574
454.545 159.574 37.3281
454.545 170.213 41.2574
454.545 180.851 92.3379
454.545 191.489 166.994
454.545 202.128 115.914
454.545 212.766 41.2574
454.545 223.404 182.711
454.545 234.043 145.383
454.545 244.681 141.454
454.545 255.319 55.0098
454.545 265.957 19.6464
454.545 276.596 56.9745
454.545 287.234 27.5049
454.545 297.872 62.8684
454.545 755.319 90.3733
454.545 765.957 174.853
454.545 776.596 115.914
454.545 787.234 92.3379
454.545 797.872 27.5049
454.545 808.511 110.02
454.545 819.149 265.226
454.545 829.787 170.923
454.545 840.426 326.13
454.545 851.064 328.094
454.545 861.702 155.206
454.545 872.34 241.65
454.545 882.979 200.393
454.545 893.617 145.383
454.545 904.255 188.605
454.545 914.894 538.31
454.545 925.532 398.821
454.545 936.17 538.31
454.545 946.809 328.094
454.545 957.447 398.821
454.545 968.085 330.059
454.545 978.723 766.208
454.545 989.362 504.912
459.596 10.6383 730.845
459.596 21.2766 485.265
459.596 31.9149 235.756
459.596 42.5532 88.4086
459.596 53.1915 88.4086
459.596 63.8298 88.4086
459.596 74.4681 170.923
459.596 85.1064 131.631
459.596 95.7447 70.7269
459.596 106.383 64.833
459.596 117.021 129.666
459.596 127.66 76.6208
459.596 138.298 127.701
459.596 148.936 41.2574
459.596 159.574 39.2927
459.596 170.213 253.438
459.596 180.851 379.175
459.596 191.489 157.171
459.596 202.128 225.933
459.596 212.766 102.161
459.596 223.404 84.4794
459.596 234.043 137.525
459.596 244.681 178.782
459.596 255.319 88.4086
459.596 265.957 60.9037
459.596 276.596 60.9037
459.596 287.234 19.6464
459.596 297.872 68.7623
459.596 308.511 37.3281
459.596 744.681 41.2574
459.596 755.319 147.348
459.596 765.957 192.534
459.596 776.596 82.5147
459.596 787.234 92.3379
459.596 797.872 72.6916
459.596 808.511 216.11
459.596 819.149 271.12
459.596 829.787 241.65
459.596 840.426 369.352
459.596 851.064 265.226
459.596 861.702 257.367
459.596 872.34 286.837
459.596 882.979 286.837
459.596 893.617 145.383
459.596 904.255 259.332
459.596 914.894 379.175
459.596 925.532 300.589
459.596 936.17 459.725
459.596 946.809 398.821
459.596 957.447 675.835
459.596 968.085 332.024
459.596 978.723 766.208
464.646 10.6383 646.365
464.646 21.2766 383.104
464.646 31.9149 318.271
464.646 42.5532 235.756
464.646 53.1915 113.949
464.646 63.8298 100.196
464.646 74.4681 155.206
464.646 85.1064 131.631
464.646 95.7447 72.6916
464.646 106.383 72.6916
464.646 117.021 141.454
464.646 127.66 68.7623
464.646 138.298 62.8684
464.646 148.936 111.984
464.646 159.574 251.473
464.646 170.213 379.175
464.646 180.851 390.963
464.646 191.489 444.008
464.646 202.128 227.898
464.646 212.766 159.136
464.646 223.404 39.2927
464.646 234.043 168.959
464.646 244.681 145.383
464.646 255.319 141.454
464.646 265.957 70.7269
464.646 276.596 55.0098
464.646 287.234 86.444
464.646 297.872 55.0098
464.646 308.511 58.9391
464.646 319.149 21.611
464.646 744.681 45.1866
464.646 755.319 153.242
464.646 765.957 137.525
464.646 776.596 58.9391
464.646 787.234 60.9037
464.646 797.872 121.807
464.646 808.511 214.145
464.646 819.149 455.796
464.646 829.787 369.352
464.646 840.426 369.352
464.646 851.064 369.352
464.646 861.702 349.705
464.646 872.34 308.448
464.646 882.979 223.969
464.646 893.617 190.57
464.646 904.255 306.483
464.646 914.894 328.094
464.646 925.532 463.654
464.646 936.17 546.169
464.646 946.809 400.786
464.646 957.447 504.912
464.646 968.085 819.253
464.646 978.723 766.208
469.697 10.6383 479.371
469.697 21.2766 481.336
469.697 31.9149 485.265
469.697 42.5532 269.155
469.697 53.1915 98.2318
469.697 63.8298 111.984
469.697 74.4681 113.949
469.697 85.1064 155.206
469.697 95.7447 153.242
469.697 106.383 88.4086
469.697 117.021 78.5855
469.697 127.66 153.242
469.697 138.298 70.7269
469.697 148.936 121.807
469.697 159.574 457.76
469.697 170.213 377.21
469.697 180.851 414.538
469.697 191.489 559.921
469.697 202.128 396.857
469.697 212.766 204.322
469.697 223.404 115.914
469.697 234.043 165.029
469.697 244.681 133.595
469.697 255.319 218.075
469.697 265.957 86.444
469.697 276.596 94.3026
469.697 287.234 115.914
469.697 297.872 53.0452
469.697 308.511 15.7171
469.697 319.149 76.6208
469.697 329.787 25.5403
469.697 744.681 184.676
469.697 755.319 241.65
469.697 765.957 117.878
469.697 776.596 51.0806
469.697 787.234 133.595
469.697 797.872 121.807
469.697 808.511 100.196
469.697 819.149 500.982
469.697 829.787 326.13
469.697 840.426 328.094
469.697 851.064 367.387
469.697 861.702 324.165
469.697 872.34 269.155
469.697 882.979 129.666
469.697 893.617 241.65
469.697 904.255 214.145
469.697 914.894 351.67
469.697 925.532 497.053
469.697 936.17 500.982
469.697 946.809 504.912
469.697 957.447 332.024
469.697 968.085 768.173
474.747 21.2766 644.401
474.747 31.9149 481.336
474.747 42.5532 316.306
474.747 53.1915 320.236
474.747 63.8298 129.666
474.747 74.4681 111.984
474.747 85.1064 210.216
474.747 95.7447 153.242
474.747 106.383 86.444
474.747 117.021 70.7269
474.747 127.66 153.242
474.747 138.298 78.5855
474.747 148.936 121.807
474.747 159.574 489.194
474.747 170.213 328.094
474.747 180.851 361.493
474.747 191.489 438.114
474.747 202.128 628.684
474.747 212.766 229.862
474.747 223.404 110.02
474.747 234.043 192.534
474.747 244.681 139.489
474.747 255.319 202.358
474.747 265.957 80.5501
474.747 276.596 86.444
474.747 287.234 51.0806
474.747 297.872 76.6208
474.747 308.511 13.7525
474.747 319.149 39.2927
474.747 329.787 19.6464
474.747 734.043 51.0806
474.747 744.681 210.216
474.747 755.319 151.277
474.747 765.957 55.0098
474.747 776.596 121.807
474.747 787.234 133.595
474.747 797.872 39.2927
474.747 808.511 166.994
474.747 819.149 461.69
474.747 829.787 277.014
474.747 840.426 422.397
474.747 851.064 324.165
474.747 861.702 495.088
474.747 872.34 302.554
474.747 882.979 204.322
474.747 893.617 259.332
474.747 904.255 286.837
474.747 914.894 497.053
474.747 925.532 601.179
474.747 936.17 330.059
474.747 946.809 245.58
474.747 957.447 766.208
474.747 968.085 766.208
479.798 21.2766 479.371
479.798 31.9149 646.365
479.798 42.5532 314.342
479.798 53.1915 359.528
479.798 63.8298 129.666
479.798 74.4681 111.984
479.798 85.1064 186.64
479.798 95.7447 68.7623
479.798 106.383 153.242
479.798 117.021 56.9745
479.798 127.66 141.454
479.798 138.298 58.9391
479.798 148.936 255.403
479.798 159.574 461.69
479.798 170.213 267.191
479.798 180.851 298.625
479.798 191.489 330.059
479.798 202.128 628.684
479.798 212.766 229.862
479.798 223.404 104.126
479.798 234.043 165.029
479.798 244.681 145.383
479.798 255.319 192.534
479.798 265.957 92.3379
479.798 276.596 113.949
479.798 287.234 55.0098
479.798 297.872 82.5147
479.798 308.511 15.7171
479.798 319.149 41.2574
479.798 329.787 17.6817
479.798 734.043 94.3026
479.798 744.681 227.898
479.798 755.319 163.065
479.798 765.957 90.3733
479.798 776.596 151.277
479.798 787.234 43.222
479.798 797.872 90.3733
479.798 808.511 241.65
479.798 819.149 500.982
479.798 829.787 422.397
479.798 840.426 424.361
479.798 851.064 449.902
479.798 861.702 495.088
479.798 872.34 220.039
479.798 882.979 277.014
479.798 893.617 259.332
479.798 904.255 394.892
479.798 914.894 536.346
479.798 925.532 500.982
479.798 936.17 502.947
479.798 946.809 332.024
479.798 957.447 766.208
479.798 968.085 504.912
484.848 31.9149 479.371
484.848 42.5532 730.845
484.848 53.1915 271.12
484.848 63.8298 288.802
484.848 74.4681 84.4794
484.848 85.1064 153.242
484.848 95.7447 62.8684
484.848 106.383 139.489
484.848 117.021 68.7623
484.848 127.66 62.8684
484.848 138.298 129.666
484.848 148.936 253.438
484.848 159.574 390.963
484.848 170.213 265.226
484.848 180.851 332.024
484.848 191.489 284.872
484.848 202.128 681.729
484.848 212.766 216.11
484.848 223.404 39.2927
484.848 234.043 192.534
484.848 244.681 192.534
484.848 255.319 157.171
484.848 265.957 117.878
484.848 276.596 106.09
484.848 287.234 55.0098
484.848 297.872 49.1159
484.848 308.511 43.222
484.848 319.149 43.222
484.848 329.787 19.6464
484.848 734.043 123.772
484.848 744.681 212.181
484.848 755.319 98.2318
484.848 765.957 125.737
484.848 776.596 115.914
484.848 787.234 35.3635
484.848 797.872 104.126
484.848 808.511 206.287
484.848 819.149 265.226
484.848 829.787 367.387
484.848 840.426 440.079
484.848 851.064 597.25
484.848 861.702 377.21
484.848 872.34 239.686
484.848 882.979 326.13
484.848 893.617 457.76
484.848 904.255 530.452
484.848 914.894 497.053
484.848 925.532 400.786
484.848 936.17 330.059
484.848 946.809 502.947
484.848 957.447 764.244
489.899 31.9149 479.371
489.899 42.5532 644.401
489.899 53.1915 483.301
489.899 63.8298 288.802
489.899 74.4681 76.6208
489.899 85.1064 186.64
489.899 95.7447 76.6208
489.899 106.383 153.242
489.899 117.021 88.4086
489.899 127.66 70.7269
489.899 138.298 129.666
489.899 148.936 253.438
489.899 159.574 455.796
489.899 170.213 265.226
489.899 180.851 375.246
489.899 191.489 447.937
489.899 202.128 734.774
489.899 212.766 229.862
489.899 223.404 92.3379
489.899 234.043 192.534
489.899 244.681 102.161
489.899 255.319 190.57
489.899 265.957 123.772
489.899 276.596 45.1866
489.899 287.234 49.1159
489.899 297.872 53.0452
489.899 308.511 47.1513
489.899 319.149 43.222
489.899 329.787 17.6817
489.899 734.043 155.206
489.899 744.681 184.676
489.899 755.319 119.843
489.899 765.957 137.525
489.899 776.596 29.4695
489.899 787.234 84.4794
489.899 797.872 84.4794
489.899 808.511 165.029
489.899 819.149 241.65
489.899 829.787 290.766
489.899 840.426 438.114
489.899 851.064 552.063
489.899 861.702 438.114
489.899 872.34 392.927
489.899 882.979 542.24
489.899 893.617 634.578
489.899 904.255 457.76
489.899 914.894 241.65
489.899 925.532 398.821
489.899 936.17 241.65
489.899 946.809 502.947
489.899 957.447 677.8
494.949 42.5532 479.371
494.949 53.1915 777.996
494.949 63.8298 561.886
494.949 74.4681 86.444
494.949 85.1064 86.444
494.949 95.7447 186.64
494.949 106.383 100.196
494.949 117.021 188.605
494.949 127.66 78.5855
494.949 138.298 153.242
494.949 148.936 218.075
494.949 159.574 455.796
494.949 170.213 300.589
494.949 180.851 332.024
494.949 191.489 500.982
494.949 202.128 644.401
494.949 212.766 271.12
494.949 223.404 151.277
494.949 234.043 190.57
494.949 244.681 100.196
494.949 255.319 176.817
494.949 265.957 88.4086
494.949 276.596 15.7171
494.949 287.234 51.0806
494.949 297.872 55.0098
494.949 308.511 45.1866
494.949 319.149 13.7525
494.949 329.787 43.222
494.949 340.426 17.6817
494.949 723.404 43.222
494.949 734.043 161.1
494.949 744.681 216.11
494.949 755.319 149.312
494.949 765.957 119.843
494.949 776.596 39.2927
494.949 787.234 80.5501
494.949 797.872 43.222
494.949 808.511 165.029
494.949 819.149 186.64
494.949 829.787 324.165
494.949 840.426 552.063
494.949 851.064 599.214
494.949 861.702 392.927
494.949 872.34 438.114
494.949 882.979 597.25
494.949 893.617 666.012
494.949 904.255 357.564
494.949 914.894 157.171
494.949 925.532 500.982
494.949 936.17 328.094
494.949 946.809 500.982
494.949 957.447 675.835
500 42.5532 479.371
500 53.1915 579.568
500 63.8298 483.301
500 74.4681 129.666
500 85.1064 110.02
500 95.7447 208.251
500 106.383 98.2318
500 117.021 186.64
500 127.66 86.444
500 138.298 170.923
500 148.936 218.075
500 159.574 424.361
500 170.213 300.589
500 180.851 296.66
500 191.489 497.053
500 202.128 575.639
500 212.766 271.12
500 223.404 141.454
500 234.043 151.277
500 244.681 133.595
500 255.319 163.065
500 265.957 117.878
500 276.596 17.6817
500 287.234 47.1513
500 297.872 49.1159
500 308.511 49.1159
500 319.149 13.7525
500 329.787 41.2574
500 340.426 15.7171
500 723.404 84.4794
500 734.043 113.949
500 744.681 216.11
500 755.319 157.171
500 765.957 94.3026
500 776.596 80.5501
500 787.234 102.161
500 797.872 43.222
500 808.511 155.206
500 819.149 155.206
500 829.787 275.049
500 840.426 438.114
500 851.064 599.214
500 861.702 369.352
500 872.34 495.088
500 882.979 699.411
500 893.617 540.275
500 904.255 131.631
500 914.894 155.206
500 925.532 500.982
500 936.17 500.982
500 946.809 675.835
500 957.447 675.835
500 968.085 500.982
505.051 53.1915 724.951
505.051 63.8298 379.175
505.051 74.4681 487.23
505.051 85.1064 110.02
505.051 95.7447 235.756
505.051 106.383 98.2318
505.051 117.021 208.251
505.051 127.66 88.4086
505.051 138.298 170.923
505.051 148.936 170.923
505.051 159.574 457.76
505.051 170.213 365.422
505.051 180.851 402.75
505.051 191.489 497.053
505.051 202.128 642.436
505.051 212.766 214.145
505.051 223.404 86.444
505.051 234.043 190.57
505.051 244.681 131.631
505.051 255.319 92.3379
505.051 265.957 170.923
505.051 276.596 17.6817
505.051 287.234 49.1159
505.051 297.872 45.1866
505.051 308.511 55.0098
505.051 319.149 17.6817
505.051 329.787 49.1159
505.051 340.426 17.6817
505.051 723.404 92.3379
505.051 734.043 157.171
505.051 744.681 277.014
505.051 755.319 220.039
505.051 765.957 88.4086
505.051 776.596 84.4794
505.051 787.234 43.222
505.051 797.872 41.2574
505.051 808.511 155.206
505.051 819.149 253.438
505.051 829.787 302.554
505.051 840.426 497.053
505.051 851.064 497.053
505.051 861.702 324.165
505.051 872.34 567.78
505.051 882.979 666.012
505.051 893.617 438.114
505.051 904.255 131.631
505.051 914.894 328.094
505.051 925.532 396.857
505.051 936.17 328.094
505.051 946.809 675.835
505.051 957.447 500.982
505.051 968.085 500.982
510.101 53.1915 724.951
510.101 63.8298 314.342
510.101 74.4681 487.23
510.101 85.1064 127.701
510.101 95.7447 271.12
510.101 106.383 129.666
510.101 117.021 208.251
510.101 127.66 88.4086
510.101 138.298 100.196
510.101 148.936 212.181
510.101 159.574 298.625
510.101 170.213 457.76
510.101 180.851 402.75
510.101 191.489 445.972
510.101 202.128 640.472
510.101 212.766 225.933
510.101 223.404 102.161
510.101 234.043 208.251
510.101 244.681 182.711
510.101 255.319 100.196
510.101 265.957 196.464
510.101 276.596 17.6817
510.101 287.234 51.0806
510.101 297.872 47.1513
510.101 308.511 51.0806
510.101 319.149 15.7171
510.101 329.787 47.1513
510.101 340.426 17.6817
510.101 351.064 15.7171
510.101 712.766 23.5756
510.101 723.404 84.4794
510.101 734.043 157.171
510.101 744.681 216.11
510.101 755.319 204.322
510.101 765.957 94.3026
510.101 776.596 94.3026
510.101 787.234 41.2574
510.101 797.872 49.1159
510.101 808.511 190.57
510.101 819.149 227.898
510.101 829.787 257.367
510.101 840.426 357.564
510.101 851.064 497.053
510.101 861.702 392.927
510.101 872.34 581.532
510.101 882.979 542.24
510.101 893.617 367.387
510.101 904.255 155.206
510.101 914.894 328.094
510.101 925.532 241.65
510.101 936.17 328.094
510.101 946.809 675.835
510.101 957.447 500.982
510.101 968.085 500.982
515.152 53.1915 724.951
515.152 63.8298 182.711
515.152 74.4681 559.921
515.152 85.1064 271.12
515.152 95.7447 271.12
515.152 106.383 131.631
515.152 117.021 210.216
515.152 127.66 88.4086
515.152 138.298 100.196
515.152 148.936 188.605
515.152 159.574 271.12
515.152 170.213 491.159
515.152 180.851 548.134
515.152 191.489 436.149
515.152 202.128 603.143
515.152 212.766 180.747
515.152 223.404 70.7269
515.152 234.043 218.075
515.152 244.681 168.959
515.152 255.319 102.161
515.152 265.957 202.358
515.152 276.596 49.1159
515.152 287.234 53.0452
515.152 297.872 55.0098
515.152 308.511 17.6817
515.152 319.149 51.0806
515.152 329.787 15.7171
515.152 340.426 43.222
515.152 351.064 15.7171
515.152 617.021 19.6464
515.152 712.766 21.611
515.152 723.404 55.0098
515.152 734.043 225.933
515.152 744.681 265.226
515.152 755.319 170.923
515.152 765.957 182.711
515.152 776.596 102.161
515.152 787.234 43.222
515.152 797.872 49.1159
515.152 808.511 292.731
515.152 819.149 188.605
515.152 829.787 277.014
515.152 840.426 394.892
515.152 851.064 396.857
515.152 861.702 636.542
515.152 872.34 597.25
515.152 882.979 449.902
515.152 893.617 155.206
515.152 904.255 396.857
515.152 914.894 396.857
515.152 925.532 190.57
515.152 936.17 330.059
515.152 946.809 675.835
515.152 957.447 675.835
515.152 968.085 500.982
520.202 53.1915 726.916
520.202 63.8298 231.827
520.202 74.4681 381.139
520.202 85.1064 487.23
520.202 95.7447 271.12
520.202 106.383 129.666
520.202 117.021 208.251
520.202 127.66 88.4086
520.202 138.298 70.7269
520.202 148.936 153.242
520.202 159.574 235.756
520.202 170.213 453.831
520.202 180.851 669.941
520.202 191.489 444.008
520.202 202.128 656.189
520.202 212.766 243.615
520.202 223.404 96.2672
520.202 234.043 182.711
520.202 244.681 159.136
520.202 255.319 133.595
520.202 265.957 184.676
520.202 276.596 86.444
520.202 287.234 49.1159
520.202 297.872 53.0452
520.202 308.511 17.6817
520.202 319.149 49.1159
520.202 329.787 17.6817
520.202 340.426 43.222
520.202 351.064 13.7525
520.202 595.745 21.611
520.202 606.383 43.222
520.202 617.021 43.222
520.202 627.66 53.0452
520.202 712.766 21.611
520.202 723.404 84.4794
520.202 734.043 275.049
520.202 744.681 210.216
520.202 755.319 94.3026
520.202 765.957 198.428
520.202 776.596 47.1513
520.202 787.234 41.2574
520.202 797.872 45.1866
520.202 808.511 292.731
520.202 819.149 165.029
520.202 829.787 326.13
520.202 840.426 394.892
520.202 851.064 601.179
520.202 861.702 642.436
520.202 872.34 569.745
520.202 882.979 214.145
520.202 893.617 155.206
520.202 904.255 328.094
520.202 914.894 241.65
520.202 925.532 190.57
520.202 936.17 243.615
520.202 946.809 673.87
520.202 957.447 673.87
525.253 53.1915 644.401
525.253 63.8298 644.401
525.253 74.4681 381.139
525.253 85.1064 487.23
525.253 95.7447 271.12
525.253 106.383 129.666
525.253 117.021 186.64
525.253 127.66 78.5855
525.253 138.298 88.4086
525.253 148.936 139.489
525.253 159.574 64.833
525.253 170.213 387.033
525.253 180.851 534.381
525.253 191.489 377.21
525.253 202.128 677.8
525.253 212.766 371.316
525.253 223.404 104.126
525.253 234.043 102.161
525.253 244.681 210.216
525.253 255.319 168.959
525.253 265.957 117.878
525.253 276.596 170.923
525.253 287.234 15.7171
525.253 297.872 15.7171
525.253 308.511 17.6817
525.253 319.149 17.6817
525.253 329.787 53.0452
525.253 340.426 39.2927
525.253 351.064 13.7525
525.253 595.745 37.3281
525.253 606.383 35.3635
525.253 617.021 15.7171
525.253 627.66 45.1866
525.253 638.298 19.6464
525.253 702.128 17.6817
525.253 712.766 21.611
525.253 723.404 117.878
525.253 734.043 275.049
525.253 744.681 165.029
525.253 755.319 102.161
525.253 765.957 198.428
525.253 776.596 49.1159
525.253 787.234 45.1866
525.253 797.872 49.1159
525.253 808.511 347.741
525.253 819.149 204.322
525.253 829.787 379.175
525.253 840.426 394.892
525.253 851.064 497.053
525.253 861.702 695.481
525.253 872.34 581.532
525.253 882.979 113.949
525.253 893.617 133.595
525.253 904.255 328.094
525.253 914.894 243.615
525.253 925.532 192.534
525.253 936.17 192.534
525.253 946.809 502.947
525.253 957.447 673.87
530.303 53.1915 644.401
530.303 63.8298 644.401
530.303 74.4681 479.371
530.303 85.1064 487.23
530.303 95.7447 271.12
530.303 106.383 129.666
530.303 117.021 168.959
530.303 127.66 78.5855
530.303 138.298 70.7269
530.303 148.936 119.843
530.303 159.574 55.0098
530.303 170.213 487.23
530.303 180.851 497.053
530.303 191.489 398.821
530.303 202.128 493.124
530.303 212.766 620.825
530.303 223.404 110.02
530.303 234.043 49.1159
530.303 244.681 165.029
530.303 255.319 104.126
530.303 265.957 141.454
530.303 276.596 165.029
530.303 287.234 70.7269
530.303 297.872 15.7171
530.303 308.511 17.6817
530.303 319.149 25.5403
530.303 329.787 51.0806
530.303 340.426 37.3281
530.303 351.064 13.7525
530.303 585.106 11.7878
530.303 595.745 31.4342
530.303 606.383 35.3635
530.303 617.021 37.3281
530.303 627.66 51.0806
530.303 638.298 21.611
530.303 702.128 13.7525
530.303 712.766 47.1513
530.303 723.404 145.383
530.303 734.043 243.615
530.303 744.681 151.277
530.303 755.319 96.2672
530.303 765.957 172.888
530.303 776.596 45.1866
530.303 787.234 53.0452
530.303 797.872 111.984
530.303 808.511 284.872
530.303 819.149 300.589
530.303 829.787 379.175
530.303 840.426 369.352
530.303 851.064 497.053
530.303 861.702 736.739
530.303 872.34 497.053
530.303 882.979 131.631
530.303 893.617 133.595
530.303 904.255 330.059
530.303 914.894 192.534
530.303 925.532 192.534
530.303 936.17 243.615
530.303 946.809 760.314
530.303 957.447 671.906
535.354 53.1915 479.371
535.354 63.8298 644.401
535.354 74.4681 312.377
535.354 85.1064 479.371
535.354 95.7447 489.194
535.354 106.383 111.984
535.354 117.021 78.5855
535.354 127.66 141.454
535.354 138.298 58.9391
535.354 148.936 58.9391
535.354 159.574 106.09
535.354 170.213 632.613
535.354 180.851 451.866
535.354 191.489 442.043
535.354 202.128 410.609
535.354 212.766 605.108
535.354 223.404 66.7976
535.354 234.043 45.1866
535.354 244.681 80.5501
535.354 255.319 119.843
535.354 265.957 119.843
535.354 276.596 125.737
535.354 287.234 188.605
535.354 297.872 19.6464
535.354 308.511 21.611
535.354 319.149 27.5049
535.354 329.787 21.611
535.354 340.426 64.833
535.354 595.745 15.7171
535.354 606.383 41.2574
535.354 617.021 51.0806
535.354 627.66 23.5756
535.354 638.298 21.611
535.354 648.936 51.0806
535.354 691.489 11.7878
535.354 702.128 45.1866
535.354 712.766 90.3733
535.354 723.404 139.489
535.354 734.043 269.155
535.354 744.681 151.277
535.354 755.319 143.418
535.354 765.957 143.418
535.354 776.596 45.1866
535.354 787.234 58.9391
535.354 797.872 141.454
535.354 808.511 349.705
535.354 819.149 379.175
535.354 829.787 394.892
535.354 840.426 357.564
535.354 851.064 581.532
535.354 861.702 803.536
535.354 872.34 371.316
535.354 882.979 131.631
535.354 893.617 133.595
535.354 904.255 330.059
535.354 914.894 192.534
535.354 925.532 192.534
535.354 936.17 243.615
535.354 946.809 760.314
540.404 53.1915 479.371
540.404 63.8298 644.401
540.404 74.4681 646.365
540.404 85.1064 579.568
540.404 95.7447 320.236
