152.284 436.893 418.367
152.284 446.602 418.367
152.284 456.311 418.367
152.284 466.019 428.571
152.284 475.728 464.286
152.284 485.437 500
152.284 495.146 540.816
152.284 504.854 530.612
152.284 514.563 352.041
152.284 524.272 102.041
157.36 87.3786 321.429
157.36 97.0874 234.694
157.36 106.796 352.041
157.36 116.505 326.531
157.36 126.214 530.612
157.36 135.922 438.776
157.36 145.631 448.98
157.36 155.34 372.449
157.36 165.049 275.51
157.36 174.757 173.469
157.36 184.466 40.8163
157.36 194.175 40.8163
157.36 203.883 214.286
157.36 213.592 214.286
157.36 223.301 158.163
157.36 233.01 15.3061
157.36 281.553 25.5102
157.36 417.476 86.7347
157.36 427.184 362.245
157.36 436.893 418.367
157.36 446.602 418.367
157.36 456.311 418.367
157.36 466.019 418.367
157.36 475.728 418.367
157.36 485.437 418.367
157.36 495.146 428.571
157.36 504.854 500
157.36 514.563 494.898
157.36 524.272 341.837
157.36 533.981 122.449
162.437 87.3786 321.429
162.437 97.0874 234.694
162.437 106.796 352.041
162.437 116.505 535.714
162.437 126.214 500
162.437 135.922 540.816
162.437 145.631 479.592
162.437 155.34 346.939
162.437 165.049 260.204
162.437 174.757 45.9184
162.437 184.466 40.8163
162.437 194.175 40.8163
162.437 203.883 56.1224
162.437 213.592 173.469
162.437 223.301 51.0204
162.437 233.01 40.8163
162.437 242.718 10.2041
162.437 271.845 30.6122
162.437 281.553 25.5102
162.437 291.262 25.5102
162.437 300.971 15.3061
162.437 417.476 30.6122
162.437 427.184 311.224
162.437 436.893 418.367
162.437 446.602 418.367
162.437 456.311 418.367
162.437 466.019 413.265
162.437 475.728 413.265
162.437 485.437 413.265
162.437 495.146 413.265
162.437 504.854 413.265
162.437 514.563 418.367
162.437 524.272 448.98
162.437 533.981 336.735
162.437 679.612 316.327
162.437 689.32 321.429
162.437 699.029 321.429
162.437 708.738 321.429
167.513 77.6699 316.327
167.513 87.3786 321.429
167.513 97.0874 275.51
167.513 106.796 372.449
167.513 116.505 525.51
167.513 126.214 484.694
167.513 135.922 540.816
167.513 145.631 428.571
167.513 155.34 306.122
167.513 165.049 219.388
167.513 174.757 45.9184
167.513 184.466 45.9184
167.513 194.175 40.8163
167.513 203.883 35.7143
167.513 213.592 51.0204
167.513 223.301 51.0204
167.513 233.01 45.9184
167.513 242.718 35.7143
167.513 252.427 25.5102
167.513 262.136 30.6122
167.513 271.845 30.6122
167.513 281.553 30.6122
167.513 291.262 30.6122
167.513 300.971 25.5102
167.513 310.68 10.2041
167.513 349.515 20.4082
167.513 359.223 35.7143
167.513 417.476 30.6122
167.513 427.184 147.959
167.513 436.893 423.469
167.513 446.602 418.367
167.513 456.311 413.265
167.513 466.019 408.163
167.513 475.728 408.163
167.513 485.437 408.163
167.513 495.146 408.163
167.513 504.854 408.163
167.513 514.563 413.265
167.513 524.272 408.163
167.513 533.981 382.653
167.513 543.689 423.469
167.513 553.398 316.327
167.513 563.107 316.327
167.513 572.816 316.327
167.513 669.903 326.531
167.513 679.612 326.531
167.513 689.32 326.531
167.513 699.029 326.531
167.513 708.738 326.531
172.589 87.3786 321.429
172.589 97.0874 321.429
172.589 106.796 500
172.589 116.505 525.51
172.589 126.214 448.98
172.589 135.922 530.612
172.589 145.631 346.939
172.589 155.34 260.204
172.589 165.049 173.469
172.589 174.757 45.9184
172.589 184.466 45.9184
172.589 194.175 40.8163
172.589 203.883 35.7143
172.589 213.592 30.6122
172.589 223.301 25.5102
172.589 233.01 40.8163
172.589 242.718 40.8163
172.589 252.427 35.7143
172.589 262.136 45.9184
172.589 271.845 45.9184
172.589 281.553 30.6122
172.589 291.262 25.5102
172.589 300.971 25.5102
172.589 310.68 25.5102
172.589 320.388 20.4082
172.589 339.806 10.2041
172.589 349.515 35.7143
172.589 359.223 71.4286
172.589 368.932 30.6122
172.589 378.641 25.5102
172.589 388.35 25.5102
172.589 417.476 91.8367
172.589 427.184 244.898
172.589 436.893 479.592
172.589 446.602 479.592
172.589 456.311 448.98
172.589 466.019 418.367
172.589 475.728 408.163
172.589 485.437 408.163
172.589 495.146 408.163
172.589 504.854 408.163
172.589 514.563 408.163
172.589 524.272 418.367
172.589 533.981 454.082
172.589 543.689 438.776
172.589 553.398 423.469
172.589 563.107 326.531
172.589 572.816 316.327
172.589 582.524 316.327
172.589 660.194 326.531
172.589 669.903 326.531
172.589 679.612 326.531
172.589 689.32 326.531
172.589 699.029 326.531
172.589 708.738 326.531
172.589 834.951 326.531
177.665 87.3786 316.327
177.665 97.0874 316.327
177.665 106.796 581.633
177.665 116.505 448.98
177.665 126.214 540.816
177.665 135.922 448.98
177.665 145.631 306.122
177.665 155.34 219.388
177.665 165.049 45.9184
177.665 174.757 45.9184
177.665 184.466 40.8163
177.665 194.175 35.7143
177.665 203.883 35.7143
177.665 213.592 30.6122
177.665 223.301 25.5102
177.665 233.01 25.5102
177.665 242.718 25.5102
177.665 252.427 25.5102
177.665 262.136 35.7143
177.665 271.845 20.4082
177.665 281.553 40.8163
177.665 291.262 40.8163
177.665 300.971 25.5102
177.665 310.68 25.5102
177.665 320.388 25.5102
177.665 330.097 20.4082
177.665 339.806 20.4082
177.665 349.515 15.3061
177.665 359.223 158.163
177.665 368.932 30.6122
177.665 378.641 25.5102
177.665 388.35 25.5102
177.665 398.058 20.4082
177.665 407.767 86.7347
177.665 417.476 198.98
177.665 427.184 285.714
177.665 436.893 576.531
177.665 446.602 571.429
177.665 456.311 571.429
177.665 466.019 535.714
177.665 475.728 413.265
177.665 485.437 408.163
177.665 495.146 408.163
177.665 504.854 408.163
177.665 514.563 408.163
177.665 524.272 413.265
177.665 533.981 413.265
177.665 543.689 346.939
177.665 553.398 479.592
177.665 563.107 556.122
177.665 572.816 321.429
177.665 582.524 316.327
177.665 592.233 316.327
177.665 640.777 326.531
177.665 650.485 326.531
177.665 660.194 326.531
177.665 669.903 326.531
177.665 679.612 326.531
177.665 689.32 326.531
177.665 699.029 326.531
177.665 708.738 326.531
177.665 747.573 326.531
177.665 757.282 326.531
177.665 805.825 331.633
177.665 815.534 331.633
177.665 825.243 331.633
177.665 834.951 331.633
177.665 844.66 331.633
177.665 854.369 326.531
182.741 97.0874 540.816
182.741 106.796 459.184
182.741 116.505 433.673
182.741 126.214 484.694
182.741 135.922 311.224
182.741 145.631 219.388
182.741 155.34 178.571
182.741 165.049 71.4286
182.741 174.757 40.8163
182.741 184.466 35.7143
182.741 194.175 35.7143
182.741 203.883 30.6122
182.741 213.592 30.6122
182.741 223.301 30.6122
182.741 233.01 25.5102
182.741 242.718 25.5102
182.741 252.427 25.5102
182.741 262.136 25.5102
182.741 271.845 20.4082
182.741 281.553 15.3061
182.741 291.262 15.3061
182.741 300.971 40.8163
182.741 310.68 35.7143
182.741 320.388 25.5102
182.741 330.097 25.5102
182.741 349.515 0
182.741 359.223 25.5102
182.741 368.932 25.5102
182.741 378.641 25.5102
182.741 388.35 25.5102
182.741 398.058 45.9184
182.741 407.767 142.857
182.741 417.476 250
182.741 427.184 418.367
182.741 436.893 535.714
182.741 446.602 561.224
182.741 456.311 566.327
182.741 466.019 566.327
182.741 475.728 505.102
182.741 485.437 408.163
182.741 495.146 357.143
182.741 504.854 316.327
182.741 514.563 270.408
182.741 524.272 316.327
182.741 533.981 367.347
182.741 543.689 515.306
182.741 553.398 448.98
182.741 563.107 596.939
182.741 572.816 418.367
182.741 582.524 397.959
182.741 592.233 316.327
182.741 631.068 326.531
182.741 640.777 326.531
182.741 650.485 326.531
182.741 660.194 326.531
182.741 669.903 326.531
182.741 679.612 326.531
182.741 689.32 326.531
182.741 699.029 326.531
182.741 708.738 326.531
182.741 728.155 331.633
182.741 737.864 331.633
182.741 747.573 331.633
182.741 757.282 331.633
182.741 766.99 326.531
182.741 776.699 326.531
182.741 786.408 331.633
182.741 796.117 331.633
182.741 805.825 331.633
182.741 815.534 331.633
182.741 825.243 331.633
182.741 834.951 331.633
182.741 844.66 331.633
182.741 854.369 331.633
182.741 864.078 326.531
187.817 77.6699 326.531
187.817 87.3786 285.714
187.817 97.0874 612.245
187.817 106.796 464.286
187.817 116.505 500
187.817 126.214 418.367
187.817 135.922 183.673
187.817 145.631 137.755
187.817 155.34 35.7143
187.817 165.049 45.9184
187.817 174.757 56.1224
187.817 184.466 56.1224
187.817 194.175 30.6122
187.817 203.883 30.6122
187.817 213.592 30.6122
187.817 223.301 30.6122
187.817 233.01 25.5102
187.817 242.718 25.5102
187.817 252.427 25.5102
187.817 262.136 20.4082
187.817 271.845 20.4082
187.817 281.553 15.3061
187.817 291.262 15.3061
187.817 300.971 10.2041
187.817 310.68 35.7143
187.817 320.388 30.6122
187.817 330.097 5.10204
187.817 339.806 0
187.817 359.223 20.4082
187.817 368.932 20.4082
187.817 378.641 20.4082
187.817 388.35 20.4082
187.817 398.058 20.4082
187.817 407.767 86.7347
187.817 417.476 357.143
187.817 427.184 418.367
187.817 436.893 535.714
187.817 446.602 530.612
187.817 456.311 530.612
187.817 466.019 545.918
187.817 475.728 484.694
187.817 485.437 454.082
187.817 495.146 311.224
187.817 504.854 219.388
187.817 514.563 127.551
187.817 524.272 183.673
187.817 533.981 295.918
187.817 543.689 489.796
187.817 553.398 423.469
187.817 563.107 551.02
187.817 572.816 474.49
187.817 582.524 372.449
187.817 592.233 362.245
187.817 611.65 275.51
187.817 621.359 326.531
187.817 631.068 326.531
187.817 640.777 326.531
187.817 650.485 326.531
187.817 660.194 326.531
187.817 669.903 326.531
187.817 679.612 326.531
187.817 689.32 326.531
187.817 699.029 326.531
187.817 708.738 326.531
187.817 718.447 336.735
187.817 728.155 336.735
187.817 737.864 336.735
187.817 747.573 336.735
187.817 757.282 331.633
187.817 766.99 469.388
187.817 776.699 464.286
187.817 786.408 336.735
187.817 796.117 336.735
187.817 805.825 331.633
187.817 815.534 331.633
187.817 825.243 331.633
187.817 834.951 469.388
187.817 844.66 438.776
187.817 854.369 408.163
187.817 864.078 382.653
187.817 873.786 362.245
187.817 883.495 250
187.817 893.204 204.082
187.817 902.913 198.98
187.817 912.621 244.898
187.817 922.33 295.918
192.893 67.9612 326.531
192.893 77.6699 285.714
192.893 87.3786 193.878
192.893 97.0874 448.98
192.893 106.796 479.592
192.893 116.505 428.571
192.893 126.214 316.327
192.893 135.922 158.163
192.893 145.631 51.0204
192.893 155.34 51.0204
192.893 165.049 45.9184
192.893 174.757 20.4082
192.893 184.466 51.0204
192.893 194.175 51.0204
192.893 203.883 40.8163
192.893 213.592 30.6122
192.893 223.301 30.6122
192.893 233.01 25.5102
192.893 242.718 25.5102
192.893 252.427 20.4082
192.893 262.136 20.4082
192.893 271.845 20.4082
192.893 281.553 15.3061
192.893 291.262 15.3061
192.893 300.971 40.8163
192.893 310.68 35.7143
192.893 320.388 35.7143
192.893 330.097 30.6122
192.893 339.806 15.3061
192.893 359.223 10.2041
192.893 368.932 20.4082
192.893 378.641 20.4082
192.893 388.35 20.4082
192.893 398.058 15.3061
192.893 407.767 40.8163
192.893 417.476 301.02
192.893 427.184 418.367
192.893 436.893 530.612
192.893 446.602 525.51
192.893 456.311 525.51
192.893 466.019 489.796
192.893 475.728 454.082
192.893 485.437 372.449
192.893 495.146 250
192.893 504.854 168.367
192.893 524.272 91.8367
192.893 533.981 204.082
192.893 543.689 387.755
192.893 553.398 510.204
192.893 563.107 500
192.893 572.816 413.265
192.893 582.524 556.122
192.893 592.233 408.163
192.893 601.942 219.388
192.893 611.65 275.51
192.893 621.359 346.939
192.893 631.068 178.571
192.893 640.777 183.673
192.893 650.485 183.673
192.893 660.194 183.673
192.893 669.903 183.673
192.893 679.612 183.673
192.893 689.32 183.673
192.893 699.029 382.653
192.893 708.738 382.653
192.893 718.447 382.653
192.893 728.155 336.735
192.893 737.864 336.735
192.893 747.573 469.388
192.893 757.282 469.388
192.893 766.99 469.388
192.893 776.699 469.388
192.893 786.408 336.735
192.893 796.117 336.735
192.893 805.825 336.735
192.893 815.534 474.49
192.893 825.243 474.49
192.893 834.951 438.776
192.893 844.66 387.755
192.893 854.369 448.98
192.893 864.078 418.367
192.893 873.786 372.449
192.893 883.495 352.041
192.893 893.204 357.143
192.893 902.913 219.388
192.893 912.621 316.327
192.893 922.33 198.98
192.893 932.039 295.918
197.97 58.2524 321.429
197.97 67.9612 280.612
197.97 77.6699 193.878
197.97 87.3786 632.653
197.97 97.0874 500
197.97 106.796 525.51
197.97 116.505 438.776
197.97 126.214 229.592
197.97 135.922 91.8367
197.97 145.631 51.0204
197.97 155.34 51.0204
197.97 165.049 45.9184
197.97 174.757 40.8163
197.97 184.466 20.4082
197.97 194.175 35.7143
197.97 203.883 40.8163
197.97 213.592 51.0204
197.97 223.301 40.8163
197.97 233.01 25.5102
197.97 242.718 20.4082
197.97 252.427 20.4082
197.97 262.136 20.4082
197.97 271.845 15.3061
197.97 281.553 15.3061
197.97 291.262 30.6122
197.97 300.971 40.8163
197.97 310.68 40.8163
197.97 320.388 35.7143
197.97 330.097 30.6122
197.97 339.806 20.4082
197.97 349.515 0
197.97 368.932 20.4082
197.97 378.641 20.4082
197.97 388.35 20.4082
197.97 398.058 15.3061
197.97 407.767 45.9184
197.97 417.476 147.959
197.97 427.184 413.265
197.97 436.893 525.51
197.97 446.602 525.51
197.97 456.311 489.796
197.97 466.019 428.571
197.97 475.728 408.163
197.97 485.437 306.122
197.97 495.146 198.98
197.97 504.854 107.143
197.97 514.563 0
197.97 524.272 112.245
197.97 533.981 346.939
197.97 543.689 382.653
197.97 553.398 505.102
197.97 563.107 346.939
197.97 572.816 382.653
197.97 582.524 515.306
197.97 592.233 336.735
197.97 601.942 336.735
197.97 611.65 295.918
197.97 621.359 489.796
197.97 631.068 500
197.97 640.777 397.959
197.97 650.485 392.857
197.97 660.194 418.367
197.97 669.903 448.98
197.97 679.612 494.898
197.97 689.32 377.551
197.97 699.029 397.959
197.97 708.738 423.469
197.97 718.447 459.184
197.97 728.155 367.347
197.97 737.864 387.755
197.97 747.573 387.755
197.97 757.282 387.755
197.97 766.99 387.755
197.97 776.699 382.653
197.97 786.408 382.653
197.97 796.117 285.714
197.97 805.825 357.143
197.97 815.534 392.857
197.97 825.243 392.857
197.97 834.951 372.449
197.97 844.66 403.061
197.97 854.369 372.449
197.97 864.078 352.041
197.97 873.786 341.837
197.97 883.495 336.735
197.97 893.204 331.633
197.97 902.913 331.633
197.97 912.621 250
197.97 922.33 341.837
197.97 932.039 244.898
203.046 38.835 321.429
203.046 48.5437 321.429
203.046 58.2524 280.612
203.046 67.9612 193.878
203.046 77.6699 341.837
203.046 87.3786 602.041
203.046 97.0874 556.122
203.046 106.796 408.163
203.046 116.505 352.041
203.046 126.214 158.163
203.046 135.922 56.1224
203.046 145.631 56.1224
203.046 155.34 51.0204
203.046 165.049 45.9184
203.046 174.757 40.8163
203.046 184.466 35.7143
203.046 194.175 20.4082
203.046 203.883 35.7143
203.046 213.592 40.8163
203.046 223.301 35.7143
203.046 233.01 30.6122
203.046 242.718 30.6122
203.046 252.427 25.5102
203.046 262.136 25.5102
203.046 271.845 15.3061
203.046 281.553 15.3061
203.046 291.262 20.4082
203.046 300.971 40.8163
203.046 310.68 40.8163
203.046 320.388 35.7143
203.046 330.097 30.6122
203.046 339.806 20.4082
203.046 349.515 5.10204
203.046 359.223 0
203.046 368.932 15.3061
203.046 378.641 20.4082
203.046 388.35 15.3061
203.046 398.058 15.3061
203.046 407.767 20.4082
203.046 417.476 117.347
203.046 427.184 372.449
203.046 436.893 525.51
203.046 446.602 489.796
203.046 456.311 428.571
203.046 466.019 346.939
203.046 475.728 285.714
203.046 485.437 198.98
203.046 495.146 153.061
203.046 524.272 102.041
203.046 533.981 321.429
203.046 543.689 367.347
203.046 553.398 464.286
203.046 563.107 489.796
203.046 572.816 387.755
203.046 582.524 423.469
203.046 592.233 392.857
203.046 601.942 454.082
203.046 611.65 357.143
203.046 621.359 479.592
203.046 631.068 479.592
203.046 640.777 479.592
203.046 650.485 479.592
203.046 660.194 479.592
203.046 669.903 484.694
203.046 679.612 500
203.046 689.32 397.959
203.046 699.029 403.061
203.046 708.738 413.265
203.046 718.447 372.449
203.046 728.155 397.959
203.046 737.864 397.959
203.046 747.573 397.959
203.046 757.282 392.857
203.046 766.99 392.857
203.046 776.699 392.857
203.046 786.408 392.857
203.046 796.117 387.755
203.046 805.825 270.408
203.046 815.534 326.531
203.046 825.243 341.837
203.046 834.951 362.245
203.046 844.66 352.041
203.046 854.369 346.939
203.046 864.078 341.837
203.046 873.786 336.735
203.046 883.495 336.735
203.046 893.204 331.633
203.046 902.913 331.633
203.046 912.621 71.4286
203.046 922.33 295.918
203.046 932.039 61.2245
208.122 29.1262 321.429
208.122 38.835 321.429
208.122 48.5437 321.429
208.122 58.2524 234.694
208.122 67.9612 352.041
208.122 77.6699 331.633
208.122 87.3786 591.837
208.122 97.0874 489.796
208.122 106.796 413.265
208.122 116.505 270.408
208.122 126.214 51.0204
208.122 135.922 35.7143
208.122 145.631 30.6122
208.122 155.34 35.7143
208.122 165.049 40.8163
208.122 174.757 40.8163
208.122 184.466 40.8163
208.122 194.175 35.7143
208.122 203.883 20.4082
208.122 213.592 25.5102
208.122 223.301 25.5102
208.122 233.01 30.6122
208.122 242.718 30.6122
208.122 252.427 25.5102
208.122 262.136 25.5102
208.122 271.845 25.5102
208.122 281.553 20.4082
208.122 291.262 10.2041
208.122 300.971 40.8163
208.122 310.68 40.8163
208.122 320.388 35.7143
208.122 330.097 25.5102
208.122 339.806 20.4082
208.122 349.515 10.2041
208.122 359.223 5.10204
208.122 368.932 15.3061
208.122 378.641 15.3061
208.122 388.35 15.3061
208.122 398.058 15.3061
208.122 407.767 5.10204
208.122 417.476 56.1224
208.122 427.184 244.898
208.122 436.893 433.673
208.122 446.602 408.163
208.122 456.311 346.939
208.122 466.019 244.898
208.122 475.728 132.653
208.122 485.437 86.7347
208.122 495.146 107.143
208.122 514.563 5.10204
208.122 524.272 153.061
208.122 533.981 321.429
208.122 543.689 362.245
208.122 553.398 433.673
208.122 563.107 494.898
208.122 572.816 464.286
208.122 582.524 469.388
208.122 592.233 469.388
208.122 601.942 464.286
208.122 611.65 357.143
208.122 621.359 484.694
208.122 631.068 479.592
208.122 640.777 479.592
208.122 650.485 474.49
208.122 660.194 474.49
208.122 669.903 464.286
208.122 679.612 464.286
208.122 689.32 464.286
208.122 699.029 341.837
208.122 708.738 341.837
208.122 718.447 346.939
208.122 728.155 352.041
208.122 737.864 352.041
208.122 747.573 352.041
208.122 757.282 352.041
208.122 766.99 346.939
208.122 776.699 341.837
208.122 786.408 341.837
208.122 796.117 336.735
208.122 805.825 331.633
208.122 815.534 352.041
208.122 825.243 224.49
208.122 834.951 306.122
208.122 844.66 341.837
208.122 854.369 341.837
208.122 864.078 341.837
208.122 873.786 336.735
208.122 883.495 336.735
208.122 893.204 336.735
208.122 902.913 331.633
208.122 912.621 336.735
208.122 922.33 255.102
208.122 932.039 341.837
208.122 941.748 198.98
213.198 29.1262 321.429
213.198 38.835 321.429
213.198 48.5437 321.429
213.198 58.2524 234.694
213.198 67.9612 352.041
213.198 77.6699 321.429
213.198 87.3786 505.102
213.198 97.0874 474.49
213.198 106.796 372.449
213.198 116.505 178.571
213.198 126.214 35.7143
213.198 135.922 35.7143
213.198 145.631 30.6122
213.198 155.34 30.6122
213.198 165.049 25.5102
213.198 174.757 25.5102
213.198 184.466 20.4082
213.198 194.175 20.4082
213.198 203.883 25.5102
213.198 213.592 25.5102
213.198 223.301 10.2041
213.198 233.01 10.2041
213.198 242.718 20.4082
213.198 252.427 25.5102
213.198 262.136 25.5102
213.198 271.845 20.4082
213.198 281.553 20.4082
213.198 291.262 10.2041
213.198 300.971 40.8163
213.198 310.68 35.7143
213.198 320.388 30.6122
213.198 330.097 25.5102
213.198 339.806 20.4082
213.198 349.515 5.10204
213.198 359.223 0
213.198 368.932 0
213.198 378.641 10.2041
213.198 388.35 10.2041
213.198 398.058 5.10204
213.198 407.767 5.10204
213.198 417.476 15.3061
213.198 427.184 40.8163
213.198 436.893 326.531
213.198 446.602 326.531
213.198 456.311 250
213.198 466.019 132.653
213.198 475.728 86.7347
213.198 514.563 61.2245
213.198 524.272 204.082
213.198 533.981 295.918
213.198 543.689 295.918
213.198 553.398 341.837
213.198 563.107 459.184
213.198 572.816 489.796
213.198 582.524 535.714
213.198 592.233 459.184
213.198 601.942 459.184
213.198 611.65 377.551
213.198 621.359 484.694
213.198 631.068 484.694
213.198 640.777 479.592
213.198 650.485 479.592
213.198 660.194 474.49
213.198 669.903 469.388
213.198 679.612 464.286
213.198 689.32 459.184
213.198 699.029 336.735
213.198 708.738 336.735
213.198 718.447 336.735
213.198 728.155 336.735
213.198 737.864 336.735
213.198 747.573 336.735
213.198 757.282 336.735
213.198 766.99 331.633
213.198 776.699 331.633
213.198 786.408 331.633
213.198 796.117 331.633
213.198 805.825 326.531
213.198 815.534 326.531
213.198 825.243 326.531
213.198 834.951 255.102
213.198 844.66 341.837
213.198 854.369 341.837
213.198 864.078 341.837
213.198 873.786 336.735
213.198 883.495 336.735
213.198 893.204 336.735
213.198 902.913 336.735
213.198 912.621 336.735
213.198 922.33 117.347
213.198 932.039 341.837
213.198 941.748 341.837
213.198 980.583 336.735
213.198 990.291 336.735
218.274 29.1262 321.429
218.274 38.835 321.429
218.274 48.5437 321.429
218.274 58.2524 234.694
218.274 67.9612 352.041
218.274 77.6699 321.429
218.274 87.3786 479.592
218.274 97.0874 469.388
218.274 106.796 331.633
218.274 116.505 40.8163
218.274 126.214 35.7143
218.274 135.922 35.7143
218.274 145.631 30.6122
218.274 155.34 30.6122
218.274 165.049 25.5102
218.274 174.757 25.5102
218.274 184.466 20.4082
218.274 194.175 20.4082
218.274 203.883 15.3061
218.274 213.592 15.3061
218.274 223.301 10.2041
218.274 233.01 10.2041
218.274 242.718 5.10204
218.274 252.427 5.10204
218.274 262.136 5.10204
218.274 271.845 10.2041
218.274 281.553 10.2041
218.274 291.262 5.10204
218.274 300.971 35.7143
218.274 310.68 30.6122
218.274 320.388 30.6122
218.274 330.097 25.5102
218.274 339.806 20.4082
218.274 349.515 10.2041
218.274 359.223 5.10204
218.274 368.932 0
218.274 398.058 5.10204
218.274 407.767 5.10204
218.274 417.476 15.3061
218.274 427.184 15.3061
218.274 436.893 158.163
218.274 446.602 173.469
218.274 456.311 127.551
218.274 466.019 81.6327
218.274 514.563 66.3265
218.274 524.272 188.776
218.274 533.981 250
218.274 543.689 255.102
218.274 553.398 479.592
218.274 563.107 423.469
218.274 572.816 489.796
218.274 582.524 464.286
218.274 592.233 459.184
218.274 601.942 362.245
218.274 611.65 403.061
218.274 621.359 484.694
218.274 631.068 479.592
218.274 640.777 479.592
218.274 650.485 474.49
218.274 660.194 474.49
218.274 669.903 469.388
218.274 679.612 469.388
218.274 689.32 459.184
218.274 699.029 336.735
218.274 708.738 336.735
218.274 718.447 336.735
218.274 728.155 336.735
218.274 737.864 336.735
218.274 747.573 336.735
218.274 757.282 336.735
218.274 766.99 331.633
218.274 776.699 331.633
218.274 786.408 331.633
218.274 796.117 331.633
218.274 805.825 326.531
218.274 815.534 326.531
218.274 825.243 326.531
218.274 834.951 122.449
218.274 844.66 341.837
218.274 854.369 341.837
218.274 864.078 341.837
218.274 873.786 341.837
218.274 883.495 336.735
218.274 893.204 336.735
218.274 902.913 336.735
218.274 912.621 336.735
218.274 922.33 71.4286
218.274 932.039 301.02
218.274 941.748 341.837
218.274 951.456 341.837
218.274 961.165 341.837
218.274 970.874 341.837
218.274 980.583 341.837
218.274 990.291 341.837
218.274 1000 336.735
223.35 29.1262 321.429
223.35 38.835 321.429
223.35 48.5437 321.429
223.35 58.2524 234.694
223.35 67.9612 352.041
223.35 77.6699 448.98
223.35 87.3786 484.694
223.35 97.0874 438.776
223.35 106.796 224.49
223.35 116.505 40.8163
223.35 126.214 35.7143
223.35 135.922 35.7143
223.35 145.631 30.6122
223.35 155.34 25.5102
223.35 165.049 25.5102
223.35 174.757 25.5102
223.35 184.466 20.4082
223.35 194.175 20.4082
223.35 203.883 15.3061
223.35 213.592 15.3061
223.35 223.301 10.2041
223.35 233.01 10.2041
223.35 242.718 10.2041
223.35 252.427 5.10204
223.35 262.136 10.2041
223.35 271.845 0
223.35 281.553 0
223.35 300.971 20.4082
223.35 310.68 30.6122
223.35 320.388 30.6122
223.35 330.097 25.5102
223.35 339.806 15.3061
223.35 349.515 10.2041
223.35 359.223 5.10204
223.35 368.932 0
223.35 378.641 0
223.35 398.058 0
223.35 407.767 0
223.35 417.476 15.3061
223.35 427.184 15.3061
223.35 446.602 76.5306
223.35 456.311 81.6327
223.35 514.563 122.449
223.35 524.272 193.878
223.35 533.981 392.857
223.35 543.689 158.163
223.35 553.398 448.98
223.35 563.107 357.143
223.35 572.816 484.694
223.35 582.524 479.592
223.35 592.233 464.286
223.35 601.942 377.551
223.35 611.65 484.694
223.35 621.359 479.592
223.35 631.068 479.592
223.35 640.777 479.592
223.35 650.485 479.592
223.35 660.194 474.49
223.35 669.903 469.388
223.35 679.612 469.388
223.35 689.32 464.286
223.35 699.029 336.735
223.35 708.738 336.735
223.35 718.447 336.735
223.35 728.155 336.735
223.35 737.864 336.735
223.35 747.573 336.735
223.35 757.282 336.735
223.35 766.99 331.633
223.35 776.699 331.633
223.35 786.408 331.633
223.35 796.117 331.633
223.35 805.825 326.531
223.35 815.534 326.531
223.35 825.243 326.531
223.35 834.951 122.449
223.35 844.66 341.837
223.35 854.369 341.837
223.35 864.078 341.837
223.35 873.786 341.837
223.35 883.495 336.735
223.35 893.204 336.735
223.35 902.913 336.735
223.35 912.621 336.735
223.35 922.33 331.633
223.35 932.039 255.102
223.35 941.748 341.837
223.35 951.456 341.837
223.35 961.165 341.837
223.35 970.874 341.837
223.35 980.583 341.837
223.35 990.291 341.837
223.35 1000 336.735
228.426 38.835 321.429
228.426 48.5437 321.429
228.426 58.2524 280.612
228.426 67.9612 372.449
228.426 77.6699 530.612
228.426 87.3786 510.204
228.426 97.0874 459.184
228.426 106.796 107.143
228.426 116.505 40.8163
228.426 126.214 35.7143
228.426 135.922 35.7143
228.426 145.631 30.6122
228.426 155.34 25.5102
228.426 165.049 25.5102
228.426 174.757 20.4082
228.426 184.466 20.4082
228.426 194.175 15.3061
228.426 203.883 15.3061
228.426 213.592 10.2041
228.426 223.301 10.2041
228.426 233.01 10.2041
228.426 242.718 10.2041
228.426 252.427 5.10204
228.426 262.136 5.10204
228.426 271.845 0
228.426 300.971 0
228.426 310.68 20.4082
228.426 320.388 20.4082
228.426 330.097 20.4082
228.426 339.806 10.2041
228.426 349.515 10.2041
228.426 359.223 5.10204
228.426 368.932 0
228.426 378.641 0
228.426 407.767 0
228.426 417.476 15.3061
228.426 427.184 5.10204
228.426 504.854 40.8163
228.426 514.563 137.755
228.426 524.272 183.673
228.426 533.981 382.653
228.426 543.689 403.061
228.426 553.398 423.469
228.426 563.107 352.041
228.426 572.816 484.694
228.426 582.524 479.592
228.426 592.233 367.347
228.426 601.942 403.061
228.426 611.65 484.694
228.426 621.359 479.592
228.426 631.068 479.592
228.426 640.777 479.592
228.426 650.485 474.49
228.426 660.194 474.49
228.426 669.903 474.49
228.426 679.612 469.388
228.426 689.32 469.388
228.426 699.029 459.184
228.426 708.738 336.735
228.426 718.447 336.735
228.426 728.155 336.735
228.426 737.864 336.735
228.426 747.573 336.735
228.426 757.282 336.735
228.426 766.99 331.633
228.426 776.699 331.633
228.426 786.408 331.633
228.426 796.117 331.633
228.426 805.825 326.531
228.426 815.534 326.531
228.426 825.243 331.633
228.426 834.951 168.367
228.426 844.66 341.837
228.426 854.369 341.837
228.426 864.078 341.837
228.426 873.786 341.837
228.426 883.495 336.735
228.426 893.204 336.735
228.426 902.913 336.735
228.426 912.621 336.735
228.426 922.33 336.735
228.426 932.039 117.347
228.426 941.748 341.837
228.426 951.456 341.837
228.426 961.165 341.837
228.426 970.874 341.837
228.426 980.583 341.837
228.426 990.291 341.837
228.426 1000 336.735
233.503 48.5437 321.429
233.503 58.2524 321.429
233.503 67.9612 234.694
233.503 77.6699 561.224
233.503 87.3786 545.918
233.503 97.0874 454.082
233.503 106.796 45.9184
233.503 116.505 40.8163
233.503 126.214 35.7143
233.503 135.922 30.6122
233.503 145.631 25.5102
233.503 155.34 25.5102
233.503 165.049 25.5102
233.503 174.757 20.4082
233.503 184.466 20.4082
233.503 194.175 15.3061
233.503 203.883 15.3061
233.503 213.592 10.2041
233.503 223.301 10.2041
233.503 233.01 10.2041
233.503 242.718 5.10204
233.503 252.427 5.10204
233.503 262.136 0
233.503 271.845 0
233.503 310.68 0
233.503 320.388 5.10204
233.503 330.097 10.2041
233.503 339.806 10.2041
233.503 349.515 5.10204
233.503 359.223 5.10204
233.503 368.932 0
233.503 378.641 0
233.503 427.184 5.10204
233.503 504.854 107.143
233.503 514.563 198.98
233.503 524.272 183.673
233.503 533.981 403.061
233.503 543.689 494.898
233.503 553.398 372.449
233.503 563.107 372.449
233.503 572.816 484.694
233.503 582.524 479.592
233.503 592.233 382.653
233.503 601.942 484.694
233.503 611.65 484.694
233.503 621.359 484.694
233.503 631.068 479.592
233.503 640.777 479.592
233.503 650.485 474.49
233.503 660.194 474.49
233.503 669.903 474.49
233.503 679.612 474.49
233.503 689.32 469.388
233.503 699.029 464.286
233.503 708.738 336.735
233.503 718.447 336.735
233.503 728.155 336.735
233.503 737.864 336.735
233.503 747.573 336.735
233.503 757.282 336.735
233.503 766.99 331.633
233.503 776.699 331.633
233.503 786.408 331.633
233.503 796.117 326.531
233.503 805.825 326.531
233.503 815.534 331.633
233.503 825.243 163.265
233.503 834.951 209.184
233.503 844.66 341.837
233.503 854.369 341.837
233.503 864.078 341.837
233.503 873.786 341.837
233.503 883.495 336.735
233.503 893.204 336.735
233.503 902.913 336.735
233.503 912.621 336.735
233.503 922.33 336.735
233.503 932.039 117.347
233.503 941.748 341.837
233.503 951.456 341.837
233.503 961.165 341.837
233.503 970.874 341.837
233.503 980.583 341.837
233.503 990.291 341.837
238.579 58.2524 316.327
238.579 67.9612 280.612
238.579 77.6699 586.735
238.579 87.3786 581.633
238.579 97.0874 438.776
238.579 106.796 45.9184
238.579 116.505 40.8163
238.579 126.214 35.7143
238.579 135.922 30.6122
238.579 145.631 25.5102
238.579 155.34 25.5102
238.579 165.049 25.5102
238.579 174.757 20.4082
238.579 184.466 15.3061
238.579 194.175 15.3061
238.579 203.883 15.3061
238.579 213.592 10.2041
238.579 223.301 10.2041
238.579 233.01 5.10204
238.579 242.718 5.10204
238.579 252.427 0
238.579 262.136 0
238.579 330.097 0
238.579 339.806 5.10204
238.579 349.515 5.10204
238.579 359.223 0
238.579 368.932 0
238.579 427.184 0
238.579 436.893 0
238.579 495.146 76.5306
238.579 504.854 188.776
238.579 514.563 295.918
238.579 524.272 255.102
238.579 533.981 494.898
238.579 543.689 494.898
238.579 553.398 198.98
238.579 563.107 397.959
238.579 572.816 484.694
238.579 582.524 479.592
238.579 592.233 372.449
238.579 601.942 500
238.579 611.65 484.694
238.579 621.359 484.694
238.579 631.068 479.592
238.579 640.777 479.592
238.579 650.485 474.49
238.579 660.194 474.49
238.579 669.903 474.49
238.579 679.612 474.49
238.579 689.32 469.388
238.579 699.029 474.49
238.579 708.738 382.653
238.579 718.447 484.694
238.579 728.155 336.735
238.579 737.864 336.735
238.579 747.573 336.735
238.579 757.282 331.633
238.579 766.99 331.633
238.579 776.699 331.633
238.579 786.408 331.633
238.579 796.117 326.531
238.579 805.825 336.735
238.579 815.534 163.265
238.579 825.243 209.184
238.579 834.951 341.837
238.579 844.66 341.837
238.579 854.369 341.837
238.579 864.078 341.837
238.579 873.786 341.837
238.579 883.495 336.735
238.579 893.204 336.735
238.579 902.913 336.735
238.579 912.621 336.735
238.579 922.33 336.735
238.579 932.039 117.347
238.579 941.748 341.837
238.579 951.456 341.837
238.579 961.165 341.837
238.579 970.874 341.837
238.579 980.583 341.837
238.579 990.291 341.837
243.655 67.9612 505.102
243.655 77.6699 505.102
243.655 87.3786 571.429
243.655 97.0874 484.694
243.655 106.796 35.7143
243.655 116.505 0
243.655 126.214 0
243.655 242.718 0
243.655 252.427 0
243.655 359.223 0
243.655 436.893 0
243.655 485.437 5.10204
243.655 495.146 122.449
243.655 504.854 244.898
243.655 514.563 244.898
243.655 524.272 408.163
243.655 533.981 494.898
243.655 543.689 372.449
243.655 553.398 265.306
243.655 563.107 484.694
243.655 572.816 484.694
243.655 582.524 474.49
243.655 592.233 377.551
243.655 601.942 464.286
243.655 611.65 484.694
243.655 621.359 484.694
243.655 631.068 484.694
243.655 640.777 479.592
243.655 650.485 479.592
243.655 660.194 474.49
243.655 669.903 474.49
243.655 679.612 474.49
243.655 689.32 469.388
243.655 699.029 367.347
243.655 708.738 408.163
243.655 718.447 484.694
243.655 728.155 484.694
243.655 737.864 479.592
243.655 747.573 474.49
243.655 757.282 469.388
243.655 766.99 469.388
243.655 776.699 469.388
243.655 786.408 469.388
243.655 796.117 469.388
243.655 805.825 377.551
243.655 815.534 397.959
243.655 825.243 474.49
243.655 834.951 341.837
243.655 844.66 341.837
243.655 854.369 341.837
243.655 864.078 341.837
243.655 873.786 341.837
243.655 883.495 336.735
243.655 893.204 336.735
243.655 902.913 336.735
243.655 912.621 336.735
243.655 922.33 331.633
243.655 932.039 117.347
243.655 941.748 341.837
243.655 951.456 341.837
243.655 961.165 341.837
243.655 970.874 341.837
243.655 980.583 341.837
248.731 67.9612 545.918
248.731 77.6699 576.531
248.731 87.3786 556.122
248.731 97.0874 459.184
248.731 106.796 147.959
248.731 116.505 5.10204
248.731 485.437 5.10204
248.731 495.146 132.653
248.731 504.854 397.959
248.731 514.563 387.755
248.731 524.272 494.898
248.731 533.981 494.898
248.731 543.689 204.082
248.731 553.398 408.163
248.731 563.107 489.796
248.731 572.816 489.796
248.731 582.524 484.694
248.731 592.233 484.694
248.731 601.942 423.469
248.731 611.65 540.816
248.731 621.359 484.694
248.731 631.068 484.694
248.731 640.777 479.592
248.731 650.485 479.592
248.731 660.194 479.592
248.731 669.903 474.49
248.731 679.612 474.49
248.731 689.32 474.49
248.731 699.029 387.755
248.731 708.738 489.796
248.731 718.447 484.694
248.731 728.155 484.694
248.731 737.864 479.592
248.731 747.573 479.592
248.731 757.282 474.49
248.731 766.99 474.49
248.731 776.699 469.388
248.731 786.408 474.49
248.731 796.117 372.449
248.731 805.825 397.959
248.731 815.534 479.592
248.731 825.243 474.49
248.731 834.951 474.49
248.731 844.66 474.49
248.731 854.369 341.837
248.731 864.078 341.837
248.731 873.786 341.837
248.731 883.495 336.735
248.731 893.204 336.735
248.731 902.913 336.735
248.731 912.621 331.633
248.731 922.33 341.837
248.731 932.039 163.265
248.731 941.748 341.837
248.731 951.456 341.837
248.731 961.165 341.837
248.731 970.874 341.837
248.731 980.583 341.837
253.807 67.9612 576.531
253.807 77.6699 566.327
253.807 87.3786 520.408
253.807 97.0874 408.163
253.807 106.796 86.7347
253.807 495.146 96.9388
253.807 504.854 193.878
253.807 514.563 413.265
253.807 524.272 505.102
253.807 533.981 362.245
253.807 543.689 209.184
253.807 553.398 494.898
253.807 563.107 494.898
253.807 572.816 494.898
253.807 582.524 489.796
253.807 592.233 500
253.807 601.942 479.592
253.807 611.65 448.98
253.807 621.359 489.796
253.807 631.068 489.796
253.807 640.777 484.694
253.807 650.485 484.694
253.807 660.194 479.592
253.807 669.903 474.49
253.807 679.612 479.592
253.807 689.32 392.857
253.807 699.029 413.265
253.807 708.738 494.898
253.807 718.447 489.796
253.807 728.155 484.694
253.807 737.864 484.694
253.807 747.573 479.592
253.807 757.282 474.49
253.807 766.99 474.49
253.807 776.699 474.49
253.807 786.408 377.551
253.807 796.117 397.959
253.807 805.825 479.592
253.807 815.534 479.592
253.807 825.243 479.592
253.807 834.951 479.592
253.807 844.66 479.592
253.807 854.369 479.592
253.807 864.078 474.49
253.807 873.786 341.837
253.807 883.495 336.735
253.807 893.204 336.735
253.807 902.913 336.735
253.807 912.621 341.837
253.807 922.33 163.265
253.807 932.039 209.184
253.807 941.748 341.837
253.807 951.456 341.837
253.807 961.165 341.837
253.807 970.874 341.837
258.883 67.9612 586.735
258.883 77.6699 653.061
258.883 87.3786 540.816
258.883 97.0874 372.449
258.883 495.146 56.1224
258.883 504.854 260.204
258.883 514.563 464.286
258.883 524.272 484.694
258.883 533.981 494.898
258.883 543.689 306.122
258.883 553.398 494.898
258.883 563.107 494.898
258.883 572.816 494.898
258.883 582.524 494.898
258.883 592.233 505.102
258.883 601.942 489.796
258.883 611.65 362.245
258.883 621.359 566.327
258.883 631.068 489.796
258.883 640.777 489.796
258.883 650.485 484.694
258.883 660.194 484.694
258.883 669.903 479.592
258.883 679.612 377.551
258.883 689.32 413.265
258.883 699.029 500
258.883 708.738 494.898
258.883 718.447 489.796
258.883 728.155 484.694
258.883 737.864 479.592
258.883 747.573 479.592
258.883 757.282 474.49
258.883 766.99 484.694
258.883 776.699 382.653
258.883 786.408 403.061
258.883 796.117 484.694
258.883 805.825 479.592
258.883 815.534 479.592
258.883 825.243 479.592
258.883 834.951 479.592
258.883 844.66 479.592
258.883 854.369 479.592
258.883 864.078 479.592
258.883 873.786 474.49
258.883 883.495 341.837
258.883 893.204 341.837
258.883 902.913 352.041
258.883 912.621 163.265
258.883 922.33 209.184
258.883 932.039 341.837
258.883 941.748 341.837
258.883 951.456 341.837
258.883 961.165 352.041
263.959 67.9612 576.531
263.959 77.6699 596.939
263.959 87.3786 479.592
263.959 97.0874 295.918
263.959 495.146 5.10204
263.959 504.854 117.347
263.959 514.563 331.633
263.959 524.272 438.776
263.959 533.981 515.306
263.959 543.689 270.408
263.959 553.398 515.306
263.959 563.107 510.204
263.959 572.816 505.102
263.959 582.524 494.898
263.959 592.233 510.204
263.959 601.942 632.653
263.959 611.65 556.122
263.959 621.359 535.714
263.959 631.068 494.898
263.959 640.777 489.796
263.959 650.485 489.796
263.959 660.194 484.694
263.959 669.903 484.694
263.959 679.612 397.959
263.959 689.32 500
263.959 699.029 500
263.959 708.738 500
263.959 718.447 494.898
263.959 728.155 484.694
263.959 737.864 479.592
263.959 747.573 479.592
263.959 757.282 387.755
263.959 766.99 408.163
263.959 776.699 408.163
263.959 786.408 484.694
263.959 796.117 484.694
263.959 805.825 484.694
263.959 815.534 479.592
263.959 825.243 479.592
263.959 834.951 479.592
263.959 844.66 479.592
263.959 854.369 484.694
263.959 864.078 382.653
263.959 873.786 397.959
263.959 883.495 209.184
263.959 893.204 209.184
263.959 902.913 209.184
263.959 912.621 209.184
263.959 922.33 341.837
263.959 932.039 346.939
263.959 941.748 352.041
269.036 67.9612 556.122
269.036 77.6699 535.714
269.036 87.3786 489.796
269.036 97.0874 234.694
269.036 495.146 76.5306
269.036 504.854 163.265
269.036 514.563 250
269.036 524.272 367.347
269.036 533.981 459.184
269.036 543.689 408.163
269.036 553.398 489.796
269.036 563.107 520.408
269.036 572.816 612.245
269.036 582.524 515.306
269.036 592.233 505.102
269.036 601.942 622.449
269.036 611.65 392.857
269.036 621.359 423.469
269.036 631.068 500
269.036 640.777 500
269.036 650.485 494.898
269.036 660.194 500
269.036 669.903 397.959
269.036 679.612 423.469
269.036 689.32 505.102
269.036 699.029 505.102
269.036 708.738 500
269.036 718.447 494.898
269.036 728.155 484.694
269.036 737.864 479.592
269.036 747.573 392.857
269.036 757.282 413.265
269.036 766.99 494.898
269.036 776.699 489.796
269.036 786.408 489.796
269.036 796.117 484.694
269.036 805.825 479.592
269.036 815.534 489.796
269.036 825.243 377.551
269.036 834.951 397.959
269.036 844.66 397.959
269.036 854.369 341.837
269.036 864.078 341.837
269.036 873.786 341.837
269.036 883.495 479.592
269.036 893.204 341.837
269.036 902.913 341.837
269.036 912.621 341.837
274.112 67.9612 581.633
274.112 77.6699 540.816
274.112 87.3786 479.592
274.112 97.0874 198.98
274.112 495.146 81.6327
274.112 504.854 188.776
274.112 514.563 112.245
274.112 524.272 214.286
274.112 533.981 316.327
274.112 543.689 464.286
274.112 553.398 428.571
274.112 563.107 505.102
274.112 572.816 500
274.112 582.524 500
274.112 592.233 596.939
274.112 601.942 612.245
274.112 611.65 464.286
274.112 621.359 433.673
274.112 631.068 535.714
274.112 640.777 433.673
274.112 650.485 428.571
274.112 660.194 428.571
274.112 669.903 428.571
274.112 679.612 510.204
274.112 689.32 505.102
274.112 699.029 505.102
274.112 708.738 505.102
274.112 718.447 494.898
274.112 728.155 489.796
274.112 737.864 392.857
274.112 747.573 418.367
274.112 757.282 500
274.112 766.99 494.898
274.112 776.699 489.796
274.112 786.408 489.796
274.112 796.117 494.898
274.112 805.825 382.653
274.112 815.534 403.061
274.112 825.243 403.061
274.112 834.951 341.837
274.112 844.66 341.837
274.112 854.369 341.837
274.112 864.078 341.837
274.112 873.786 341.837
274.112 883.495 341.837
279.188 67.9612 551.02
279.188 77.6699 530.612
279.188 87.3786 459.184
279.188 97.0874 198.98
279.188 495.146 81.6327
279.188 504.854 188.776
279.188 514.563 81.6327
279.188 524.272 188.776
279.188 533.981 173.469
279.188 543.689 183.673
279.188 553.398 204.082
279.188 563.107 239.796
279.188 572.816 239.796
279.188 582.524 244.898
279.188 592.233 285.714
279.188 601.942 489.796
279.188 611.65 489.796
279.188 621.359 607.143
279.188 631.068 591.837
279.188 640.777 525.51
279.188 650.485 510.204
279.188 660.194 530.612
279.188 669.903 515.306
279.188 679.612 505.102
279.188 689.32 510.204
279.188 699.029 505.102
279.188 708.738 510.204
279.188 718.447 392.857
279.188 728.155 413.265
279.188 737.864 418.367
279.188 747.573 500
279.188 757.282 500
279.188 766.99 500
279.188 776.699 494.898
279.188 786.408 387.755
279.188 796.117 408.163
279.188 805.825 413.265
279.188 815.534 341.837
279.188 825.243 341.837
279.188 834.951 341.837
279.188 844.66 341.837
279.188 854.369 341.837
279.188 864.078 341.837
279.188 873.786 341.837
279.188 883.495 341.837
284.264 58.2524 260.204
284.264 67.9612 556.122
284.264 77.6699 510.204
284.264 87.3786 352.041
284.264 97.0874 142.857
284.264 495.146 15.3061
284.264 504.854 127.551
284.264 514.563 392.857
284.264 524.272 178.571
284.264 533.981 158.163
284.264 543.689 153.061
284.264 553.398 260.204
284.264 563.107 387.755
284.264 572.816 387.755
284.264 582.524 382.653
284.264 592.233 408.163
284.264 601.942 566.327
284.264 611.65 566.327
284.264 621.359 392.857
284.264 631.068 392.857
284.264 640.777 515.306
284.264 650.485 515.306
284.264 660.194 515.306
284.264 669.903 510.204
284.264 679.612 525.51
284.264 689.32 515.306
284.264 699.029 397.959
284.264 708.738 418.367
284.264 718.447 418.367
284.264 728.155 505.102
284.264 737.864 505.102
284.264 747.573 500
284.264 757.282 500
284.264 766.99 500
284.264 776.699 392.857
284.264 786.408 423.469
284.264 796.117 352.041
284.264 805.825 346.939
284.264 815.534 346.939
284.264 825.243 341.837
284.264 834.951 341.837
284.264 844.66 341.837
284.264 854.369 341.837
284.264 864.078 341.837
284.264 873.786 341.837
284.264 883.495 341.837
289.34 58.2524 418.367
289.34 67.9612 561.224
289.34 77.6699 494.898
289.34 87.3786 250
289.34 97.0874 86.7347
289.34 475.728 20.4082
289.34 485.437 20.4082
289.34 495.146 10.2041
289.34 504.854 81.6327
289.34 514.563 341.837
289.34 524.272 147.959
289.34 533.981 117.347
289.34 543.689 137.755
289.34 553.398 392.857
289.34 592.233 91.8367
289.34 601.942 377.551
289.34 611.65 433.673
289.34 621.359 132.653
289.34 631.068 377.551
289.34 640.777 372.449
289.34 650.485 367.347
289.34 660.194 367.347
289.34 669.903 362.245
289.34 679.612 362.245
289.34 689.32 423.469
289.34 699.029 433.673
289.34 708.738 403.061
289.34 718.447 418.367
289.34 728.155 418.367
289.34 737.864 413.265
289.34 747.573 413.265
289.34 757.282 413.265
289.34 766.99 352.041
289.34 776.699 352.041
289.34 786.408 352.041
289.34 796.117 352.041
289.34 805.825 352.041
289.34 815.534 346.939
289.34 825.243 346.939
289.34 834.951 341.837
289.34 844.66 341.837
289.34 854.369 341.837
289.34 864.078 341.837
289.34 873.786 341.837
289.34 883.495 341.837
294.416 58.2524 551.02
294.416 67.9612 576.531
294.416 77.6699 489.796
294.416 87.3786 198.98
294.416 446.602 5.10204
294.416 456.311 20.4082
294.416 466.019 20.4082
294.416 475.728 20.4082
294.416 485.437 15.3061
294.416 495.146 10.2041
294.416 504.854 81.6327
294.416 514.563 260.204
294.416 524.272 147.959
294.416 533.981 163.265
294.416 543.689 142.857
294.416 553.398 387.755
294.416 592.233 30.6122
294.416 601.942 316.327
294.416 611.65 433.673
294.416 621.359 132.653
294.416 631.068 418.367
294.416 660.194 362.245
294.416 669.903 362.245
294.416 679.612 362.245
294.416 689.32 362.245
294.416 699.029 362.245
294.416 708.738 357.143
294.416 718.447 357.143
294.416 728.155 357.143
294.416 737.864 357.143
294.416 747.573 352.041
294.416 757.282 352.041
294.416 766.99 352.041
294.416 776.699 352.041
294.416 786.408 352.041
294.416 796.117 352.041
294.416 805.825 352.041
294.416 815.534 352.041
294.416 825.243 346.939
294.416 834.951 341.837
294.416 844.66 341.837
294.416 854.369 341.837
294.416 864.078 341.837
294.416 873.786 341.837
299.492 58.2524 576.531
299.492 67.9612 530.612
299.492 77.6699 438.776
299.492 87.3786 142.857
299.492 456.311 0
299.492 466.019 10.2041
299.492 475.728 15.3061
299.492 485.437 10.2041
299.492 495.146 5.10204
299.492 504.854 91.8367
299.492 514.563 239.796
299.492 524.272 147.959
299.492 533.981 178.571
299.492 543.689 142.857
299.492 592.233 30.6122
299.492 601.942 147.959
299.492 611.65 433.673
299.492 621.359 132.653
299.492 631.068 418.367
299.492 640.777 76.5306
299.492 689.32 362.245
299.492 699.029 357.143
299.492 708.738 357.143
299.492 718.447 357.143
299.492 728.155 357.143
299.492 737.864 357.143
299.492 747.573 352.041
299.492 757.282 352.041
299.492 766.99 352.041
299.492 776.699 352.041
299.492 786.408 352.041
299.492 796.117 352.041
299.492 805.825 352.041
299.492 815.534 352.041
299.492 825.243 346.939
299.492 834.951 346.939
299.492 844.66 341.837
299.492 854.369 341.837
299.492 864.078 341.837
304.569 58.2524 658.163
304.569 67.9612 479.592
304.569 77.6699 377.551
304.569 87.3786 86.7347
304.569 504.854 91.8367
304.569 514.563 244.898
304.569 524.272 153.061
304.569 533.981 178.571
304.569 543.689 147.959
304.569 592.233 30.6122
304.569 601.942 147.959
304.569 611.65 433.673
304.569 621.359 132.653
304.569 631.068 418.367
304.569 640.777 418.367
304.569 728.155 357.143
304.569 737.864 357.143
304.569 747.573 352.041
304.569 757.282 352.041
304.569 766.99 352.041
304.569 776.699 352.041
304.569 786.408 352.041
304.569 796.117 352.041
304.569 805.825 352.041
304.569 815.534 352.041
304.569 825.243 352.041
304.569 834.951 346.939
304.569 844.66 341.837
304.569 854.369 341.837
309.645 58.2524 632.653
309.645 67.9612 418.367
309.645 77.6699 311.224
309.645 504.854 91.8367
309.645 514.563 244.898
309.645 524.272 158.163
309.645 533.981 158.163
309.645 543.689 142.857
309.645 592.233 30.6122
309.645 601.942 147.959
309.645 611.65 433.673
309.645 621.359 71.4286
309.645 631.068 362.245
309.645 640.777 418.367
309.645 650.485 127.551
309.645 757.282 352.041
309.645 766.99 352.041
309.645 776.699 352.041
309.645 786.408 352.041
309.645 796.117 352.041
309.645 805.825 352.041
309.645 815.534 352.041
309.645 825.243 346.939
309.645 834.951 341.837
309.645 844.66 341.837
314.721 58.2524 607.143
314.721 67.9612 423.469
314.721 77.6699 234.694
314.721 504.854 91.8367
314.721 514.563 244.898
314.721 524.272 107.143
314.721 533.981 158.163
314.721 592.233 30.6122
314.721 601.942 147.959
314.721 611.65 433.673
314.721 621.359 433.673
314.721 631.068 306.122
314.721 640.777 418.367
314.721 650.485 127.551
314.721 786.408 352.041
314.721 796.117 352.041
314.721 805.825 352.041
314.721 815.534 346.939
314.721 825.243 341.837
319.797 48.5437 423.469
319.797 58.2524 505.102
319.797 67.9612 474.49
319.797 77.6699 198.98
319.797 504.854 81.6327
319.797 514.563 219.388
319.797 524.272 158.163
319.797 533.981 214.286
319.797 592.233 30.6122
319.797 601.942 147.959
319.797 611.65 433.673
319.797 621.359 433.673
319.797 631.068 132.653
319.797 640.777 418.367
319.797 650.485 127.551
319.797 660.194 107.143
324.873 48.5437 377.551
324.873 58.2524 438.776
324.873 67.9612 474.49
324.873 77.6699 198.98
324.873 504.854 96.9388
324.873 514.563 255.102
324.873 524.272 153.061
324.873 533.981 183.673
324.873 601.942 91.8367
324.873 611.65 377.551
324.873 621.359 433.673
324.873 631.068 132.653
324.873 640.777 418.367
324.873 650.485 76.5306
324.873 660.194 107.143
324.873 669.903 377.551
329.949 48.5437 479.592
329.949 58.2524 372.449
329.949 67.9612 448.98
329.949 77.6699 198.98
329.949 504.854 91.8367
329.949 514.563 255.102
329.949 524.272 153.061
329.949 533.981 163.265
329.949 601.942 51.0204
329.949 611.65 316.327
329.949 621.359 433.673
329.949 631.068 132.653
329.949 640.777 418.367
329.949 650.485 418.367
329.949 660.194 112.245
329.949 669.903 377.551
329.949 679.612 377.551
335.025 38.835 321.429
335.025 48.5437 535.714
335.025 58.2524 321.429
335.025 67.9612 418.367
335.025 77.6699 198.98
335.025 504.854 66.3265
335.025 514.563 239.796
335.025 524.272 153.061
335.025 533.981 163.265
335.025 543.689 147.959
335.025 601.942 51.0204
335.025 611.65 147.959
