516.746 333.333 432.258
516.746 339.394 438.71
516.746 345.455 438.71
516.746 351.515 445.161
516.746 375.758 425.806
516.746 381.818 425.806
516.746 387.879 425.806
516.746 393.939 438.71
516.746 400 438.71
516.746 406.061 438.71
516.746 412.121 445.161
516.746 418.182 445.161
516.746 424.242 445.161
516.746 430.303 458.065
516.746 436.364 458.065
516.746 442.424 451.613
516.746 448.485 458.065
516.746 454.545 458.065
516.746 460.606 464.516
516.746 527.273 380.645
516.746 533.333 380.645
516.746 539.394 380.645
516.746 545.455 587.097
516.746 551.515 587.097
516.746 557.576 587.097
516.746 563.636 664.516
516.746 569.697 496.774
516.746 575.758 677.419
516.746 587.879 787.097
516.746 593.939 64.5161
516.746 600 793.548
516.746 606.061 832.258
516.746 612.121 19.3548
516.746 618.182 832.258
516.746 630.303 832.258
516.746 636.364 45.1613
516.746 642.424 832.258
516.746 648.485 845.161
516.746 654.545 25.8065
516.746 660.606 838.71
516.746 672.727 877.419
516.746 678.788 45.1613
516.746 684.848 870.968
516.746 696.97 890.323
516.746 709.091 890.323
516.746 715.152 883.871
516.746 721.212 51.6129
516.746 727.273 890.323
516.746 739.394 896.774
516.746 745.455 38.7097
516.746 751.515 870.968
516.746 763.636 941.935
516.746 769.697 38.7097
516.746 775.758 929.032
516.746 787.879 974.194
516.746 793.939 12.9032
516.746 800 980.645
516.746 812.121 954.839
516.746 818.182 270.968
516.746 824.242 974.194
516.746 836.364 761.29
516.746 842.424 490.323
516.746 848.485 761.29
521.531 54.5455 354.839
521.531 60.6061 354.839
521.531 66.6667 354.839
521.531 72.7273 567.742
521.531 78.7879 148.387
521.531 84.8485 567.742
521.531 90.9091 154.839
521.531 96.9697 574.194
521.531 103.03 154.839
521.531 109.091 580.645
521.531 115.152 625.806
521.531 121.212 277.419
521.531 127.273 645.161
521.531 133.333 451.613
521.531 139.394 645.161
521.531 145.455 651.613
521.531 151.515 374.194
521.531 157.576 690.323
521.531 163.636 322.581
521.531 169.697 690.323
521.531 175.758 625.806
521.531 181.818 296.774
521.531 187.879 625.806
521.531 193.939 522.581
521.531 200 587.097
521.531 206.061 535.484
521.531 212.121 535.484
521.531 218.182 600
521.531 224.242 535.484
521.531 230.303 535.484
521.531 236.364 638.71
521.531 242.424 393.548
521.531 248.485 645.161
521.531 266.667 367.742
521.531 272.727 412.903
521.531 278.788 412.903
521.531 284.848 632.258
521.531 290.909 393.548
521.531 296.97 638.71
521.531 303.03 432.258
521.531 309.091 432.258
521.531 315.152 554.839
521.531 321.212 438.71
521.531 327.273 438.71
521.531 333.333 432.258
521.531 339.394 438.71
521.531 345.455 438.71
521.531 351.515 438.71
521.531 375.758 432.258
521.531 381.818 432.258
521.531 387.879 425.806
521.531 393.939 438.71
521.531 400 438.71
521.531 406.061 438.71
521.531 412.121 445.161
521.531 418.182 445.161
521.531 424.242 445.161
521.531 430.303 458.065
521.531 436.364 458.065
521.531 442.424 458.065
521.531 448.485 458.065
521.531 454.545 458.065
521.531 460.606 458.065
521.531 527.273 380.645
521.531 533.333 380.645
521.531 539.394 380.645
521.531 545.455 464.516
521.531 551.515 464.516
521.531 557.576 587.097
521.531 563.636 587.097
521.531 569.697 587.097
521.531 575.758 690.323
521.531 587.879 780.645
521.531 593.939 193.548
521.531 600 787.097
521.531 606.061 832.258
521.531 612.121 19.3548
521.531 618.182 832.258
521.531 630.303 825.806
521.531 636.364 51.6129
521.531 642.424 832.258
521.531 648.485 845.161
521.531 654.545 38.7097
521.531 660.606 845.161
521.531 672.727 877.419
521.531 678.788 64.5161
521.531 684.848 870.968
521.531 696.97 890.323
521.531 709.091 890.323
521.531 715.152 896.774
521.531 721.212 70.9677
521.531 727.273 883.871
521.531 739.394 896.774
521.531 745.455 58.0645
521.531 751.515 896.774
521.531 763.636 954.839
521.531 769.697 45.1613
521.531 775.758 941.935
521.531 787.879 974.194
521.531 793.939 12.9032
521.531 800 974.194
521.531 812.121 948.387
521.531 818.182 387.097
521.531 824.242 954.839
521.531 848.485 761.29
526.316 54.5455 490.323
526.316 60.6061 490.323
526.316 66.6667 490.323
526.316 72.7273 574.194
526.316 78.7879 148.387
526.316 84.8485 574.194
526.316 90.9091 154.839
526.316 96.9697 574.194
526.316 103.03 154.839
526.316 109.091 587.097
526.316 115.152 651.613
526.316 121.212 361.29
526.316 127.273 651.613
526.316 133.333 361.29
526.316 139.394 612.903
526.316 145.455 606.452
526.316 151.515 451.613
526.316 157.576 690.323
526.316 163.636 238.71
526.316 169.697 677.419
526.316 175.758 632.258
526.316 181.818 296.774
526.316 187.879 632.258
526.316 193.939 529.032
526.316 200 522.581
526.316 206.061 535.484
526.316 212.121 535.484
526.316 218.182 535.484
526.316 224.242 535.484
526.316 230.303 535.484
526.316 236.364 600
526.316 242.424 387.097
526.316 248.485 645.161
526.316 272.727 412.903
526.316 278.788 412.903
526.316 284.848 419.355
526.316 290.909 425.806
526.316 296.97 638.71
526.316 303.03 438.71
526.316 309.091 438.71
526.316 315.152 432.258
526.316 321.212 438.71
526.316 327.273 438.71
526.316 333.333 438.71
526.316 351.515 438.71
526.316 375.758 432.258
526.316 381.818 432.258
526.316 387.879 432.258
526.316 393.939 438.71
526.316 400 438.71
526.316 406.061 438.71
526.316 412.121 445.161
526.316 418.182 445.161
526.316 424.242 445.161
526.316 430.303 458.065
526.316 436.364 458.065
526.316 442.424 458.065
526.316 460.606 458.065
526.316 527.273 374.194
526.316 533.333 374.194
526.316 539.394 374.194
526.316 545.455 464.516
526.316 551.515 464.516
526.316 557.576 464.516
526.316 563.636 651.613
526.316 569.697 425.806
526.316 575.758 651.613
526.316 587.879 780.645
526.316 593.939 58.0645
526.316 600 780.645
526.316 606.061 825.806
526.316 612.121 64.5161
526.316 618.182 832.258
526.316 630.303 825.806
526.316 636.364 58.0645
526.316 642.424 825.806
526.316 648.485 838.71
526.316 654.545 38.7097
526.316 660.606 845.161
526.316 672.727 877.419
526.316 678.788 58.0645
526.316 684.848 877.419
526.316 696.97 883.871
526.316 709.091 890.323
526.316 715.152 896.774
526.316 721.212 51.6129
526.316 727.273 896.774
526.316 739.394 916.129
526.316 745.455 90.3226
526.316 751.515 896.774
526.316 763.636 961.29
526.316 769.697 12.9032
526.316 775.758 954.839
526.316 787.879 967.742
526.316 793.939 6.45161
526.316 800 974.194
526.316 812.121 922.581
526.316 818.182 632.258
526.316 824.242 948.387
531.1 54.5455 490.323
531.1 60.6061 219.355
531.1 66.6667 490.323
531.1 72.7273 574.194
531.1 78.7879 225.806
531.1 84.8485 574.194
531.1 90.9091 509.677
531.1 96.9697 580.645
531.1 103.03 154.839
531.1 109.091 587.097
531.1 115.152 651.613
531.1 121.212 225.806
531.1 127.273 664.516
531.1 133.333 361.29
531.1 139.394 600
531.1 145.455 561.29
531.1 151.515 161.29
531.1 157.576 651.613
531.1 163.636 296.774
531.1 169.697 658.065
531.1 175.758 632.258
531.1 181.818 296.774
531.1 187.879 632.258
531.1 193.939 529.032
531.1 200 529.032
531.1 206.061 529.032
531.1 212.121 529.032
531.1 218.182 593.548
531.1 224.242 535.484
531.1 230.303 535.484
531.1 236.364 600
531.1 242.424 541.935
531.1 248.485 600
531.1 254.545 412.903
531.1 260.606 412.903
531.1 266.667 412.903
531.1 272.727 419.355
531.1 278.788 419.355
531.1 284.848 419.355
531.1 290.909 425.806
531.1 296.97 425.806
531.1 303.03 432.258
531.1 309.091 432.258
531.1 315.152 438.71
531.1 333.333 438.71
531.1 375.758 438.71
531.1 381.818 438.71
531.1 387.879 432.258
531.1 393.939 445.161
531.1 400 445.161
531.1 406.061 438.71
531.1 412.121 451.613
531.1 418.182 451.613
531.1 424.242 445.161
531.1 430.303 451.613
531.1 436.364 451.613
531.1 442.424 458.065
531.1 527.273 574.194
531.1 533.333 574.194
531.1 539.394 574.194
531.1 545.455 464.516
531.1 551.515 464.516
531.1 557.576 464.516
531.1 563.636 677.419
531.1 569.697 503.226
531.1 575.758 677.419
531.1 587.879 754.839
531.1 593.939 51.6129
531.1 600 774.194
531.1 606.061 825.806
531.1 612.121 32.2581
531.1 618.182 832.258
531.1 630.303 819.355
531.1 636.364 58.0645
531.1 642.424 825.806
531.1 648.485 838.71
531.1 654.545 38.7097
531.1 660.606 838.71
531.1 672.727 870.968
531.1 678.788 58.0645
531.1 684.848 870.968
531.1 696.97 877.419
531.1 709.091 883.871
531.1 715.152 890.323
531.1 721.212 51.6129
531.1 727.273 896.774
531.1 739.394 909.677
531.1 745.455 122.581
531.1 751.515 916.129
531.1 763.636 961.29
531.1 769.697 19.3548
531.1 775.758 961.29
531.1 787.879 967.742
531.1 793.939 6.45161
531.1 800 967.742
531.1 812.121 825.806
531.1 818.182 580.645
531.1 824.242 922.581
535.885 54.5455 496.774
535.885 60.6061 219.355
535.885 66.6667 490.323
535.885 72.7273 580.645
535.885 78.7879 225.806
535.885 84.8485 574.194
535.885 90.9091 509.677
535.885 96.9697 580.645
535.885 103.03 154.839
535.885 109.091 587.097
535.885 115.152 625.806
535.885 121.212 451.613
535.885 127.273 664.516
535.885 133.333 232.258
535.885 139.394 554.839
535.885 145.455 567.742
535.885 151.515 161.29
535.885 157.576 619.355
535.885 163.636 296.774
535.885 169.697 625.806
535.885 175.758 587.097
535.885 181.818 380.645
535.885 187.879 632.258
535.885 193.939 400
535.885 200 522.581
535.885 206.061 529.032
535.885 212.121 529.032
535.885 218.182 529.032
535.885 224.242 412.903
535.885 230.303 412.903
535.885 236.364 535.484
535.885 242.424 361.29
535.885 248.485 600
535.885 254.545 412.903
535.885 260.606 412.903
535.885 266.667 412.903
535.885 272.727 419.355
535.885 278.788 419.355
535.885 284.848 419.355
535.885 290.909 425.806
535.885 296.97 425.806
535.885 303.03 432.258
535.885 309.091 432.258
535.885 315.152 432.258
535.885 375.758 438.71
535.885 381.818 438.71
535.885 387.879 438.71
535.885 393.939 445.161
535.885 400 445.161
535.885 406.061 445.161
535.885 412.121 451.613
535.885 418.182 451.613
535.885 424.242 445.161
535.885 430.303 451.613
535.885 436.364 451.613
535.885 442.424 451.613
535.885 527.273 574.194
535.885 533.333 574.194
535.885 539.394 574.194
535.885 545.455 587.097
535.885 551.515 587.097
535.885 557.576 580.645
535.885 563.636 638.71
535.885 569.697 638.71
535.885 575.758 677.419
535.885 587.879 729.032
535.885 593.939 77.4194
535.885 600 748.387
535.885 606.061 825.806
535.885 612.121 25.8065
535.885 618.182 825.806
535.885 630.303 819.355
535.885 636.364 58.0645
535.885 642.424 819.355
535.885 648.485 845.161
535.885 654.545 103.226
535.885 660.606 838.71
535.885 672.727 864.516
535.885 678.788 64.5161
535.885 684.848 870.968
535.885 696.97 877.419
535.885 703.03 0
535.885 709.091 877.419
535.885 715.152 883.871
535.885 721.212 51.6129
535.885 727.273 883.871
535.885 739.394 916.129
535.885 745.455 83.871
535.885 751.515 916.129
535.885 763.636 961.29
535.885 769.697 19.3548
535.885 775.758 961.29
535.885 787.879 967.742
535.885 793.939 32.2581
535.885 800 967.742
535.885 812.121 470.968
535.885 818.182 470.968
535.885 824.242 825.806
540.67 54.5455 496.774
540.67 60.6061 225.806
540.67 66.6667 496.774
540.67 72.7273 574.194
540.67 78.7879 148.387
540.67 84.8485 574.194
540.67 90.9091 367.742
540.67 96.9697 645.161
540.67 103.03 354.839
540.67 109.091 645.161
540.67 115.152 645.161
540.67 121.212 361.29
540.67 127.273 645.161
540.67 133.333 154.839
540.67 139.394 554.839
540.67 145.455 561.29
540.67 151.515 161.29
540.67 157.576 619.355
540.67 163.636 374.194
540.67 169.697 625.806
540.67 175.758 593.548
540.67 181.818 380.645
540.67 187.879 587.097
540.67 193.939 400
540.67 200 400
540.67 206.061 400
540.67 212.121 400
540.67 218.182 529.032
540.67 224.242 535.484
540.67 230.303 535.484
540.67 236.364 535.484
540.67 242.424 361.29
540.67 248.485 361.29
540.67 254.545 412.903
540.67 260.606 412.903
540.67 266.667 412.903
540.67 272.727 419.355
540.67 278.788 419.355
540.67 284.848 419.355
540.67 290.909 425.806
540.67 296.97 425.806
540.67 303.03 432.258
540.67 309.091 432.258
540.67 315.152 432.258
540.67 375.758 438.71
540.67 381.818 438.71
540.67 387.879 438.71
540.67 393.939 451.613
540.67 400 451.613
540.67 406.061 445.161
540.67 412.121 451.613
540.67 418.182 451.613
540.67 424.242 451.613
540.67 442.424 451.613
540.67 527.273 458.065
540.67 533.333 458.065
540.67 539.394 574.194
540.67 545.455 587.097
540.67 551.515 587.097
540.67 557.576 587.097
540.67 563.636 625.806
540.67 569.697 625.806
540.67 575.758 638.71
540.67 587.879 735.484
540.67 593.939 45.1613
540.67 600 729.032
540.67 606.061 819.355
540.67 612.121 25.8065
540.67 618.182 825.806
540.67 630.303 819.355
540.67 636.364 32.2581
540.67 642.424 819.355
540.67 648.485 838.71
540.67 654.545 90.3226
540.67 660.606 845.161
540.67 672.727 864.516
540.67 678.788 64.5161
540.67 684.848 864.516
540.67 696.97 877.419
540.67 709.091 877.419
540.67 715.152 877.419
540.67 721.212 32.2581
540.67 727.273 883.871
540.67 739.394 922.581
540.67 745.455 58.0645
540.67 751.515 916.129
540.67 763.636 961.29
540.67 769.697 19.3548
540.67 775.758 961.29
540.67 787.879 961.29
540.67 793.939 96.7742
540.67 800 967.742
540.67 812.121 470.968
540.67 818.182 470.968
540.67 824.242 470.968
545.455 42.4242 341.935
545.455 48.4848 341.935
545.455 54.5455 496.774
545.455 60.6061 212.903
545.455 66.6667 496.774
545.455 72.7273 574.194
545.455 78.7879 148.387
545.455 84.8485 574.194
545.455 90.9091 509.677
545.455 96.9697 612.903
545.455 103.03 567.742
545.455 109.091 645.161
545.455 115.152 638.71
545.455 121.212 232.258
545.455 127.273 651.613
545.455 133.333 225.806
545.455 139.394 554.839
545.455 145.455 322.581
545.455 151.515 322.581
545.455 157.576 619.355
545.455 163.636 522.581
545.455 169.697 587.097
545.455 175.758 522.581
545.455 181.818 522.581
545.455 187.879 593.548
545.455 193.939 393.548
545.455 200 393.548
545.455 206.061 400
545.455 212.121 400
545.455 218.182 400
545.455 224.242 535.484
545.455 230.303 535.484
545.455 236.364 535.484
545.455 248.485 361.29
545.455 254.545 412.903
545.455 260.606 412.903
545.455 266.667 412.903
545.455 272.727 412.903
545.455 278.788 412.903
545.455 284.848 419.355
545.455 290.909 419.355
545.455 296.97 419.355
545.455 303.03 432.258
545.455 309.091 432.258
545.455 315.152 432.258
545.455 375.758 438.71
545.455 381.818 438.71
545.455 387.879 438.71
545.455 393.939 451.613
545.455 400 451.613
545.455 406.061 451.613
545.455 424.242 451.613
545.455 527.273 464.516
545.455 533.333 464.516
545.455 539.394 458.065
545.455 545.455 470.968
545.455 551.515 470.968
545.455 557.576 587.097
545.455 563.636 567.742
545.455 569.697 567.742
545.455 575.758 625.806
545.455 587.879 741.935
545.455 593.939 51.6129
545.455 600 729.032
545.455 606.061 825.806
545.455 612.121 19.3548
545.455 618.182 819.355
545.455 630.303 812.903
545.455 636.364 38.7097
545.455 642.424 819.355
545.455 648.485 838.71
545.455 654.545 90.3226
545.455 660.606 838.71
545.455 672.727 864.516
545.455 678.788 116.129
545.455 684.848 864.516
545.455 696.97 870.968
545.455 703.03 0
545.455 709.091 870.968
545.455 715.152 877.419
545.455 721.212 32.2581
545.455 727.273 877.419
545.455 739.394 922.581
545.455 745.455 45.1613
545.455 751.515 922.581
545.455 763.636 967.742
545.455 769.697 19.3548
545.455 775.758 967.742
545.455 787.879 954.839
545.455 793.939 109.677
545.455 800 961.29
545.455 812.121 470.968
545.455 818.182 470.968
545.455 824.242 470.968
550.239 42.4242 341.935
550.239 48.4848 341.935
550.239 54.5455 490.323
550.239 60.6061 212.903
550.239 66.6667 496.774
550.239 72.7273 567.742
550.239 78.7879 148.387
550.239 84.8485 606.452
550.239 90.9091 490.323
550.239 96.9697 612.903
550.239 103.03 574.194
550.239 109.091 567.742
550.239 115.152 638.71
550.239 121.212 290.323
550.239 127.273 638.71
550.239 133.333 232.258
550.239 139.394 574.194
550.239 145.455 367.742
550.239 151.515 367.742
550.239 157.576 561.29
550.239 163.636 361.29
550.239 169.697 522.581
550.239 175.758 387.097
550.239 181.818 387.097
550.239 187.879 522.581
550.239 193.939 393.548
550.239 200 393.548
550.239 206.061 393.548
550.239 212.121 393.548
550.239 218.182 400
550.239 224.242 400
550.239 230.303 400
550.239 236.364 535.484
550.239 266.667 412.903
550.239 272.727 412.903
550.239 278.788 412.903
550.239 284.848 419.355
550.239 290.909 419.355
550.239 296.97 419.355
550.239 303.03 432.258
550.239 309.091 432.258
550.239 315.152 432.258
550.239 321.212 432.258
550.239 327.273 432.258
550.239 333.333 432.258
550.239 375.758 438.71
550.239 381.818 438.71
550.239 387.879 438.71
550.239 393.939 451.613
550.239 400 451.613
550.239 406.061 451.613
550.239 527.273 464.516
550.239 533.333 464.516
550.239 539.394 464.516
550.239 545.455 458.065
550.239 551.515 458.065
550.239 557.576 464.516
550.239 563.636 567.742
550.239 569.697 567.742
550.239 575.758 567.742
550.239 587.879 735.484
550.239 593.939 51.6129
550.239 600 741.935
550.239 606.061 819.355
550.239 612.121 90.3226
550.239 618.182 825.806
550.239 630.303 806.452
550.239 636.364 45.1613
550.239 642.424 812.903
550.239 648.485 832.258
550.239 654.545 77.4194
550.239 660.606 838.71
550.239 672.727 864.516
550.239 678.788 77.4194
550.239 684.848 864.516
550.239 696.97 870.968
550.239 703.03 38.7097
550.239 709.091 870.968
550.239 715.152 877.419
550.239 721.212 58.0645
550.239 727.273 877.419
550.239 739.394 909.677
550.239 745.455 51.6129
550.239 751.515 916.129
550.239 763.636 967.742
550.239 769.697 12.9032
550.239 775.758 967.742
550.239 787.879 954.839
550.239 793.939 96.7742
550.239 800 954.839
550.239 812.121 470.968
550.239 818.182 470.968
550.239 824.242 470.968
555.024 42.4242 341.935
555.024 48.4848 341.935
555.024 54.5455 490.323
555.024 60.6061 219.355
555.024 66.6667 490.323
555.024 72.7273 496.774
555.024 78.7879 219.355
555.024 84.8485 606.452
555.024 90.9091 490.323
555.024 96.9697 612.903
555.024 103.03 612.903
555.024 109.091 612.903
555.024 115.152 638.71
555.024 121.212 232.258
555.024 127.273 638.71
555.024 133.333 180.645
555.024 139.394 567.742
555.024 145.455 367.742
555.024 151.515 367.742
555.024 157.576 367.742
555.024 169.697 361.29
555.024 175.758 387.097
555.024 181.818 387.097
555.024 187.879 387.097
555.024 193.939 387.097
555.024 200 393.548
555.024 206.061 393.548
555.024 212.121 393.548
555.024 218.182 393.548
555.024 224.242 400
555.024 230.303 400
555.024 236.364 400
555.024 272.727 412.903
555.024 278.788 412.903
555.024 284.848 412.903
555.024 290.909 419.355
555.024 296.97 419.355
555.024 303.03 432.258
555.024 309.091 432.258
555.024 315.152 432.258
555.024 321.212 432.258
555.024 327.273 432.258
555.024 333.333 432.258
555.024 375.758 438.71
555.024 381.818 438.71
555.024 387.879 438.71
555.024 393.939 445.161
555.024 400 445.161
555.024 406.061 445.161
555.024 527.273 470.968
555.024 533.333 470.968
555.024 539.394 464.516
555.024 545.455 445.161
555.024 551.515 445.161
555.024 557.576 458.065
555.024 563.636 445.161
555.024 569.697 445.161
555.024 575.758 567.742
555.024 587.879 735.484
555.024 593.939 64.5161
555.024 600 735.484
555.024 606.061 819.355
555.024 612.121 83.871
555.024 618.182 819.355
555.024 630.303 819.355
555.024 636.364 116.129
555.024 642.424 812.903
555.024 648.485 838.71
555.024 654.545 64.5161
555.024 660.606 832.258
555.024 672.727 864.516
555.024 678.788 32.2581
555.024 684.848 864.516
555.024 696.97 883.871
555.024 703.03 19.3548
555.024 709.091 870.968
555.024 715.152 864.516
555.024 721.212 32.2581
555.024 727.273 870.968
555.024 739.394 903.226
555.024 745.455 51.6129
555.024 751.515 916.129
555.024 763.636 961.29
555.024 769.697 12.9032
555.024 775.758 967.742
555.024 787.879 948.387
555.024 793.939 212.903
555.024 800 954.839
555.024 812.121 470.968
555.024 818.182 470.968
555.024 824.242 470.968
559.809 42.4242 335.484
559.809 48.4848 335.484
559.809 54.5455 483.871
559.809 60.6061 219.355
559.809 66.6667 490.323
559.809 72.7273 496.774
559.809 78.7879 219.355
559.809 84.8485 561.29
559.809 90.9091 354.839
559.809 96.9697 606.452
559.809 103.03 567.742
559.809 109.091 612.903
559.809 115.152 561.29
559.809 121.212 154.839
559.809 127.273 638.71
559.809 133.333 303.226
559.809 139.394 600
559.809 157.576 367.742
559.809 187.879 387.097
559.809 193.939 387.097
559.809 200 387.097
559.809 206.061 387.097
559.809 212.121 387.097
559.809 218.182 393.548
559.809 224.242 393.548
559.809 230.303 393.548
559.809 236.364 400
559.809 272.727 406.452
559.809 278.788 406.452
559.809 284.848 412.903
559.809 290.909 419.355
559.809 296.97 419.355
559.809 303.03 432.258
559.809 309.091 432.258
559.809 315.152 425.806
559.809 333.333 432.258
559.809 375.758 438.71
559.809 381.818 438.71
559.809 387.879 438.71
559.809 393.939 445.161
559.809 400 445.161
559.809 406.061 445.161
559.809 527.273 464.516
559.809 533.333 464.516
559.809 539.394 464.516
559.809 545.455 445.161
559.809 551.515 445.161
559.809 557.576 445.161
559.809 563.636 438.71
559.809 569.697 438.71
559.809 575.758 438.71
559.809 587.879 696.774
559.809 593.939 225.806
559.809 600 729.032
559.809 606.061 812.903
559.809 612.121 70.9677
559.809 618.182 812.903
559.809 630.303 825.806
559.809 636.364 122.581
559.809 642.424 819.355
559.809 648.485 838.71
559.809 654.545 51.6129
559.809 660.606 838.71
559.809 672.727 864.516
559.809 678.788 38.7097
559.809 684.848 864.516
559.809 696.97 877.419
559.809 703.03 19.3548
559.809 709.091 877.419
559.809 715.152 858.065
559.809 721.212 32.2581
559.809 727.273 864.516
559.809 739.394 903.226
559.809 745.455 45.1613
559.809 751.515 903.226
559.809 763.636 961.29
559.809 769.697 0
559.809 775.758 961.29
559.809 787.879 948.387
559.809 793.939 212.903
559.809 800 948.387
559.809 812.121 470.968
559.809 818.182 470.968
559.809 824.242 470.968
564.593 42.4242 335.484
564.593 48.4848 335.484
564.593 54.5455 483.871
564.593 60.6061 212.903
564.593 66.6667 496.774
564.593 72.7273 348.387
564.593 78.7879 348.387
564.593 84.8485 561.29
564.593 90.9091 148.387
564.593 96.9697 600
564.593 103.03 348.387
564.593 109.091 606.452
564.593 115.152 567.742
564.593 121.212 148.387
564.593 127.273 600
564.593 133.333 303.226
564.593 139.394 600
564.593 200 387.097
564.593 218.182 387.097
564.593 236.364 393.548
564.593 272.727 406.452
564.593 278.788 406.452
564.593 284.848 412.903
564.593 290.909 412.903
564.593 296.97 412.903
564.593 303.03 419.355
564.593 309.091 419.355
564.593 315.152 432.258
564.593 375.758 445.161
564.593 381.818 445.161
564.593 387.879 438.71
564.593 393.939 425.806
564.593 400 425.806
564.593 406.061 438.71
564.593 527.273 464.516
564.593 533.333 464.516
564.593 539.394 464.516
564.593 545.455 445.161
564.593 551.515 445.161
564.593 557.576 445.161
564.593 563.636 438.71
564.593 569.697 438.71
564.593 575.758 438.71
564.593 587.879 664.516
564.593 593.939 187.097
564.593 600 703.226
564.593 606.061 806.452
564.593 612.121 25.8065
564.593 618.182 812.903
564.593 630.303 825.806
564.593 636.364 116.129
564.593 642.424 832.258
564.593 648.485 832.258
564.593 654.545 90.3226
564.593 660.606 832.258
564.593 672.727 858.065
564.593 678.788 38.7097
564.593 684.848 864.516
564.593 696.97 877.419
564.593 703.03 12.9032
564.593 709.091 877.419
564.593 715.152 851.613
564.593 721.212 32.2581
564.593 727.273 851.613
564.593 739.394 890.323
564.593 745.455 38.7097
564.593 751.515 909.677
564.593 763.636 961.29
564.593 769.697 12.9032
564.593 775.758 961.29
564.593 787.879 948.387
564.593 793.939 129.032
564.593 800 948.387
564.593 812.121 651.613
564.593 818.182 651.613
564.593 824.242 651.613
569.378 54.5455 335.484
569.378 60.6061 335.484
569.378 66.6667 483.871
569.378 72.7273 341.935
569.378 78.7879 341.935
569.378 84.8485 483.871
569.378 90.9091 212.903
569.378 96.9697 600
569.378 103.03 348.387
569.378 109.091 554.839
569.378 115.152 561.29
569.378 121.212 148.387
569.378 127.273 561.29
569.378 133.333 180.645
569.378 139.394 593.548
569.378 272.727 406.452
569.378 278.788 406.452
569.378 284.848 406.452
569.378 290.909 412.903
569.378 296.97 412.903
569.378 303.03 412.903
569.378 309.091 412.903
569.378 315.152 419.355
569.378 375.758 445.161
569.378 381.818 445.161
569.378 387.879 445.161
569.378 393.939 412.903
569.378 400 412.903
569.378 406.061 432.258
569.378 527.273 464.516
569.378 533.333 464.516
569.378 539.394 464.516
569.378 545.455 445.161
569.378 551.515 445.161
569.378 557.576 445.161
569.378 563.636 438.71
569.378 569.697 438.71
569.378 575.758 438.71
569.378 587.879 658.065
569.378 593.939 200
569.378 600 670.968
569.378 606.061 800
569.378 612.121 12.9032
569.378 618.182 806.452
569.378 630.303 825.806
569.378 636.364 64.5161
569.378 642.424 825.806
569.378 648.485 832.258
569.378 654.545 45.1613
569.378 660.606 832.258
569.378 672.727 858.065
569.378 678.788 32.2581
569.378 684.848 858.065
569.378 696.97 877.419
569.378 703.03 25.8065
569.378 709.091 877.419
569.378 715.152 845.161
569.378 721.212 45.1613
569.378 727.273 851.613
569.378 739.394 890.323
569.378 745.455 38.7097
569.378 751.515 890.323
569.378 763.636 967.742
569.378 769.697 64.5161
569.378 775.758 967.742
569.378 787.879 954.839
569.378 793.939 90.3226
569.378 800 954.839
569.378 812.121 651.613
569.378 818.182 651.613
569.378 824.242 651.613
574.163 54.5455 335.484
574.163 60.6061 335.484
574.163 66.6667 335.484
574.163 72.7273 341.935
574.163 78.7879 341.935
574.163 84.8485 477.419
574.163 90.9091 206.452
574.163 96.9697 548.387
574.163 103.03 348.387
574.163 109.091 554.839
574.163 115.152 554.839
574.163 121.212 141.935
574.163 127.273 561.29
574.163 133.333 161.29
574.163 139.394 548.387
574.163 145.455 348.387
574.163 151.515 348.387
574.163 157.576 348.387
574.163 284.848 406.452
574.163 290.909 406.452
574.163 296.97 412.903
574.163 303.03 412.903
574.163 309.091 412.903
574.163 315.152 412.903
574.163 375.758 445.161
574.163 381.818 445.161
574.163 387.879 445.161
574.163 393.939 412.903
574.163 400 412.903
574.163 406.061 412.903
574.163 527.273 464.516
574.163 533.333 464.516
574.163 539.394 464.516
574.163 545.455 445.161
574.163 551.515 445.161
574.163 557.576 445.161
574.163 563.636 438.71
574.163 569.697 438.71
574.163 575.758 438.71
574.163 587.879 664.516
574.163 593.939 148.387
574.163 600 658.065
574.163 606.061 793.548
574.163 612.121 12.9032
574.163 618.182 806.452
574.163 630.303 819.355
574.163 636.364 12.9032
574.163 642.424 825.806
574.163 648.485 825.806
574.163 654.545 70.9677
574.163 660.606 825.806
574.163 672.727 858.065
574.163 678.788 25.8065
574.163 684.848 858.065
574.163 696.97 864.516
574.163 703.03 32.2581
574.163 709.091 870.968
574.163 715.152 851.613
574.163 721.212 58.0645
574.163 727.273 851.613
574.163 739.394 896.774
574.163 745.455 45.1613
574.163 751.515 890.323
574.163 763.636 961.29
574.163 769.697 58.0645
574.163 775.758 967.742
574.163 787.879 954.839
574.163 793.939 19.3548
574.163 800 954.839
574.163 812.121 651.613
574.163 818.182 651.613
574.163 824.242 651.613
578.947 66.6667 335.484
578.947 84.8485 470.968
578.947 90.9091 335.484
578.947 96.9697 483.871
578.947 103.03 341.935
578.947 109.091 548.387
578.947 115.152 483.871
578.947 121.212 212.903
578.947 127.273 554.839
578.947 133.333 148.387
578.947 139.394 548.387
578.947 145.455 348.387
578.947 151.515 348.387
578.947 157.576 348.387
578.947 296.97 406.452
578.947 315.152 412.903
578.947 375.758 445.161
578.947 381.818 445.161
578.947 387.879 445.161
578.947 393.939 412.903
578.947 400 412.903
578.947 406.061 412.903
578.947 527.273 464.516
578.947 533.333 464.516
578.947 539.394 464.516
578.947 545.455 445.161
578.947 551.515 445.161
578.947 557.576 445.161
578.947 563.636 438.71
578.947 569.697 438.71
578.947 575.758 438.71
578.947 587.879 664.516
578.947 593.939 154.839
578.947 600 670.968
578.947 606.061 793.548
578.947 612.121 19.3548
578.947 618.182 793.548
578.947 630.303 819.355
578.947 636.364 12.9032
578.947 642.424 819.355
578.947 648.485 825.806
578.947 654.545 70.9677
578.947 660.606 825.806
578.947 672.727 851.613
578.947 678.788 64.5161
578.947 684.848 858.065
578.947 696.97 851.613
578.947 703.03 51.6129
578.947 709.091 870.968
578.947 715.152 864.516
578.947 721.212 129.032
578.947 727.273 851.613
578.947 739.394 896.774
578.947 745.455 38.7097
578.947 751.515 896.774
578.947 763.636 961.29
578.947 769.697 6.45161
578.947 775.758 961.29
578.947 787.879 954.839
578.947 793.939 12.9032
578.947 800 954.839
578.947 812.121 651.613
578.947 818.182 651.613
578.947 824.242 741.935
583.732 84.8485 335.484
583.732 90.9091 335.484
583.732 96.9697 335.484
583.732 103.03 341.935
583.732 109.091 341.935
583.732 115.152 477.419
583.732 121.212 212.903
583.732 127.273 548.387
583.732 133.333 141.935
583.732 139.394 554.839
583.732 145.455 341.935
583.732 151.515 341.935
583.732 157.576 348.387
583.732 375.758 445.161
583.732 381.818 445.161
583.732 387.879 445.161
583.732 393.939 425.806
583.732 400 425.806
583.732 406.061 419.355
583.732 527.273 458.065
583.732 533.333 458.065
583.732 539.394 464.516
583.732 545.455 445.161
583.732 551.515 445.161
583.732 557.576 445.161
583.732 575.758 438.71
583.732 587.879 677.419
583.732 593.939 245.161
583.732 600 658.065
583.732 606.061 787.097
583.732 612.121 19.3548
583.732 618.182 793.548
583.732 630.303 812.903
583.732 636.364 25.8065
583.732 642.424 819.355
583.732 648.485 832.258
583.732 654.545 70.9677
583.732 660.606 825.806
583.732 672.727 858.065
583.732 678.788 19.3548
583.732 684.848 858.065
583.732 696.97 851.613
583.732 703.03 58.0645
583.732 709.091 851.613
583.732 715.152 858.065
583.732 721.212 129.032
583.732 727.273 864.516
583.732 739.394 903.226
583.732 745.455 12.9032
583.732 751.515 890.323
583.732 763.636 954.839
583.732 769.697 0
583.732 775.758 954.839
583.732 787.879 948.387
583.732 793.939 212.903
583.732 800 954.839
583.732 812.121 651.613
583.732 818.182 470.968
583.732 824.242 651.613
588.517 96.9697 335.484
588.517 103.03 335.484
588.517 109.091 341.935
588.517 115.152 477.419
588.517 121.212 212.903
588.517 127.273 477.419
588.517 133.333 348.387
588.517 139.394 548.387
588.517 157.576 341.935
588.517 375.758 445.161
588.517 381.818 445.161
588.517 387.879 445.161
588.517 393.939 432.258
588.517 400 432.258
588.517 406.061 419.355
588.517 527.273 458.065
588.517 533.333 458.065
588.517 539.394 458.065
588.517 545.455 445.161
588.517 551.515 445.161
588.517 557.576 445.161
588.517 587.879 651.613
588.517 593.939 296.774
588.517 600 677.419
588.517 606.061 787.097
588.517 612.121 19.3548
588.517 618.182 787.097
588.517 630.303 812.903
588.517 636.364 25.8065
588.517 642.424 812.903
588.517 648.485 832.258
588.517 654.545 12.9032
588.517 660.606 832.258
588.517 672.727 858.065
588.517 684.848 858.065
588.517 696.97 864.516
588.517 703.03 96.7742
588.517 709.091 851.613
588.517 715.152 864.516
588.517 721.212 90.3226
588.517 727.273 858.065
588.517 739.394 896.774
588.517 745.455 12.9032
588.517 751.515 903.226
588.517 763.636 948.387
588.517 769.697 6.45161
588.517 775.758 954.839
588.517 787.879 948.387
588.517 793.939 154.839
588.517 800 948.387
588.517 812.121 651.613
588.517 818.182 470.968
588.517 824.242 651.613
593.301 109.091 335.484
593.301 115.152 341.935
593.301 121.212 341.935
593.301 127.273 477.419
593.301 139.394 348.387
593.301 375.758 445.161
593.301 381.818 445.161
593.301 387.879 445.161
593.301 406.061 432.258
593.301 527.273 458.065
593.301 533.333 458.065
593.301 539.394 458.065
593.301 545.455 445.161
593.301 551.515 445.161
593.301 557.576 445.161
593.301 563.636 445.161
593.301 569.697 445.161
593.301 575.758 445.161
593.301 587.879 632.258
593.301 593.939 400
593.301 600 645.161
593.301 606.061 780.645
593.301 612.121 90.3226
593.301 618.182 780.645
593.301 630.303 806.452
593.301 636.364 12.9032
593.301 642.424 812.903
593.301 648.485 825.806
593.301 654.545 45.1613
593.301 660.606 825.806
593.301 672.727 858.065
593.301 684.848 858.065
593.301 696.97 864.516
593.301 703.03 90.3226
593.301 709.091 864.516
593.301 715.152 864.516
593.301 721.212 38.7097
593.301 727.273 864.516
593.301 739.394 890.323
593.301 745.455 19.3548
593.301 751.515 896.774
593.301 763.636 948.387
593.301 769.697 0
593.301 775.758 948.387
593.301 787.879 941.935
593.301 793.939 187.097
593.301 800 948.387
593.301 812.121 612.903
593.301 818.182 329.032
593.301 824.242 638.71
598.086 127.273 341.935
598.086 387.879 445.161
598.086 527.273 451.613
598.086 533.333 451.613
598.086 539.394 458.065
598.086 545.455 451.613
598.086 551.515 451.613
598.086 557.576 445.161
598.086 563.636 445.161
598.086 569.697 445.161
598.086 575.758 445.161
598.086 587.879 593.548
598.086 593.939 200
598.086 600 645.161
598.086 606.061 780.645
598.086 612.121 12.9032
598.086 618.182 780.645
598.086 630.303 806.452
598.086 636.364 19.3548
598.086 642.424 812.903
598.086 648.485 819.355
598.086 660.606 825.806
598.086 672.727 858.065
598.086 684.848 858.065
598.086 696.97 864.516
598.086 703.03 174.194
598.086 709.091 864.516
598.086 715.152 858.065
598.086 721.212 51.6129
598.086 727.273 864.516
598.086 739.394 883.871
598.086 745.455 0
598.086 751.515 890.323
598.086 763.636 941.935
598.086 769.697 0
598.086 775.758 948.387
598.086 787.879 935.484
598.086 793.939 154.839
598.086 800 941.935
598.086 812.121 612.903
598.086 818.182 329.032
598.086 824.242 612.903
602.871 527.273 451.613
602.871 533.333 451.613
602.871 539.394 451.613
602.871 545.455 451.613
602.871 551.515 451.613
602.871 557.576 451.613
602.871 563.636 451.613
602.871 569.697 451.613
602.871 575.758 445.161
602.871 587.879 593.548
602.871 593.939 135.484
602.871 600 593.548
602.871 606.061 774.194
602.871 612.121 12.9032
602.871 618.182 780.645
602.871 630.303 800
602.871 636.364 25.8065
602.871 642.424 806.452
602.871 648.485 812.903
602.871 660.606 819.355
602.871 672.727 851.613
602.871 684.848 858.065
602.871 696.97 858.065
602.871 703.03 103.226
602.871 709.091 864.516
602.871 715.152 851.613
602.871 721.212 64.5161
602.871 727.273 858.065
602.871 739.394 877.419
602.871 745.455 6.45161
602.871 751.515 883.871
602.871 763.636 941.935
602.871 775.758 941.935
602.871 787.879 935.484
602.871 793.939 70.9677
602.871 800 935.484
602.871 812.121 612.903
602.871 818.182 335.484
602.871 824.242 612.903
607.656 539.394 451.613
607.656 557.576 451.613
607.656 563.636 451.613
607.656 569.697 451.613
607.656 575.758 451.613
607.656 587.879 600
607.656 593.939 96.7742
607.656 600 593.548
607.656 606.061 774.194
607.656 612.121 12.9032
607.656 618.182 774.194
607.656 630.303 806.452
607.656 636.364 25.8065
607.656 642.424 806.452
607.656 648.485 812.903
607.656 654.545 0
607.656 660.606 812.903
607.656 672.727 851.613
607.656 684.848 851.613
607.656 696.97 864.516
607.656 703.03 129.032
607.656 709.091 870.968
607.656 715.152 845.161
607.656 721.212 109.677
607.656 727.273 851.613
607.656 739.394 877.419
607.656 745.455 6.45161
607.656 751.515 883.871
607.656 763.636 935.484
607.656 769.697 12.9032
607.656 775.758 941.935
607.656 787.879 929.032
607.656 793.939 58.0645
607.656 800 929.032
607.656 812.121 651.613
607.656 818.182 651.613
607.656 824.242 709.677
612.44 575.758 451.613
612.44 587.879 600
612.44 593.939 70.9677
612.44 600 593.548
612.44 606.061 774.194
612.44 612.121 6.45161
612.44 618.182 774.194
612.44 630.303 800
612.44 636.364 19.3548
612.44 642.424 800
612.44 648.485 812.903
612.44 654.545 19.3548
612.44 660.606 812.903
612.44 672.727 845.161
612.44 684.848 851.613
612.44 696.97 864.516
612.44 703.03 32.2581
612.44 709.091 864.516
612.44 715.152 851.613
612.44 721.212 161.29
612.44 727.273 851.613
612.44 739.394 877.419
612.44 745.455 12.9032
612.44 751.515 877.419
612.44 763.636 935.484
612.44 769.697 25.8065
612.44 775.758 935.484
612.44 787.879 929.032
612.44 793.939 38.7097
612.44 800 929.032
612.44 812.121 651.613
612.44 818.182 651.613
612.44 824.242 651.613
617.225 563.636 290.323
617.225 569.697 290.323
617.225 575.758 290.323
617.225 587.879 600
617.225 593.939 70.9677
617.225 600 600
617.225 606.061 774.194
617.225 612.121 19.3548
617.225 618.182 774.194
617.225 630.303 787.097
617.225 636.364 12.9032
617.225 642.424 800
617.225 648.485 812.903
617.225 654.545 12.9032
617.225 660.606 812.903
617.225 672.727 845.161
617.225 684.848 845.161
617.225 696.97 858.065
617.225 703.03 70.9677
617.225 709.091 864.516
617.225 715.152 851.613
617.225 721.212 83.871
617.225 727.273 851.613
617.225 739.394 870.968
617.225 745.455 0
617.225 751.515 877.419
617.225 763.636 929.032
617.225 769.697 25.8065
617.225 775.758 935.484
617.225 787.879 935.484
617.225 793.939 103.226
617.225 800 935.484
617.225 812.121 709.677
617.225 818.182 709.677
617.225 824.242 709.677
622.01 563.636 290.323
622.01 569.697 290.323
622.01 575.758 290.323
622.01 587.879 600
622.01 593.939 96.7742
622.01 600 600
622.01 606.061 774.194
622.01 612.121 6.45161
622.01 618.182 774.194
622.01 630.303 787.097
622.01 642.424 787.097
622.01 648.485 812.903
622.01 654.545 6.45161
622.01 660.606 812.903
622.01 672.727 845.161
622.01 684.848 845.161
622.01 696.97 858.065
622.01 703.03 77.4194
622.01 709.091 858.065
622.01 715.152 858.065
622.01 721.212 32.2581
622.01 727.273 858.065
622.01 739.394 870.968
622.01 751.515 870.968
622.01 763.636 929.032
622.01 769.697 19.3548
622.01 775.758 929.032
622.01 787.879 941.935
622.01 793.939 25.8065
622.01 800 941.935
622.01 812.121 774.194
622.01 818.182 470.968
622.01 824.242 774.194
626.794 563.636 290.323
626.794 569.697 290.323
626.794 575.758 290.323
626.794 587.879 574.194
626.794 593.939 96.7742
626.794 600 600
626.794 606.061 767.742
626.794 612.121 6.45161
626.794 618.182 774.194
626.794 630.303 787.097
626.794 636.364 0
626.794 642.424 787.097
626.794 648.485 806.452
626.794 654.545 0
626.794 660.606 812.903
626.794 672.727 845.161
626.794 684.848 845.161
626.794 696.97 858.065
626.794 703.03 90.3226
626.794 709.091 858.065
626.794 715.152 858.065
626.794 721.212 77.4194
626.794 727.273 858.065
626.794 739.394 870.968
626.794 745.455 0
626.794 751.515 870.968
626.794 763.636 922.581
626.794 769.697 19.3548
626.794 775.758 929.032
626.794 787.879 941.935
626.794 793.939 77.4194
626.794 800 941.935
626.794 812.121 845.161
626.794 818.182 529.032
626.794 824.242 838.71
631.579 563.636 290.323
631.579 569.697 290.323
631.579 575.758 290.323
631.579 587.879 600
631.579 593.939 200
631.579 600 600
631.579 606.061 767.742
631.579 612.121 12.9032
631.579 618.182 767.742
631.579 630.303 787.097
631.579 636.364 0
631.579 642.424 787.097
631.579 648.485 806.452
631.579 654.545 6.45161
631.579 660.606 806.452
631.579 672.727 845.161
631.579 684.848 845.161
631.579 696.97 864.516
631.579 703.03 90.3226
631.579 709.091 864.516
631.579 715.152 851.613
631.579 721.212 122.581
631.579 727.273 851.613
631.579 739.394 858.065
631.579 745.455 167.742
631.579 751.515 870.968
631.579 763.636 922.581
631.579 769.697 32.2581
631.579 775.758 922.581
631.579 787.879 941.935
631.579 793.939 25.8065
631.579 800 941.935
631.579 812.121 864.516
631.579 818.182 296.774
631.579 824.242 858.065
631.579 836.364 470.968
631.579 842.424 470.968
631.579 848.485 470.968
636.364 563.636 290.323
636.364 569.697 290.323
636.364 575.758 290.323
636.364 587.879 600
636.364 593.939 70.9677
636.364 600 600
636.364 606.061 767.742
636.364 612.121 12.9032
636.364 618.182 767.742
636.364 630.303 787.097
636.364 636.364 6.45161
636.364 642.424 787.097
636.364 648.485 806.452
636.364 654.545 6.45161
636.364 660.606 806.452
636.364 672.727 845.161
636.364 684.848 845.161
636.364 696.97 870.968
636.364 703.03 64.5161
636.364 709.091 870.968
636.364 715.152 851.613
636.364 721.212 129.032
636.364 727.273 851.613
636.364 739.394 864.516
636.364 745.455 141.935
636.364 751.515 864.516
636.364 763.636 916.129
636.364 769.697 135.484
636.364 775.758 922.581
636.364 787.879 935.484
636.364 793.939 58.0645
636.364 800 941.935
636.364 812.121 870.968
636.364 818.182 309.677
636.364 824.242 870.968
636.364 836.364 651.613
636.364 842.424 651.613
636.364 848.485 651.613
641.148 575.758 290.323
641.148 587.879 600
641.148 593.939 70.9677
641.148 600 600
641.148 606.061 767.742
641.148 612.121 19.3548
641.148 618.182 767.742
641.148 630.303 787.097
641.148 636.364 12.9032
641.148 642.424 787.097
641.148 648.485 806.452
641.148 654.545 6.45161
641.148 660.606 806.452
641.148 672.727 845.161
641.148 684.848 845.161
641.148 696.97 864.516
641.148 703.03 51.6129
641.148 709.091 864.516
641.148 715.152 851.613
641.148 721.212 154.839
641.148 727.273 851.613
641.148 739.394 864.516
641.148 745.455 129.032
641.148 751.515 864.516
641.148 763.636 922.581
641.148 769.697 58.0645
641.148 775.758 916.129
641.148 787.879 941.935
641.148 793.939 116.129
641.148 800 941.935
641.148 812.121 883.871
641.148 818.182 51.6129
641.148 824.242 877.419
641.148 836.364 741.935
641.148 842.424 741.935
641.148 848.485 741.935
645.933 587.879 600
645.933 593.939 70.9677
645.933 600 600
645.933 606.061 761.29
645.933 612.121 77.4194
645.933 618.182 761.29
645.933 630.303 787.097
645.933 636.364 12.9032
645.933 642.424 787.097
645.933 648.485 800
645.933 654.545 38.7097
645.933 660.606 800
645.933 672.727 845.161
645.933 684.848 845.161
645.933 696.97 864.516
645.933 703.03 19.3548
645.933 709.091 864.516
645.933 715.152 858.065
645.933 721.212 167.742
645.933 727.273 858.065
645.933 739.394 870.968
645.933 745.455 64.5161
645.933 751.515 864.516
645.933 763.636 922.581
645.933 769.697 64.5161
645.933 775.758 922.581
645.933 787.879 941.935
645.933 793.939 6.45161
645.933 800 941.935
645.933 812.121 890.323
645.933 818.182 141.935
645.933 824.242 877.419
645.933 836.364 767.742
645.933 842.424 625.806
645.933 848.485 767.742
650.718 587.879 625.806
650.718 593.939 258.065
650.718 600 619.355
650.718 606.061 754.839
650.718 612.121 6.45161
650.718 618.182 761.29
650.718 630.303 787.097
650.718 636.364 0
650.718 642.424 787.097
650.718 648.485 800
650.718 654.545 12.9032
650.718 660.606 806.452
650.718 672.727 845.161
650.718 684.848 845.161
650.718 696.97 870.968
650.718 709.091 870.968
650.718 715.152 864.516
650.718 721.212 180.645
650.718 727.273 858.065
650.718 739.394 870.968
650.718 745.455 70.9677
650.718 751.515 870.968
650.718 763.636 916.129
650.718 769.697 70.9677
650.718 775.758 916.129
650.718 787.879 941.935
650.718 793.939 19.3548
650.718 800 941.935
650.718 812.121 890.323
650.718 818.182 32.2581
650.718 824.242 890.323
650.718 836.364 780.645
650.718 842.424 509.677
650.718 848.485 787.097
650.718 860.606 406.452
650.718 866.667 406.452
650.718 872.727 406.452
655.502 587.879 625.806
655.502 593.939 206.452
655.502 600 625.806
655.502 606.061 748.387
655.502 612.121 38.7097
655.502 618.182 754.839
655.502 630.303 780.645
655.502 636.364 0
655.502 642.424 780.645
655.502 648.485 800
655.502 654.545 0
655.502 660.606 800
655.502 672.727 838.71
655.502 678.788 0
655.502 684.848 845.161
655.502 696.97 870.968
655.502 709.091 870.968
655.502 715.152 870.968
655.502 721.212 90.3226
655.502 727.273 870.968
655.502 739.394 864.516
655.502 745.455 116.129
655.502 751.515 870.968
655.502 763.636 916.129
655.502 769.697 129.032
655.502 775.758 922.581
655.502 787.879 941.935
655.502 793.939 19.3548
655.502 800 941.935
655.502 812.121 890.323
655.502 818.182 77.4194
655.502 824.242 890.323
655.502 836.364 780.645
655.502 842.424 251.613
655.502 848.485 793.548
655.502 860.606 638.71
655.502 866.667 638.71
655.502 872.727 638.71
660.287 587.879 625.806
660.287 593.939 167.742
660.287 600 625.806
660.287 606.061 741.935
660.287 612.121 6.45161
660.287 618.182 748.387
660.287 630.303 780.645
660.287 636.364 51.6129
660.287 642.424 780.645
660.287 648.485 800
660.287 660.606 800
660.287 672.727 832.258
660.287 678.788 0
660.287 684.848 838.71
660.287 696.97 864.516
660.287 703.03 12.9032
660.287 709.091 870.968
660.287 715.152 870.968
660.287 721.212 135.484
660.287 727.273 870.968
660.287 739.394 877.419
660.287 745.455 154.839
660.287 751.515 883.871
660.287 763.636 916.129
660.287 769.697 90.3226
660.287 775.758 916.129
660.287 787.879 941.935
660.287 793.939 19.3548
660.287 800 941.935
660.287 812.121 896.774
660.287 818.182 58.0645
660.287 824.242 890.323
660.287 836.364 800
660.287 842.424 283.871
660.287 848.485 800
660.287 860.606 561.29
660.287 866.667 561.29
660.287 872.727 645.161
665.072 587.879 625.806
665.072 593.939 206.452
665.072 600 625.806
665.072 606.061 741.935
665.072 612.121 0
665.072 618.182 741.935
665.072 630.303 780.645
665.072 636.364 83.871
665.072 642.424 780.645
665.072 648.485 793.548
665.072 654.545 32.2581
665.072 660.606 800
665.072 672.727 832.258
665.072 684.848 832.258
665.072 696.97 864.516
665.072 703.03 25.8065
665.072 709.091 870.968
665.072 715.152 877.419
665.072 721.212 187.097
665.072 727.273 877.419
665.072 739.394 883.871
665.072 745.455 193.548
665.072 751.515 883.871
665.072 763.636 916.129
665.072 769.697 70.9677
665.072 775.758 916.129
665.072 787.879 935.484
665.072 793.939 64.5161
665.072 800 935.484
665.072 812.121 903.226
665.072 818.182 51.6129
665.072 824.242 896.774
665.072 836.364 812.903
665.072 842.424 116.129
665.072 848.485 806.452
665.072 860.606 645.161
665.072 866.667 645.161
665.072 872.727 645.161
669.856 587.879 606.452
669.856 593.939 135.484
669.856 600 625.806
669.856 606.061 741.935
669.856 612.121 6.45161
669.856 618.182 741.935
669.856 630.303 774.194
669.856 636.364 64.5161
669.856 642.424 780.645
669.856 648.485 793.548
669.856 654.545 6.45161
669.856 660.606 800
669.856 672.727 832.258
669.856 684.848 832.258
669.856 696.97 864.516
669.856 703.03 19.3548
669.856 709.091 864.516
669.856 715.152 877.419
669.856 721.212 141.935
669.856 727.273 877.419
669.856 739.394 883.871
669.856 745.455 161.29
669.856 751.515 883.871
669.856 763.636 909.677
669.856 769.697 90.3226
669.856 775.758 916.129
669.856 787.879 935.484
669.856 793.939 12.9032
669.856 800 935.484
669.856 812.121 903.226
669.856 818.182 129.032
669.856 824.242 903.226
669.856 836.364 832.258
669.856 842.424 103.226
669.856 848.485 825.806
669.856 860.606 651.613
669.856 866.667 651.613
669.856 872.727 645.161
674.641 587.879 606.452
674.641 593.939 135.484
674.641 600 606.452
674.641 606.061 735.484
674.641 612.121 6.45161
674.641 618.182 735.484
674.641 630.303 767.742
674.641 636.364 58.0645
674.641 642.424 774.194
674.641 648.485 793.548
674.641 660.606 793.548
674.641 672.727 832.258
674.641 684.848 832.258
674.641 696.97 864.516
674.641 703.03 19.3548
674.641 709.091 864.516
674.641 715.152 870.968
674.641 721.212 77.4194
674.641 727.273 870.968
674.641 739.394 883.871
674.641 745.455 154.839
674.641 751.515 890.323
674.641 763.636 909.677
674.641 769.697 83.871
674.641 775.758 909.677
674.641 787.879 935.484
674.641 793.939 12.9032
674.641 800 935.484
674.641 812.121 903.226
674.641 818.182 154.839
674.641 824.242 903.226
674.641 836.364 845.161
674.641 842.424 38.7097
674.641 848.485 832.258
674.641 860.606 748.387
674.641 866.667 567.742
674.641 872.727 748.387
679.426 587.879 625.806
679.426 593.939 251.613
679.426 600 619.355
679.426 606.061 729.032
679.426 612.121 12.9032
679.426 618.182 735.484
679.426 630.303 761.29
679.426 636.364 45.1613
679.426 642.424 767.742
679.426 648.485 793.548
679.426 654.545 38.7097
679.426 660.606 793.548
679.426 672.727 825.806
679.426 684.848 832.258
679.426 696.97 858.065
679.426 703.03 122.581
679.426 709.091 864.516
679.426 715.152 870.968
679.426 721.212 90.3226
679.426 727.273 870.968
679.426 739.394 877.419
679.426 745.455 154.839
679.426 751.515 877.419
679.426 763.636 903.226
679.426 769.697 122.581
679.426 775.758 909.677
679.426 787.879 935.484
679.426 793.939 0
679.426 800 935.484
679.426 812.121 909.677
679.426 818.182 32.2581
679.426 824.242 903.226
679.426 836.364 858.065
679.426 842.424 154.839
679.426 848.485 845.161
679.426 860.606 780.645
679.426 866.667 258.065
679.426 872.727 780.645
679.426 884.848 387.097
679.426 890.909 387.097
679.426 896.97 387.097
684.211 587.879 619.355
684.211 593.939 70.9677
684.211 600 625.806
684.211 606.061 722.581
684.211 612.121 0
684.211 618.182 729.032
684.211 630.303 754.839
684.211 636.364 45.1613
684.211 642.424 761.29
684.211 648.485 793.548
684.211 654.545 77.4194
684.211 660.606 793.548
684.211 672.727 825.806
684.211 684.848 825.806
684.211 696.97 858.065
684.211 703.03 122.581
684.211 709.091 858.065
684.211 715.152 870.968
684.211 721.212 96.7742
684.211 727.273 870.968
684.211 739.394 870.968
684.211 745.455 122.581
684.211 751.515 870.968
684.211 763.636 896.774
