451.064 194.444 314.672
451.064 200 314.672
451.064 205.556 314.672
451.064 211.111 314.672
451.064 216.667 314.672
451.064 222.222 314.672
451.064 227.778 314.672
451.064 233.333 654.44
451.064 238.889 654.44
451.064 244.444 656.371
451.064 250 656.371
451.064 255.556 741.313
451.064 261.111 488.417
451.064 266.667 490.347
451.064 272.222 490.347
451.064 277.778 490.347
451.064 283.333 586.873
451.064 288.889 384.17
451.064 294.444 482.625
451.064 300 382.239
451.064 305.556 482.625
451.064 311.111 424.71
451.064 316.667 378.378
451.064 322.222 104.247
451.064 327.778 104.247
451.064 333.333 121.622
451.064 338.889 123.552
451.064 344.444 90.7336
451.064 350 202.703
451.064 355.556 538.61
451.064 361.111 528.958
451.064 366.667 337.838
451.064 372.222 359.073
451.064 377.778 208.494
451.064 383.333 194.981
451.064 388.889 181.467
451.064 394.444 88.8031
451.064 400 48.2625
451.064 605.556 36.6795
451.064 611.111 32.8185
451.064 616.667 5.79151
451.064 622.222 11.583
451.064 627.778 310.811
451.064 633.333 218.147
451.064 638.889 220.077
451.064 644.444 268.34
451.064 650 79.1506
451.064 655.556 225.869
451.064 661.111 339.768
451.064 666.667 283.784
451.064 672.222 310.811
451.064 677.778 208.494
451.064 683.333 231.66
451.064 688.889 384.17
451.064 694.444 357.143
451.064 700 357.143
451.064 705.556 608.108
451.064 711.111 608.108
451.064 716.667 733.591
451.064 722.222 814.672
451.064 727.778 648.649
451.064 733.333 648.649
451.064 738.889 648.649
451.064 744.444 648.649
451.064 750 650.579
451.064 755.556 650.579
451.064 761.111 650.579
451.064 766.667 650.579
451.064 772.222 650.579
451.064 777.778 650.579
451.064 783.333 652.51
451.064 788.889 654.44
451.064 794.444 652.51
451.064 800 733.591
451.064 805.556 731.66
451.064 811.111 731.66
451.064 816.667 650.579
451.064 822.222 646.718
451.064 827.778 648.649
451.064 833.333 648.649
451.064 838.889 648.649
451.064 844.444 648.649
451.064 850 474.903
451.064 855.556 474.903
451.064 861.111 474.903
451.064 866.667 472.973
451.064 872.222 471.042
451.064 877.778 471.042
451.064 883.333 471.042
451.064 888.889 642.857
451.064 894.444 642.857
451.064 900 642.857
451.064 905.556 642.857
451.064 911.111 642.857
451.064 916.667 644.788
451.064 922.222 644.788
451.064 927.778 644.788
451.064 933.333 642.857
451.064 938.889 642.857
451.064 944.444 642.857
451.064 950 642.857
451.064 955.556 640.927
451.064 961.111 478.764
451.064 966.667 478.764
455.319 44.4444 478.764
455.319 50 476.834
455.319 55.5556 482.625
455.319 61.1111 482.625
455.319 66.6667 484.556
455.319 72.2222 484.556
455.319 77.7778 484.556
455.319 83.3333 480.695
455.319 88.8889 480.695
455.319 94.4444 478.764
455.319 100 638.996
455.319 105.556 640.927
455.319 111.111 640.927
455.319 116.667 642.857
455.319 122.222 642.857
455.319 127.778 644.788
455.319 133.333 642.857
455.319 138.889 642.857
455.319 144.444 642.857
455.319 150 729.73
455.319 155.556 648.649
455.319 161.111 310.811
455.319 166.667 312.741
455.319 172.222 312.741
455.319 177.778 316.602
455.319 183.333 314.672
455.319 188.889 486.486
455.319 194.444 316.602
455.319 200 314.672
455.319 205.556 314.672
455.319 211.111 314.672
455.319 216.667 314.672
455.319 222.222 482.625
455.319 227.778 654.44
455.319 233.333 654.44
455.319 238.889 654.44
455.319 244.444 656.371
455.319 250 656.371
455.319 255.556 743.243
455.319 261.111 488.417
455.319 266.667 488.417
455.319 272.222 490.347
455.319 277.778 590.734
455.319 283.333 588.803
455.319 288.889 482.625
455.319 294.444 584.942
455.319 300 480.695
455.319 305.556 552.124
455.319 311.111 480.695
455.319 316.667 478.764
455.319 322.222 121.622
455.319 327.778 102.317
455.319 333.333 121.622
455.319 338.889 123.552
455.319 344.444 104.247
455.319 350 314.672
455.319 355.556 359.073
455.319 361.111 525.097
455.319 366.667 339.768
455.319 372.222 335.907
455.319 377.778 131.274
455.319 383.333 137.066
455.319 388.889 137.066
455.319 394.444 111.969
455.319 400 13.5135
455.319 600 9.65251
455.319 605.556 59.8456
455.319 611.111 38.61
455.319 616.667 3.861
455.319 622.222 42.471
455.319 627.778 310.811
455.319 633.333 218.147
455.319 638.889 218.147
455.319 644.444 156.371
455.319 650 48.2625
455.319 655.556 142.857
455.319 661.111 310.811
455.319 666.667 310.811
455.319 672.222 432.432
455.319 677.778 250.965
455.319 683.333 227.799
455.319 688.889 277.992
455.319 694.444 482.625
455.319 700 411.197
455.319 705.556 357.143
455.319 711.111 608.108
455.319 716.667 606.178
455.319 722.222 696.911
455.319 727.778 650.579
455.319 733.333 648.649
455.319 738.889 648.649
455.319 744.444 648.649
455.319 750 648.649
455.319 755.556 650.579
455.319 761.111 650.579
455.319 766.667 650.579
455.319 772.222 650.579
455.319 777.778 650.579
455.319 783.333 652.51
455.319 788.889 652.51
455.319 794.444 652.51
455.319 800 652.51
455.319 805.556 482.625
455.319 811.111 731.66
455.319 816.667 729.73
455.319 822.222 648.649
455.319 827.778 474.903
455.319 833.333 474.903
455.319 838.889 474.903
455.319 844.444 474.903
455.319 850 474.903
455.319 855.556 474.903
455.319 861.111 474.903
455.319 866.667 472.973
455.319 872.222 471.042
455.319 877.778 471.042
455.319 883.333 471.042
455.319 888.889 471.042
455.319 894.444 471.042
455.319 900 642.857
455.319 905.556 642.857
455.319 911.111 642.857
455.319 916.667 642.857
455.319 922.222 642.857
455.319 927.778 642.857
455.319 933.333 642.857
455.319 938.889 642.857
455.319 944.444 640.927
455.319 950 640.927
455.319 955.556 638.996
455.319 961.111 476.834
455.319 966.667 478.764
459.574 50 478.764
459.574 55.5556 478.764
459.574 61.1111 482.625
459.574 66.6667 484.556
459.574 72.2222 484.556
459.574 77.7778 482.625
459.574 83.3333 482.625
459.574 88.8889 482.625
459.574 94.4444 476.834
459.574 100 635.135
459.574 105.556 637.066
459.574 111.111 638.996
459.574 116.667 640.927
459.574 122.222 640.927
459.574 127.778 640.927
459.574 133.333 471.042
459.574 138.889 471.042
459.574 144.444 638.996
459.574 150 476.834
459.574 155.556 478.764
459.574 161.111 480.695
459.574 166.667 316.602
459.574 172.222 314.672
459.574 177.778 482.625
459.574 183.333 316.602
459.574 188.889 484.556
459.574 194.444 484.556
459.574 200 482.625
459.574 205.556 482.625
459.574 211.111 484.556
459.574 216.667 654.44
459.574 222.222 656.371
459.574 227.778 656.371
459.574 233.333 656.371
459.574 238.889 656.371
459.574 244.444 654.44
459.574 250 656.371
459.574 255.556 743.243
459.574 261.111 488.417
459.574 266.667 488.417
459.574 272.222 488.417
459.574 277.778 588.803
459.574 283.333 384.17
459.574 288.889 482.625
459.574 294.444 384.17
459.574 300 480.695
459.574 305.556 409.266
459.574 311.111 409.266
459.574 316.667 476.834
459.574 322.222 123.552
459.574 327.778 121.622
459.574 333.333 181.467
459.574 338.889 148.649
459.574 344.444 104.247
459.574 350 380.309
459.574 355.556 397.683
459.574 361.111 565.637
459.574 366.667 314.672
459.574 372.222 322.394
459.574 377.778 131.274
459.574 383.333 202.703
459.574 388.889 94.5946
459.574 394.444 102.317
459.574 600 65.6371
459.574 605.556 61.7761
459.574 611.111 48.2625
459.574 616.667 9.65251
459.574 622.222 44.4015
459.574 627.778 364.865
459.574 633.333 270.27
459.574 638.889 266.409
459.574 644.444 137.066
459.574 650 44.4015
459.574 655.556 144.788
459.574 661.111 308.88
459.574 666.667 310.811
459.574 672.222 438.224
459.574 677.778 250.965
459.574 683.333 250.965
459.574 688.889 341.699
459.574 694.444 310.811
459.574 700 482.625
459.574 705.556 409.266
459.574 711.111 482.625
459.574 716.667 606.178
459.574 722.222 760.618
459.574 727.778 486.486
459.574 733.333 652.51
459.574 738.889 650.579
459.574 744.444 648.649
459.574 750 648.649
459.574 755.556 650.579
459.574 761.111 650.579
459.574 766.667 650.579
459.574 772.222 650.579
459.574 777.778 650.579
459.574 783.333 650.579
459.574 788.889 652.51
459.574 794.444 652.51
459.574 800 652.51
459.574 805.556 650.579
459.574 811.111 480.695
459.574 816.667 731.66
459.574 822.222 729.73
459.574 827.778 729.73
459.574 833.333 474.903
459.574 838.889 474.903
459.574 844.444 474.903
459.574 850 474.903
459.574 855.556 474.903
459.574 861.111 474.903
459.574 866.667 472.973
459.574 872.222 471.042
459.574 877.778 471.042
459.574 883.333 471.042
459.574 888.889 471.042
459.574 894.444 471.042
459.574 900 471.042
459.574 905.556 471.042
459.574 911.111 642.857
459.574 916.667 640.927
459.574 922.222 640.927
459.574 927.778 640.927
459.574 933.333 640.927
459.574 938.889 640.927
459.574 944.444 640.927
459.574 950 640.927
459.574 955.556 638.996
459.574 961.111 478.764
459.574 966.667 474.903
463.83 61.1111 478.764
463.83 66.6667 482.625
463.83 72.2222 482.625
463.83 77.7778 482.625
463.83 83.3333 478.764
463.83 105.556 471.042
463.83 111.111 635.135
463.83 116.667 471.042
463.83 122.222 471.042
463.83 127.778 471.042
463.83 133.333 471.042
463.83 138.889 638.996
463.83 144.444 472.973
463.83 150 474.903
463.83 155.556 478.764
463.83 161.111 480.695
463.83 166.667 480.695
463.83 172.222 482.625
463.83 177.778 482.625
463.83 183.333 482.625
463.83 188.889 484.556
463.83 194.444 484.556
463.83 200 482.625
463.83 205.556 656.371
463.83 211.111 658.301
463.83 216.667 656.371
463.83 222.222 658.301
463.83 227.778 658.301
463.83 233.333 656.371
463.83 238.889 656.371
463.83 244.444 656.371
463.83 250 656.371
463.83 255.556 743.243
463.83 261.111 486.486
463.83 266.667 486.486
463.83 272.222 586.873
463.83 277.778 588.803
463.83 283.333 386.1
463.83 288.889 482.625
463.83 294.444 409.266
463.83 300 480.695
463.83 305.556 409.266
463.83 311.111 409.266
463.83 316.667 476.834
463.83 322.222 264.479
463.83 327.778 123.552
463.83 333.333 121.622
463.83 338.889 183.398
463.83 344.444 357.143
463.83 350 424.71
463.83 355.556 399.614
463.83 361.111 364.865
463.83 366.667 214.286
463.83 372.222 295.367
463.83 377.778 88.8031
463.83 383.333 202.703
463.83 388.889 32.8185
463.83 394.444 94.5946
463.83 600 88.8031
463.83 605.556 34.749
463.83 611.111 11.583
463.83 616.667 13.5135
463.83 622.222 50.1931
463.83 627.778 339.768
463.83 633.333 239.382
463.83 638.889 295.367
463.83 644.444 96.5251
463.83 650 34.749
463.83 655.556 119.691
463.83 661.111 283.784
463.83 666.667 198.842
463.83 672.222 393.822
463.83 677.778 250.965
463.83 683.333 202.703
463.83 688.889 341.699
463.83 694.444 277.992
463.83 700 353.282
463.83 705.556 482.625
463.83 711.111 700.772
463.83 716.667 608.108
463.83 722.222 781.853
463.83 727.778 484.556
463.83 733.333 654.44
463.83 738.889 652.51
463.83 744.444 650.579
463.83 750 650.579
463.83 755.556 650.579
463.83 761.111 650.579
463.83 766.667 650.579
463.83 772.222 650.579
463.83 777.778 650.579
463.83 783.333 650.579
463.83 788.889 650.579
463.83 794.444 652.51
463.83 800 652.51
463.83 805.556 650.579
463.83 811.111 482.625
463.83 816.667 480.695
463.83 822.222 478.764
463.83 827.778 729.73
463.83 833.333 729.73
463.83 838.889 474.903
463.83 844.444 474.903
463.83 850 474.903
463.83 855.556 474.903
463.83 861.111 474.903
463.83 866.667 474.903
463.83 872.222 471.042
463.83 877.778 471.042
463.83 883.333 471.042
463.83 888.889 471.042
463.83 894.444 471.042
463.83 900 471.042
463.83 905.556 471.042
463.83 911.111 471.042
463.83 916.667 471.042
463.83 922.222 638.996
463.83 927.778 638.996
463.83 933.333 638.996
463.83 938.889 638.996
463.83 944.444 640.927
463.83 950 638.996
463.83 955.556 474.903
463.83 961.111 474.903
468.085 122.222 471.042
468.085 127.778 471.042
468.085 133.333 471.042
468.085 138.889 472.973
468.085 144.444 474.903
468.085 150 476.834
468.085 155.556 476.834
468.085 161.111 480.695
468.085 166.667 482.625
468.085 172.222 482.625
468.085 177.778 482.625
468.085 183.333 482.625
468.085 188.889 482.625
468.085 194.444 482.625
468.085 200 656.371
468.085 205.556 658.301
468.085 211.111 658.301
468.085 216.667 658.301
468.085 222.222 658.301
468.085 227.778 658.301
468.085 233.333 658.301
468.085 238.889 658.301
468.085 244.444 658.301
468.085 250 739.382
468.085 255.556 741.313
468.085 261.111 656.371
468.085 266.667 658.301
468.085 272.222 741.313
468.085 277.778 488.417
468.085 283.333 484.556
468.085 288.889 484.556
468.085 294.444 409.266
468.085 300 409.266
468.085 305.556 552.124
468.085 311.111 476.834
468.085 316.667 548.263
468.085 322.222 314.672
468.085 327.778 123.552
468.085 333.333 123.552
468.085 338.889 357.143
468.085 344.444 484.556
468.085 350 399.614
468.085 355.556 438.224
468.085 361.111 395.753
468.085 366.667 351.351
468.085 372.222 281.853
468.085 377.778 113.9
468.085 383.333 194.981
468.085 388.889 61.7761
468.085 394.444 90.7336
468.085 600 92.6641
468.085 605.556 38.61
468.085 611.111 5.79151
468.085 616.667 11.583
468.085 622.222 117.761
468.085 627.778 318.533
468.085 633.333 177.606
468.085 638.889 391.892
468.085 644.444 146.718
468.085 650 34.749
468.085 655.556 42.471
468.085 661.111 283.784
468.085 666.667 308.88
468.085 672.222 393.822
468.085 677.778 312.741
468.085 683.333 202.703
468.085 688.889 422.78
468.085 694.444 277.992
468.085 700 355.212
468.085 705.556 484.556
468.085 711.111 482.625
468.085 716.667 700.772
468.085 722.222 870.656
468.085 727.778 484.556
468.085 733.333 484.556
468.085 738.889 654.44
468.085 744.444 652.51
468.085 750 650.579
468.085 755.556 650.579
468.085 761.111 650.579
468.085 766.667 650.579
468.085 772.222 650.579
468.085 777.778 650.579
468.085 783.333 650.579
468.085 788.889 650.579
468.085 794.444 650.579
468.085 800 650.579
468.085 805.556 650.579
468.085 811.111 648.649
468.085 816.667 480.695
468.085 822.222 480.695
468.085 827.778 478.764
468.085 833.333 729.73
468.085 838.889 729.73
468.085 844.444 474.903
468.085 850 474.903
468.085 855.556 474.903
468.085 861.111 474.903
468.085 866.667 471.042
468.085 927.778 467.181
468.085 933.333 638.996
468.085 938.889 638.996
468.085 944.444 638.996
468.085 950 474.903
468.085 955.556 474.903
472.34 127.778 471.042
472.34 133.333 472.973
472.34 138.889 474.903
472.34 144.444 476.834
472.34 150 476.834
472.34 155.556 478.764
472.34 161.111 480.695
472.34 166.667 482.625
472.34 172.222 482.625
472.34 177.778 482.625
472.34 183.333 482.625
472.34 188.889 482.625
472.34 194.444 484.556
472.34 200 658.301
472.34 205.556 658.301
472.34 211.111 658.301
472.34 216.667 658.301
472.34 222.222 658.301
472.34 227.778 658.301
472.34 233.333 658.301
472.34 238.889 658.301
472.34 244.444 658.301
472.34 250 741.313
472.34 255.556 488.417
472.34 261.111 486.486
472.34 266.667 658.301
472.34 272.222 741.313
472.34 277.778 386.1
472.34 283.333 482.625
472.34 288.889 316.602
472.34 294.444 411.197
472.34 300 480.695
472.34 305.556 409.266
472.34 311.111 407.336
472.34 316.667 407.336
472.34 322.222 183.398
472.34 327.778 148.649
472.34 333.333 266.409
472.34 338.889 482.625
472.34 344.444 428.571
472.34 350 357.143
472.34 355.556 357.143
472.34 361.111 314.672
472.34 366.667 384.17
472.34 372.222 279.923
472.34 377.778 169.884
472.34 383.333 194.981
472.34 388.889 59.8456
472.34 394.444 65.6371
472.34 600 88.8031
472.34 605.556 102.317
472.34 611.111 9.65251
472.34 616.667 15.444
472.34 622.222 142.857
472.34 627.778 287.645
472.34 633.333 129.344
472.34 638.889 391.892
472.34 644.444 144.788
472.34 650 48.2625
472.34 655.556 48.2625
472.34 661.111 131.274
472.34 666.667 432.432
472.34 672.222 391.892
472.34 677.778 355.212
472.34 683.333 312.741
472.34 688.889 550.193
472.34 694.444 378.378
472.34 700 355.212
472.34 705.556 484.556
472.34 711.111 484.556
472.34 716.667 650.579
472.34 722.222 884.17
472.34 727.778 733.591
472.34 733.333 484.556
472.34 738.889 654.44
472.34 744.444 654.44
472.34 750 652.51
472.34 755.556 652.51
472.34 761.111 650.579
472.34 766.667 650.579
472.34 772.222 650.579
472.34 777.778 650.579
472.34 783.333 650.579
472.34 788.889 650.579
472.34 794.444 650.579
472.34 800 650.579
472.34 805.556 650.579
472.34 811.111 648.649
472.34 816.667 648.649
472.34 822.222 648.649
472.34 827.778 648.649
472.34 833.333 646.718
472.34 838.889 646.718
472.34 844.444 646.718
472.34 850 467.181
476.596 122.222 471.042
476.596 127.778 472.973
476.596 133.333 474.903
476.596 138.889 476.834
476.596 144.444 474.903
476.596 150 478.764
476.596 155.556 480.695
476.596 161.111 482.625
476.596 166.667 482.625
476.596 172.222 482.625
476.596 177.778 482.625
476.596 183.333 482.625
476.596 188.889 484.556
476.596 194.444 484.556
476.596 200 658.301
476.596 205.556 658.301
476.596 211.111 658.301
476.596 216.667 658.301
476.596 222.222 658.301
476.596 227.778 658.301
476.596 233.333 658.301
476.596 238.889 658.301
476.596 244.444 741.313
476.596 250 741.313
476.596 255.556 486.486
476.596 261.111 486.486
476.596 266.667 486.486
476.596 272.222 586.873
476.596 277.778 384.17
476.596 283.333 482.625
476.596 288.889 316.602
476.596 294.444 552.124
476.596 300 552.124
476.596 305.556 480.695
476.596 311.111 476.834
476.596 316.667 407.336
476.596 322.222 106.178
476.596 327.778 272.201
476.596 333.333 384.17
476.596 338.889 384.17
476.596 344.444 314.672
476.596 350 359.073
476.596 355.556 268.34
476.596 361.111 434.363
476.596 366.667 440.154
476.596 372.222 295.367
476.596 377.778 142.857
476.596 383.333 137.066
476.596 388.889 38.61
476.596 394.444 83.0116
476.596 600 15.444
476.596 605.556 102.317
476.596 611.111 7.72201
476.596 616.667 13.5135
476.596 622.222 162.162
476.596 627.778 418.919
476.596 633.333 150.579
476.596 638.889 359.073
476.596 644.444 160.232
476.596 650 61.7761
476.596 655.556 54.0541
476.596 661.111 144.788
476.596 666.667 436.293
476.596 672.222 476.834
476.596 677.778 310.811
476.596 683.333 355.212
476.596 688.889 353.282
476.596 694.444 478.764
476.596 700 355.212
476.596 705.556 484.556
476.596 711.111 650.579
476.596 716.667 650.579
476.596 722.222 857.143
476.596 727.778 781.853
476.596 733.333 739.382
476.596 738.889 484.556
476.596 744.444 654.44
476.596 750 654.44
476.596 755.556 652.51
476.596 761.111 650.579
476.596 766.667 650.579
476.596 772.222 650.579
476.596 777.778 650.579
476.596 783.333 650.579
476.596 788.889 650.579
476.596 794.444 650.579
476.596 800 650.579
476.596 805.556 648.649
476.596 811.111 648.649
476.596 816.667 648.649
476.596 822.222 648.649
476.596 827.778 648.649
476.596 833.333 648.649
476.596 838.889 646.718
476.596 844.444 646.718
476.596 850 469.112
476.596 855.556 467.181
480.851 116.667 474.903
480.851 122.222 474.903
480.851 127.778 476.834
480.851 133.333 476.834
480.851 138.889 476.834
480.851 144.444 476.834
480.851 150 478.764
480.851 155.556 480.695
480.851 161.111 482.625
480.851 166.667 482.625
480.851 172.222 482.625
480.851 177.778 482.625
480.851 183.333 482.625
480.851 188.889 484.556
480.851 194.444 652.51
480.851 200 656.371
480.851 205.556 658.301
480.851 211.111 658.301
480.851 216.667 658.301
480.851 222.222 658.301
480.851 227.778 658.301
480.851 233.333 658.301
480.851 238.889 658.301
480.851 244.444 741.313
480.851 250 488.417
480.851 255.556 486.486
480.851 261.111 486.486
480.851 266.667 584.942
480.851 272.222 584.942
480.851 277.778 482.625
480.851 283.333 482.625
480.851 288.889 480.695
480.851 294.444 552.124
480.851 300 407.336
480.851 305.556 405.405
480.851 311.111 476.834
480.851 316.667 266.409
480.851 322.222 235.521
480.851 327.778 416.988
480.851 333.333 424.71
480.851 338.889 314.672
480.851 344.444 314.672
480.851 350 202.703
480.851 355.556 233.591
480.851 361.111 382.239
480.851 366.667 472.973
480.851 372.222 293.436
480.851 377.778 96.5251
480.851 383.333 167.954
480.851 388.889 42.471
480.851 394.444 92.6641
480.851 605.556 106.178
480.851 611.111 38.61
480.851 616.667 17.3745
480.851 622.222 40.5405
480.851 627.778 540.541
480.851 633.333 297.297
480.851 638.889 359.073
480.851 644.444 69.4981
480.851 650 61.7761
480.851 655.556 54.0541
480.851 661.111 133.205
480.851 666.667 403.475
480.851 672.222 407.336
480.851 677.778 310.811
480.851 683.333 310.811
480.851 688.889 310.811
480.851 694.444 422.78
480.851 700 424.71
480.851 705.556 411.197
480.851 711.111 650.579
480.851 716.667 583.012
480.851 722.222 839.768
480.851 727.778 783.784
480.851 733.333 731.66
480.851 738.889 741.313
480.851 744.444 654.44
480.851 750 652.51
480.851 755.556 652.51
480.851 761.111 652.51
480.851 766.667 650.579
480.851 772.222 650.579
480.851 777.778 650.579
480.851 783.333 650.579
480.851 788.889 650.579
480.851 794.444 650.579
480.851 800 650.579
480.851 805.556 648.649
480.851 811.111 648.649
480.851 816.667 648.649
480.851 822.222 648.649
480.851 827.778 648.649
480.851 833.333 648.649
480.851 838.889 648.649
480.851 844.444 648.649
480.851 850 646.718
480.851 855.556 467.181
485.106 111.111 478.764
485.106 116.667 478.764
485.106 122.222 478.764
485.106 127.778 480.695
485.106 133.333 476.834
485.106 138.889 480.695
485.106 144.444 478.764
485.106 150 480.695
485.106 155.556 480.695
485.106 161.111 482.625
485.106 166.667 482.625
485.106 172.222 482.625
485.106 177.778 482.625
485.106 183.333 482.625
485.106 188.889 484.556
485.106 194.444 654.44
485.106 200 656.371
485.106 205.556 658.301
485.106 211.111 658.301
485.106 216.667 658.301
485.106 222.222 658.301
485.106 227.778 658.301
485.106 233.333 658.301
485.106 238.889 741.313
485.106 244.444 741.313
485.106 250 486.486
485.106 255.556 486.486
485.106 261.111 486.486
485.106 266.667 584.942
485.106 272.222 384.17
485.106 277.778 583.012
485.106 283.333 380.309
485.106 288.889 480.695
485.106 294.444 409.266
485.106 300 407.336
485.106 305.556 405.405
485.106 311.111 351.351
485.106 316.667 204.633
485.106 322.222 270.27
485.106 327.778 411.197
485.106 333.333 355.212
485.106 338.889 312.741
485.106 344.444 314.672
485.106 350 181.467
485.106 355.556 281.853
485.106 361.111 345.56
485.106 366.667 534.749
485.106 372.222 308.88
485.106 377.778 96.5251
485.106 383.333 200.772
485.106 388.889 100.386
485.106 394.444 86.8726
485.106 605.556 69.4981
485.106 611.111 65.6371
485.106 616.667 15.444
485.106 622.222 32.8185
485.106 627.778 517.375
485.106 633.333 281.853
485.106 638.889 256.757
485.106 644.444 61.7761
485.106 650 79.1506
485.106 655.556 61.7761
485.106 661.111 131.274
485.106 666.667 332.046
485.106 672.222 353.282
485.106 677.778 407.336
485.106 683.333 420.849
485.106 688.889 420.849
485.106 694.444 310.811
485.106 700 422.78
485.106 705.556 422.78
485.106 711.111 554.054
485.106 716.667 583.012
485.106 722.222 814.672
485.106 727.778 583.012
485.106 733.333 733.591
485.106 738.889 652.51
485.106 744.444 654.44
485.106 750 652.51
485.106 755.556 652.51
485.106 761.111 652.51
485.106 766.667 650.579
485.106 772.222 650.579
485.106 777.778 650.579
485.106 783.333 650.579
485.106 788.889 650.579
485.106 794.444 650.579
485.106 800 650.579
485.106 805.556 648.649
485.106 811.111 648.649
485.106 816.667 648.649
485.106 822.222 648.649
485.106 827.778 648.649
485.106 833.333 648.649
485.106 838.889 648.649
485.106 844.444 648.649
485.106 850 648.649
485.106 855.556 467.181
485.106 861.111 467.181
489.362 105.556 482.625
489.362 111.111 480.695
489.362 116.667 482.625
489.362 122.222 482.625
489.362 127.778 480.695
489.362 133.333 480.695
489.362 138.889 480.695
489.362 144.444 480.695
489.362 150 480.695
489.362 155.556 480.695
489.362 161.111 482.625
489.362 166.667 482.625
489.362 172.222 482.625
489.362 177.778 482.625
489.362 183.333 482.625
489.362 188.889 650.579
489.362 194.444 654.44
489.362 200 656.371
489.362 205.556 656.371
489.362 211.111 658.301
489.362 216.667 658.301
489.362 222.222 658.301
489.362 227.778 658.301
489.362 233.333 741.313
489.362 238.889 741.313
489.362 244.444 488.417
489.362 250 486.486
489.362 255.556 486.486
489.362 261.111 486.486
489.362 266.667 584.942
489.362 272.222 484.556
489.362 277.778 583.012
489.362 283.333 484.556
489.362 288.889 480.695
489.362 294.444 409.266
489.362 300 409.266
489.362 305.556 405.405
489.362 311.111 351.351
489.362 316.667 106.178
489.362 322.222 104.247
489.362 327.778 250.965
489.362 333.333 202.703
489.362 338.889 279.923
489.362 344.444 202.703
489.362 350 181.467
489.362 355.556 283.784
489.362 361.111 279.923
489.362 366.667 501.931
489.362 372.222 204.633
489.362 377.778 106.178
489.362 383.333 260.618
489.362 388.889 110.039
489.362 394.444 9.65251
489.362 605.556 3.861
489.362 611.111 88.8031
489.362 616.667 9.65251
489.362 622.222 21.2355
489.362 627.778 511.583
489.362 633.333 249.035
489.362 638.889 254.826
489.362 644.444 61.7761
489.362 650 69.4981
489.362 655.556 48.2625
489.362 661.111 131.274
489.362 666.667 359.073
489.362 672.222 376.448
489.362 677.778 407.336
489.362 683.333 407.336
489.362 688.889 420.849
489.362 694.444 478.764
489.362 700 279.923
489.362 705.556 422.78
489.362 711.111 552.124
489.362 716.667 583.012
489.362 722.222 814.672
489.362 727.778 583.012
489.362 733.333 733.591
489.362 738.889 652.51
489.362 744.444 654.44
489.362 750 654.44
489.362 755.556 650.579
489.362 761.111 650.579
489.362 766.667 650.579
489.362 772.222 650.579
489.362 777.778 650.579
489.362 783.333 650.579
489.362 788.889 650.579
489.362 794.444 650.579
489.362 800 650.579
489.362 805.556 648.649
489.362 811.111 648.649
489.362 816.667 648.649
489.362 822.222 648.649
489.362 827.778 648.649
489.362 833.333 648.649
489.362 838.889 648.649
489.362 844.444 648.649
489.362 850 648.649
489.362 855.556 646.718
489.362 861.111 469.112
489.362 866.667 467.181
493.617 100 478.764
493.617 105.556 480.695
493.617 111.111 482.625
493.617 116.667 482.625
493.617 122.222 480.695
493.617 127.778 482.625
493.617 133.333 482.625
493.617 138.889 482.625
493.617 144.444 482.625
493.617 150 482.625
493.617 155.556 480.695
493.617 161.111 482.625
493.617 166.667 482.625
493.617 172.222 482.625
493.617 177.778 482.625
493.617 183.333 650.579
493.617 188.889 650.579
493.617 194.444 654.44
493.617 200 656.371
493.617 205.556 656.371
493.617 211.111 658.301
493.617 216.667 658.301
493.617 222.222 658.301
493.617 227.778 658.301
493.617 233.333 741.313
493.617 238.889 488.417
493.617 244.444 486.486
493.617 250 486.486
493.617 255.556 486.486
493.617 261.111 656.371
493.617 266.667 737.452
493.617 272.222 484.556
493.617 277.778 583.012
493.617 283.333 581.081
493.617 288.889 646.718
493.617 294.444 583.012
493.617 300 407.336
493.617 305.556 397.683
493.617 311.111 258.687
493.617 316.667 90.7336
493.617 322.222 90.7336
493.617 327.778 279.923
493.617 333.333 231.66
493.617 338.889 252.896
493.617 344.444 146.718
493.617 350 162.162
493.617 355.556 254.826
493.617 361.111 252.896
493.617 366.667 416.988
493.617 372.222 279.923
493.617 377.778 106.178
493.617 383.333 295.367
493.617 388.889 113.9
493.617 611.111 98.4556
493.617 616.667 11.583
493.617 622.222 61.7761
493.617 627.778 552.124
493.617 633.333 210.425
493.617 638.889 254.826
493.617 644.444 67.5676
493.617 650 61.7761
493.617 655.556 48.2625
493.617 661.111 119.691
493.617 666.667 260.618
493.617 672.222 276.062
493.617 677.778 407.336
493.617 683.333 476.834
493.617 688.889 407.336
493.617 694.444 476.834
493.617 700 277.992
493.617 705.556 422.78
493.617 711.111 552.124
493.617 716.667 581.081
493.617 722.222 814.672
493.617 727.778 733.591
493.617 733.333 733.591
493.617 738.889 733.591
493.617 744.444 654.44
493.617 750 654.44
493.617 755.556 474.903
493.617 761.111 474.903
493.617 766.667 650.579
493.617 772.222 650.579
493.617 777.778 650.579
493.617 783.333 650.579
493.617 788.889 650.579
493.617 794.444 650.579
493.617 800 650.579
493.617 805.556 648.649
493.617 811.111 648.649
493.617 816.667 648.649
493.617 822.222 648.649
493.617 827.778 648.649
493.617 833.333 648.649
493.617 838.889 648.649
493.617 844.444 648.649
493.617 850 648.649
493.617 855.556 646.718
493.617 861.111 644.788
493.617 866.667 469.112
497.872 94.4444 474.903
497.872 100 478.764
497.872 105.556 480.695
497.872 111.111 482.625
497.872 116.667 482.625
497.872 122.222 482.625
497.872 127.778 482.625
497.872 133.333 482.625
497.872 138.889 482.625
497.872 144.444 482.625
497.872 150 482.625
497.872 155.556 482.625
497.872 161.111 480.695
497.872 166.667 482.625
497.872 172.222 650.579
497.872 177.778 650.579
497.872 183.333 650.579
497.872 188.889 652.51
497.872 194.444 652.51
497.872 200 654.44
497.872 205.556 658.301
497.872 211.111 658.301
497.872 216.667 658.301
497.872 222.222 658.301
497.872 227.778 741.313
497.872 233.333 741.313
497.872 238.889 486.486
497.872 244.444 654.44
497.872 250 656.371
497.872 255.556 656.371
497.872 261.111 737.452
497.872 266.667 737.452
497.872 272.222 583.012
497.872 277.778 583.012
497.872 283.333 581.081
497.872 288.889 376.448
497.872 294.444 142.857
497.872 300 308.88
497.872 305.556 345.56
497.872 316.667 90.7336
497.872 322.222 106.178
497.872 327.778 252.896
497.872 333.333 160.232
497.872 338.889 231.66
497.872 344.444 133.205
497.872 350 210.425
497.872 355.556 254.826
497.872 361.111 252.896
497.872 366.667 444.015
497.872 372.222 225.869
497.872 377.778 111.969
497.872 383.333 306.95
497.872 388.889 83.0116
497.872 611.111 102.317
497.872 616.667 13.5135
497.872 622.222 243.243
497.872 627.778 534.749
497.872 633.333 225.869
497.872 638.889 254.826
497.872 644.444 54.0541
497.872 650 59.8456
497.872 655.556 38.61
497.872 661.111 110.039
497.872 666.667 241.313
497.872 672.222 306.95
497.872 677.778 418.919
497.872 683.333 476.834
497.872 688.889 476.834
497.872 694.444 476.834
497.872 700 420.849
497.872 705.556 422.78
497.872 711.111 476.834
497.872 716.667 353.282
497.872 722.222 693.05
497.872 727.778 733.591
497.872 733.333 650.579
497.872 738.889 731.66
497.872 744.444 733.591
497.872 750 652.51
497.872 755.556 652.51
497.872 761.111 474.903
497.872 766.667 474.903
497.872 772.222 650.579
497.872 777.778 650.579
497.872 783.333 650.579
497.872 788.889 650.579
497.872 794.444 650.579
497.872 800 650.579
497.872 805.556 648.649
497.872 811.111 648.649
497.872 816.667 648.649
497.872 822.222 648.649
497.872 827.778 648.649
497.872 833.333 648.649
497.872 838.889 648.649
497.872 844.444 648.649
497.872 850 648.649
497.872 855.556 648.649
497.872 861.111 646.718
497.872 866.667 644.788
497.872 872.222 467.181
502.128 94.4444 474.903
502.128 100 478.764
502.128 105.556 480.695
502.128 111.111 480.695
502.128 116.667 482.625
502.128 122.222 482.625
502.128 127.778 482.625
502.128 133.333 482.625
502.128 138.889 482.625
502.128 144.444 482.625
502.128 150 482.625
502.128 155.556 482.625
502.128 161.111 648.649
502.128 166.667 650.579
502.128 172.222 650.579
502.128 177.778 652.51
502.128 183.333 652.51
502.128 188.889 652.51
502.128 194.444 650.579
502.128 200 484.556
502.128 205.556 484.556
502.128 211.111 486.486
502.128 216.667 486.486
502.128 222.222 486.486
502.128 227.778 654.44
502.128 233.333 654.44
502.128 238.889 654.44
502.128 244.444 656.371
502.128 250 656.371
502.128 255.556 656.371
502.128 261.111 737.452
502.128 266.667 312.741
502.128 272.222 478.764
502.128 277.778 312.741
502.128 283.333 476.834
502.128 288.889 376.448
502.128 294.444 260.618
502.128 300 260.618
502.128 305.556 305.019
502.128 311.111 79.1506
502.128 316.667 90.7336
502.128 322.222 108.108
502.128 327.778 202.703
502.128 333.333 208.494
502.128 338.889 212.355
502.128 344.444 123.552
502.128 350 254.826
502.128 355.556 162.162
502.128 361.111 252.896
502.128 366.667 418.919
502.128 372.222 202.703
502.128 377.778 61.7761
502.128 383.333 333.977
502.128 388.889 135.135
502.128 400 32.8185
502.128 405.556 0
502.128 411.111 5.79151
502.128 611.111 98.4556
502.128 616.667 17.3745
502.128 622.222 403.475
502.128 627.778 409.266
502.128 633.333 252.896
502.128 638.889 270.27
502.128 644.444 77.2201
502.128 650 59.8456
502.128 655.556 34.749
502.128 661.111 32.8185
502.128 666.667 162.162
502.128 672.222 223.938
502.128 677.778 530.888
502.128 683.333 550.193
502.128 688.889 476.834
502.128 694.444 353.282
502.128 700 478.764
502.128 705.556 407.336
502.128 711.111 532.819
502.128 716.667 353.282
502.128 722.222 693.05
502.128 727.778 731.66
502.128 733.333 650.579
502.128 738.889 650.579
502.128 744.444 731.66
502.128 750 733.591
502.128 755.556 652.51
502.128 761.111 474.903
502.128 766.667 474.903
502.128 772.222 474.903
502.128 777.778 650.579
502.128 783.333 650.579
502.128 788.889 650.579
502.128 794.444 650.579
502.128 800 650.579
502.128 805.556 648.649
502.128 811.111 648.649
502.128 816.667 648.649
502.128 822.222 648.649
502.128 827.778 648.649
502.128 833.333 648.649
502.128 838.889 648.649
502.128 844.444 648.649
502.128 850 648.649
502.128 855.556 648.649
502.128 861.111 646.718
502.128 866.667 644.788
502.128 872.222 642.857
502.128 877.778 640.927
506.383 94.4444 474.903
506.383 100 480.695
506.383 105.556 478.764
506.383 111.111 482.625
506.383 116.667 482.625
506.383 122.222 482.625
506.383 127.778 482.625
506.383 133.333 482.625
506.383 138.889 482.625
506.383 144.444 482.625
506.383 150 482.625
506.383 155.556 482.625
506.383 161.111 650.579
506.383 166.667 652.51
506.383 172.222 652.51
506.383 177.778 652.51
506.383 183.333 650.579
506.383 188.889 480.695
506.383 194.444 482.625
506.383 200 484.556
506.383 205.556 486.486
506.383 211.111 486.486
506.383 216.667 486.486
506.383 222.222 486.486
506.383 227.778 654.44
506.383 233.333 654.44
506.383 238.889 654.44
506.383 244.444 656.371
506.383 250 656.371
506.383 255.556 648.649
506.383 261.111 648.649
506.383 266.667 312.741
506.383 272.222 478.764
506.383 277.778 312.741
506.383 283.333 476.834
506.383 288.889 308.88
506.383 294.444 262.548
506.383 300 225.869
506.383 305.556 305.019
506.383 311.111 92.6641
506.383 316.667 125.483
506.383 322.222 150.579
506.383 327.778 279.923
506.383 333.333 252.896
506.383 338.889 194.981
506.383 344.444 123.552
506.383 350 194.981
506.383 355.556 146.718
506.383 361.111 250.965
506.383 366.667 471.042
506.383 372.222 144.788
506.383 377.778 81.0811
506.383 383.333 295.367
506.383 388.889 158.301
506.383 394.444 160.232
506.383 400 59.8456
506.383 405.556 27.027
506.383 411.111 3.861
506.383 611.111 94.5946
506.383 616.667 81.0811
506.383 622.222 418.919
506.383 627.778 237.452
506.383 633.333 225.869
506.383 638.889 225.869
506.383 644.444 198.842
506.383 650 160.232
506.383 655.556 119.691
506.383 661.111 48.2625
506.383 666.667 162.162
506.383 672.222 225.869
506.383 677.778 420.849
506.383 683.333 548.263
506.383 688.889 476.834
506.383 694.444 353.282
506.383 700 422.78
506.383 705.556 422.78
506.383 711.111 602.317
506.383 716.667 476.834
506.383 722.222 691.12
506.383 727.778 776.062
506.383 733.333 650.579
506.383 738.889 650.579
506.383 744.444 650.579
506.383 750 650.579
506.383 755.556 650.579
506.383 761.111 474.903
506.383 766.667 474.903
506.383 772.222 474.903
506.383 777.778 474.903
506.383 783.333 474.903
506.383 788.889 650.579
506.383 794.444 650.579
506.383 800 648.649
506.383 805.556 648.649
506.383 811.111 646.718
506.383 816.667 646.718
506.383 822.222 648.649
506.383 827.778 648.649
506.383 833.333 648.649
506.383 838.889 648.649
506.383 844.444 648.649
506.383 850 648.649
506.383 855.556 648.649
506.383 861.111 648.649
506.383 866.667 646.718
506.383 872.222 642.857
506.383 877.778 642.857
506.383 883.333 640.927
510.638 100 482.625
510.638 105.556 478.764
510.638 111.111 482.625
510.638 116.667 482.625
510.638 122.222 482.625
510.638 127.778 482.625
510.638 133.333 484.556
510.638 138.889 484.556
510.638 144.444 484.556
510.638 150 484.556
510.638 155.556 482.625
510.638 161.111 652.51
510.638 166.667 652.51
510.638 172.222 650.579
510.638 177.778 650.579
510.638 183.333 482.625
510.638 188.889 482.625
510.638 194.444 484.556
510.638 200 484.556
510.638 205.556 486.486
510.638 211.111 486.486
510.638 216.667 486.486
510.638 222.222 650.579
510.638 227.778 652.51
510.638 233.333 652.51
510.638 238.889 654.44
510.638 244.444 482.625
510.638 250 482.625
510.638 255.556 648.649
510.638 261.111 312.741
510.638 266.667 312.741
510.638 272.222 478.764
510.638 277.778 312.741
510.638 283.333 476.834
510.638 288.889 308.88
510.638 294.444 260.618
510.638 300 305.019
510.638 305.556 194.981
510.638 311.111 106.178
510.638 316.667 106.178
510.638 322.222 125.483
510.638 327.778 279.923
510.638 333.333 160.232
510.638 338.889 194.981
510.638 344.444 133.205
510.638 350 121.622
510.638 355.556 210.425
510.638 361.111 227.799
510.638 366.667 370.656
510.638 372.222 154.44
510.638 377.778 75.2896
510.638 383.333 308.88
510.638 388.889 227.799
510.638 394.444 152.51
510.638 400 3.861
510.638 405.556 27.027
510.638 411.111 5.79151
510.638 611.111 38.61
510.638 616.667 173.745
510.638 622.222 474.903
510.638 627.778 225.869
510.638 633.333 210.425
510.638 638.889 283.784
510.638 644.444 198.842
510.638 650 277.992
510.638 655.556 287.645
510.638 661.111 119.691
510.638 666.667 162.162
510.638 672.222 223.938
510.638 677.778 420.849
510.638 683.333 548.263
510.638 688.889 550.193
510.638 694.444 351.351
510.638 700 353.282
510.638 705.556 478.764
510.638 711.111 550.193
510.638 716.667 548.263
510.638 722.222 548.263
510.638 727.778 776.062
510.638 733.333 648.649
510.638 738.889 650.579
510.638 744.444 650.579
510.638 750 650.579
510.638 755.556 650.579
510.638 761.111 486.486
510.638 772.222 474.903
510.638 777.778 474.903
510.638 783.333 474.903
510.638 788.889 474.903
510.638 794.444 472.973
510.638 800 648.649
510.638 805.556 646.718
510.638 811.111 646.718
510.638 816.667 646.718
510.638 822.222 646.718
510.638 827.778 646.718
510.638 833.333 648.649
510.638 838.889 648.649
510.638 844.444 648.649
510.638 850 648.649
510.638 855.556 648.649
510.638 861.111 646.718
510.638 866.667 646.718
510.638 872.222 644.788
510.638 877.778 642.857
510.638 883.333 640.927
510.638 888.889 640.927
514.894 100 482.625
514.894 105.556 482.625
514.894 111.111 482.625
514.894 116.667 482.625
514.894 122.222 482.625
514.894 127.778 484.556
514.894 133.333 484.556
514.894 138.889 484.556
514.894 144.444 486.486
514.894 150 486.486
514.894 155.556 484.556
514.894 161.111 654.44
514.894 166.667 654.44
514.894 172.222 650.579
514.894 177.778 482.625
514.894 183.333 482.625
514.894 188.889 482.625
514.894 194.444 484.556
514.894 200 484.556
514.894 205.556 486.486
514.894 211.111 486.486
514.894 216.667 486.486
514.894 222.222 650.579
514.894 227.778 650.579
514.894 233.333 652.51
514.894 238.889 478.764
514.894 244.444 480.695
514.894 250 482.625
514.894 255.556 648.649
514.894 261.111 312.741
514.894 266.667 478.764
514.894 272.222 478.764
514.894 277.778 312.741
514.894 283.333 478.764
514.894 288.889 308.88
514.894 294.444 306.95
514.894 300 305.019
514.894 305.556 90.7336
514.894 311.111 108.108
514.894 316.667 108.108
514.894 322.222 106.178
514.894 327.778 252.896
514.894 333.333 181.467
514.894 338.889 194.981
514.894 344.444 123.552
514.894 350 146.718
514.894 355.556 229.73
514.894 361.111 370.656
514.894 366.667 391.892
514.894 372.222 125.483
514.894 377.778 117.761
514.894 383.333 332.046
514.894 388.889 245.174
514.894 394.444 108.108
514.894 400 3.861
514.894 405.556 50.1931
514.894 411.111 7.72201
514.894 611.111 34.749
514.894 616.667 345.56
514.894 622.222 388.031
514.894 627.778 133.205
514.894 633.333 291.506
514.894 638.889 432.432
514.894 644.444 312.741
514.894 650 277.992
514.894 655.556 177.606
514.894 661.111 193.05
514.894 666.667 208.494
514.894 672.222 247.104
514.894 677.778 376.448
514.894 683.333 548.263
514.894 688.889 600.386
514.894 694.444 548.263
514.894 700 478.764
514.894 705.556 550.193
514.894 711.111 644.788
514.894 716.667 642.857
514.894 722.222 548.263
514.894 727.778 776.062
514.894 733.333 648.649
514.894 738.889 648.649
514.894 744.444 650.579
514.894 750 650.579
514.894 755.556 650.579
514.894 761.111 486.486
514.894 794.444 474.903
514.894 800 471.042
514.894 805.556 471.042
514.894 811.111 646.718
514.894 816.667 646.718
514.894 822.222 646.718
514.894 827.778 646.718
514.894 833.333 648.649
514.894 838.889 648.649
514.894 844.444 648.649
514.894 850 648.649
514.894 855.556 648.649
514.894 861.111 646.718
514.894 866.667 646.718
514.894 872.222 644.788
514.894 877.778 644.788
514.894 883.333 640.927
514.894 888.889 638.996
514.894 894.444 638.996
519.149 105.556 482.625
519.149 111.111 482.625
519.149 116.667 482.625
519.149 122.222 482.625
519.149 127.778 484.556
519.149 133.333 486.486
519.149 138.889 486.486
519.149 144.444 486.486
519.149 150 486.486
519.149 155.556 486.486
519.149 161.111 654.44
519.149 166.667 482.625
519.149 172.222 482.625
519.149 177.778 482.625
519.149 183.333 482.625
519.149 188.889 484.556
519.149 194.444 484.556
519.149 200 486.486
519.149 205.556 486.486
519.149 211.111 486.486
519.149 216.667 486.486
519.149 222.222 650.579
519.149 227.778 650.579
519.149 233.333 650.579
519.149 238.889 476.834
519.149 244.444 478.764
519.149 250 480.695
519.149 255.556 648.649
519.149 261.111 314.672
519.149 266.667 478.764
519.149 272.222 229.73
519.149 277.778 312.741
519.149 283.333 478.764
519.149 288.889 308.88
519.149 294.444 306.95
519.149 300 345.56
519.149 305.556 90.7336
519.149 311.111 106.178
519.149 316.667 125.483
519.149 322.222 106.178
519.149 327.778 252.896
519.149 333.333 204.633
519.149 338.889 210.425
519.149 344.444 135.135
519.149 350 144.788
519.149 355.556 227.799
519.149 361.111 285.714
519.149 366.667 250.965
519.149 372.222 142.857
519.149 377.778 293.436
519.149 383.333 297.297
519.149 388.889 225.869
519.149 394.444 61.7761
519.149 400 5.79151
519.149 405.556 55.9846
519.149 611.111 5.79151
519.149 616.667 395.753
519.149 622.222 266.409
519.149 627.778 187.259
519.149 633.333 308.88
519.149 638.889 250.965
519.149 644.444 200.772
519.149 650 341.699
519.149 655.556 250.965
519.149 661.111 264.479
519.149 666.667 241.313
519.149 672.222 225.869
519.149 677.778 418.919
519.149 683.333 407.336
519.149 688.889 418.919
519.149 694.444 420.849
519.149 700 420.849
519.149 705.556 530.888
519.149 711.111 644.788
519.149 716.667 642.857
519.149 722.222 548.263
519.149 727.778 776.062
519.149 733.333 648.649
519.149 738.889 648.649
519.149 744.444 648.649
519.149 750 648.649
519.149 755.556 648.649
519.149 761.111 646.718
519.149 805.556 471.042
519.149 811.111 471.042
519.149 816.667 471.042
519.149 822.222 646.718
519.149 827.778 646.718
519.149 833.333 646.718
519.149 838.889 648.649
519.149 844.444 648.649
519.149 850 648.649
519.149 855.556 648.649
519.149 861.111 646.718
519.149 866.667 646.718
519.149 872.222 646.718
519.149 877.778 644.788
519.149 883.333 642.857
519.149 888.889 640.927
519.149 894.444 638.996
519.149 900 474.903
523.404 111.111 482.625
523.404 116.667 482.625
523.404 122.222 484.556
523.404 127.778 484.556
523.404 133.333 486.486
523.404 138.889 486.486
523.404 144.444 486.486
523.404 150 486.486
523.404 155.556 486.486
523.404 161.111 480.695
523.404 166.667 482.625
523.404 172.222 482.625
523.404 177.778 482.625
523.404 183.333 482.625
523.404 188.889 484.556
523.404 194.444 484.556
523.404 200 486.486
523.404 205.556 486.486
523.404 211.111 486.486
523.404 216.667 650.579
523.404 222.222 650.579
523.404 227.778 650.579
523.404 233.333 474.903
523.404 238.889 474.903
523.404 244.444 478.764
523.404 250 478.764
523.404 255.556 648.649
523.404 261.111 312.741
523.404 266.667 478.764
523.404 272.222 229.73
523.404 277.778 312.741
523.404 283.333 476.834
523.404 288.889 374.517
523.404 294.444 260.618
523.404 300 258.687
523.404 305.556 227.799
523.404 311.111 106.178
523.404 316.667 106.178
523.404 322.222 202.703
523.404 327.778 314.672
523.404 333.333 204.633
523.404 338.889 210.425
523.404 344.444 144.788
523.404 350 160.232
523.404 355.556 279.923
523.404 361.111 388.031
523.404 366.667 250.965
523.404 372.222 212.355
523.404 377.778 320.463
523.404 383.333 218.147
523.404 388.889 218.147
523.404 394.444 79.1506
523.404 400 3.861
523.404 405.556 57.9151
523.404 611.111 96.5251
523.404 616.667 422.78
523.404 622.222 202.703
523.404 627.778 164.093
523.404 633.333 361.004
523.404 638.889 227.799
523.404 644.444 179.537
523.404 650 343.629
523.404 655.556 200.772
523.404 661.111 160.232
523.404 666.667 328.185
523.404 672.222 204.633
523.404 677.778 374.517
523.404 683.333 276.062
523.404 688.889 374.517
523.404 694.444 376.448
523.404 700 378.378
523.404 705.556 476.834
523.404 711.111 403.475
523.404 716.667 642.857
523.404 722.222 548.263
523.404 727.778 776.062
523.404 733.333 648.649
523.404 738.889 648.649
523.404 744.444 648.649
523.404 750 648.649
523.404 755.556 646.718
523.404 761.111 646.718
523.404 816.667 471.042
523.404 822.222 471.042
523.404 827.778 644.788
523.404 833.333 646.718
523.404 838.889 646.718
523.404 844.444 648.649
523.404 850 648.649
523.404 855.556 648.649
523.404 861.111 646.718
523.404 866.667 646.718
523.404 872.222 646.718
523.404 877.778 644.788
523.404 883.333 644.788
523.404 888.889 640.927
523.404 894.444 638.996
523.404 900 476.834
527.66 116.667 482.625
527.66 122.222 482.625
527.66 127.778 484.556
527.66 133.333 486.486
527.66 138.889 486.486
527.66 144.444 486.486
527.66 150 486.486
527.66 161.111 478.764
527.66 166.667 480.695
527.66 172.222 482.625
527.66 177.778 482.625
527.66 183.333 482.625
527.66 188.889 484.556
527.66 194.444 486.486
527.66 200 486.486
527.66 205.556 486.486
527.66 211.111 648.649
527.66 216.667 650.579
527.66 222.222 650.579
527.66 227.778 474.903
527.66 233.333 474.903
527.66 238.889 474.903
527.66 244.444 476.834
527.66 250 478.764
527.66 255.556 644.788
527.66 261.111 310.811
527.66 266.667 312.741
527.66 272.222 478.764
527.66 277.778 227.799
527.66 283.333 476.834
527.66 288.889 376.448
527.66 294.444 258.687
527.66 300 115.83
527.66 305.556 416.988
527.66 311.111 123.552
527.66 316.667 123.552
527.66 322.222 231.66
527.66 327.778 314.672
527.66 333.333 162.162
527.66 338.889 341.699
527.66 344.444 146.718
527.66 350 229.73
527.66 355.556 229.73
527.66 361.111 281.853
527.66 366.667 274.131
527.66 372.222 175.676
527.66 377.778 374.517
527.66 383.333 144.788
527.66 388.889 218.147
527.66 394.444 129.344
527.66 400 36.6795
527.66 405.556 84.9421
527.66 611.111 249.035
527.66 616.667 391.892
527.66 622.222 185.328
527.66 627.778 212.355
527.66 633.333 393.822
527.66 638.889 250.965
527.66 644.444 229.73
527.66 650 343.629
527.66 655.556 231.66
527.66 661.111 249.035
527.66 666.667 330.116
527.66 672.222 403.475
527.66 677.778 308.88
527.66 683.333 374.517
527.66 688.889 339.768
527.66 694.444 376.448
527.66 700 422.78
527.66 705.556 422.78
527.66 711.111 476.834
527.66 716.667 642.857
527.66 722.222 642.857
527.66 727.778 776.062
527.66 733.333 774.131
527.66 738.889 648.649
527.66 744.444 648.649
527.66 750 646.718
527.66 755.556 646.718
527.66 761.111 646.718
527.66 822.222 471.042
527.66 827.778 642.857
527.66 833.333 644.788
527.66 838.889 644.788
527.66 844.444 648.649
527.66 850 648.649
527.66 855.556 648.649
527.66 861.111 646.718
527.66 866.667 646.718
527.66 872.222 644.788
527.66 877.778 644.788
527.66 883.333 642.857
527.66 888.889 640.927
527.66 894.444 640.927
527.66 900 476.834
531.915 127.778 482.625
531.915 133.333 486.486
531.915 138.889 486.486
531.915 144.444 486.486
531.915 161.111 478.764
531.915 166.667 480.695
531.915 172.222 480.695
531.915 177.778 482.625
531.915 183.333 482.625
531.915 188.889 484.556
531.915 194.444 486.486
531.915 200 486.486
531.915 205.556 486.486
531.915 211.111 650.579
531.915 216.667 650.579
531.915 222.222 650.579
531.915 227.778 474.903
531.915 233.333 474.903
531.915 238.889 474.903
531.915 244.444 474.903
531.915 250 478.764
531.915 255.556 642.857
531.915 261.111 312.741
531.915 266.667 310.811
531.915 272.222 476.834
531.915 277.778 227.799
531.915 283.333 227.799
531.915 288.889 374.517
531.915 294.444 306.95
531.915 300 303.089
531.915 305.556 416.988
531.915 311.111 104.247
531.915 316.667 104.247
531.915 322.222 200.772
531.915 327.778 279.923
531.915 333.333 202.703
531.915 338.889 341.699
531.915 344.444 162.162
531.915 350 229.73
531.915 355.556 146.718
531.915 361.111 260.618
531.915 366.667 362.934
531.915 372.222 266.409
531.915 377.778 333.977
531.915 383.333 179.537
531.915 388.889 162.162
531.915 394.444 173.745
531.915 400 34.749
531.915 405.556 59.8456
531.915 411.111 13.5135
531.915 611.111 281.853
531.915 616.667 295.367
531.915 622.222 185.328
531.915 627.778 212.355
531.915 633.333 422.78
531.915 638.889 355.212
