406.699 820.513 493.204
406.699 829.06 491.262
406.699 837.607 489.32
406.699 846.154 487.379
406.699 854.701 487.379
406.699 863.248 485.437
406.699 871.795 485.437
406.699 880.342 483.495
406.699 888.889 481.553
406.699 897.436 479.612
406.699 905.983 479.612
406.699 914.53 477.67
406.699 923.077 475.728
406.699 931.624 473.786
411.483 17.094 636.893
411.483 25.641 384.466
411.483 34.188 273.786
411.483 42.735 155.34
411.483 51.2821 275.728
411.483 59.8291 287.379
411.483 68.3761 77.6699
411.483 76.9231 196.117
411.483 85.4701 151.456
411.483 94.0171 67.9612
411.483 102.564 137.864
411.483 111.111 46.6019
411.483 119.658 100.971
411.483 128.205 108.738
411.483 136.752 97.0874
411.483 145.299 332.039
411.483 153.846 153.398
411.483 162.393 52.4272
411.483 316.239 1.94175
411.483 324.786 3.8835
411.483 333.333 3.8835
411.483 341.88 0
411.483 393.162 0
411.483 478.632 75.7282
411.483 487.179 40.7767
411.483 495.726 15.534
411.483 504.274 21.3592
411.483 512.821 21.3592
411.483 521.368 56.3107
411.483 529.915 19.4175
411.483 538.462 19.4175
411.483 547.009 19.4175
411.483 555.556 69.9029
411.483 564.103 31.068
411.483 572.65 33.0097
411.483 581.197 266.019
411.483 589.744 153.398
411.483 598.291 174.757
411.483 606.838 56.3107
411.483 615.385 161.165
411.483 623.932 188.35
411.483 632.479 285.437
411.483 641.026 264.078
411.483 649.573 353.398
411.483 658.12 240.777
411.483 666.667 324.272
411.483 675.214 293.204
411.483 683.761 291.262
411.483 692.308 751.456
411.483 700.855 834.951
411.483 709.402 330.097
411.483 717.949 330.097
411.483 726.496 330.097
411.483 735.043 330.097
411.483 743.59 328.155
411.483 752.137 326.214
411.483 760.684 328.155
411.483 769.231 330.097
411.483 777.778 326.214
411.483 786.325 326.214
411.483 794.872 324.272
411.483 803.419 662.136
411.483 811.966 658.252
411.483 820.513 491.262
411.483 829.06 489.32
411.483 837.607 487.379
411.483 846.154 485.437
411.483 854.701 485.437
411.483 863.248 485.437
411.483 871.795 485.437
411.483 880.342 481.553
411.483 888.889 481.553
411.483 897.436 479.612
411.483 905.983 479.612
411.483 914.53 475.728
411.483 923.077 473.786
416.268 17.094 724.272
416.268 25.641 384.466
416.268 34.188 273.786
416.268 42.735 155.34
416.268 51.2821 275.728
416.268 59.8291 211.65
416.268 68.3761 188.35
416.268 76.9231 198.058
416.268 85.4701 151.456
416.268 94.0171 69.9029
416.268 102.564 137.864
416.268 111.111 50.4854
416.268 119.658 100.971
416.268 128.205 102.913
416.268 136.752 143.689
416.268 145.299 318.447
416.268 153.846 153.398
416.268 162.393 50.4854
416.268 324.786 3.8835
416.268 333.333 0
416.268 384.615 0
416.268 478.632 44.6602
416.268 487.179 102.913
416.268 495.726 13.5922
416.268 504.274 21.3592
416.268 512.821 19.4175
416.268 521.368 66.0194
416.268 529.915 23.301
416.268 538.462 15.534
416.268 547.009 21.3592
416.268 555.556 69.9029
416.268 564.103 31.068
416.268 572.65 38.835
416.268 581.197 254.369
416.268 589.744 250.485
416.268 598.291 174.757
416.268 606.838 67.9612
416.268 615.385 147.573
416.268 623.932 153.398
416.268 632.479 258.252
416.268 641.026 188.35
416.268 649.573 353.398
416.268 658.12 211.65
416.268 666.667 324.272
416.268 675.214 357.282
416.268 683.761 326.214
416.268 692.308 664.078
416.268 700.855 860.194
416.268 709.402 500.971
416.268 717.949 499.029
416.268 726.496 328.155
416.268 735.043 328.155
416.268 743.59 328.155
416.268 752.137 328.155
416.268 760.684 330.097
416.268 769.231 328.155
416.268 777.778 326.214
416.268 786.325 326.214
416.268 794.872 324.272
416.268 803.419 326.214
416.268 811.966 658.252
416.268 820.513 656.311
416.268 829.06 489.32
416.268 837.607 487.379
416.268 846.154 487.379
416.268 854.701 487.379
416.268 863.248 483.495
416.268 871.795 483.495
416.268 880.342 483.495
416.268 888.889 479.612
416.268 897.436 475.728
421.053 17.094 646.602
421.053 25.641 380.583
421.053 34.188 322.33
421.053 42.735 155.34
421.053 51.2821 273.786
421.053 59.8291 238.835
421.053 68.3761 188.35
421.053 76.9231 151.456
421.053 85.4701 182.524
421.053 94.0171 67.9612
421.053 102.564 126.214
421.053 111.111 52.4272
421.053 119.658 95.1456
421.053 128.205 95.1456
421.053 136.752 133.981
421.053 145.299 318.447
421.053 153.846 172.816
421.053 162.393 46.6019
421.053 324.786 0
421.053 487.179 106.796
421.053 495.726 67.9612
421.053 504.274 17.4757
421.053 512.821 19.4175
421.053 521.368 52.4272
421.053 529.915 25.2427
421.053 538.462 17.4757
421.053 547.009 19.4175
421.053 555.556 69.9029
421.053 564.103 33.0097
421.053 572.65 34.9515
421.053 581.197 289.32
421.053 589.744 304.854
421.053 598.291 118.447
421.053 606.838 67.9612
421.053 615.385 133.981
421.053 623.932 145.631
421.053 632.479 285.437
421.053 641.026 188.35
421.053 649.573 322.33
421.053 658.12 211.65
421.053 666.667 240.777
421.053 675.214 394.175
421.053 683.761 188.35
421.053 692.308 493.204
421.053 700.855 875.728
421.053 709.402 666.019
421.053 717.949 499.029
421.053 726.496 499.029
421.053 735.043 499.029
421.053 743.59 497.087
421.053 752.137 495.146
421.053 760.684 330.097
421.053 769.231 324.272
421.053 777.778 326.214
421.053 786.325 326.214
421.053 794.872 326.214
421.053 803.419 324.272
421.053 811.966 322.33
421.053 820.513 656.311
421.053 829.06 652.427
421.053 837.607 487.379
421.053 846.154 483.495
425.837 17.094 724.272
425.837 25.641 545.631
425.837 34.188 273.786
425.837 42.735 153.398
425.837 51.2821 238.835
425.837 59.8291 238.835
425.837 68.3761 209.709
425.837 76.9231 149.515
425.837 85.4701 170.874
425.837 94.0171 62.1359
425.837 102.564 108.738
425.837 111.111 52.4272
425.837 119.658 100.971
425.837 128.205 89.3204
425.837 136.752 200
425.837 145.299 306.796
425.837 153.846 172.816
425.837 162.393 15.534
425.837 487.179 48.5437
425.837 495.726 73.7864
425.837 504.274 17.4757
425.837 512.821 17.4757
425.837 521.368 52.4272
425.837 529.915 25.2427
425.837 538.462 19.4175
425.837 547.009 17.4757
425.837 555.556 66.0194
425.837 564.103 29.1262
425.837 572.65 33.0097
425.837 581.197 246.602
425.837 589.744 273.786
425.837 598.291 54.3689
425.837 606.838 67.9612
425.837 615.385 66.0194
425.837 623.932 147.573
425.837 632.479 258.252
425.837 641.026 170.874
425.837 649.573 297.087
425.837 658.12 293.204
425.837 666.667 211.65
425.837 675.214 355.34
425.837 683.761 190.291
425.837 692.308 355.34
425.837 700.855 749.515
425.837 709.402 751.456
425.837 717.949 499.029
425.837 726.496 499.029
425.837 735.043 499.029
425.837 743.59 497.087
425.837 752.137 495.146
425.837 760.684 491.262
425.837 769.231 489.32
425.837 777.778 489.32
425.837 786.325 487.379
425.837 794.872 485.437
425.837 803.419 485.437
425.837 811.966 483.495
425.837 820.513 483.495
425.837 829.06 481.553
430.622 17.094 765.049
430.622 25.641 407.767
430.622 34.188 130.097
430.622 42.735 153.398
430.622 51.2821 238.835
430.622 59.8291 238.835
430.622 68.3761 209.709
430.622 76.9231 77.6699
430.622 85.4701 266.019
430.622 94.0171 56.3107
430.622 102.564 116.505
430.622 111.111 62.1359
430.622 119.658 108.738
430.622 128.205 141.748
430.622 136.752 223.301
430.622 145.299 273.786
430.622 153.846 102.913
430.622 487.179 54.3689
430.622 495.726 100.971
430.622 504.274 17.4757
430.622 512.821 46.6019
430.622 521.368 50.4854
430.622 529.915 25.2427
430.622 538.462 17.4757
430.622 547.009 15.534
430.622 555.556 66.0194
430.622 564.103 33.0097
430.622 572.65 31.068
430.622 581.197 192.233
430.622 589.744 337.864
430.622 598.291 54.3689
430.622 606.838 60.1942
430.622 615.385 66.0194
430.622 623.932 161.165
430.622 632.479 147.573
430.622 641.026 139.806
430.622 649.573 236.893
430.622 658.12 264.078
430.622 666.667 190.291
430.622 675.214 357.282
430.622 683.761 293.204
430.622 692.308 493.204
430.622 700.855 619.417
430.622 709.402 751.456
430.622 717.949 499.029
430.622 726.496 499.029
430.622 735.043 499.029
430.622 743.59 497.087
430.622 752.137 493.204
430.622 760.684 489.32
430.622 769.231 489.32
430.622 777.778 487.379
430.622 786.325 485.437
430.622 794.872 485.437
430.622 803.419 485.437
430.622 811.966 483.495
430.622 820.513 483.495
430.622 829.06 481.553
430.622 837.607 479.612
435.407 17.094 766.99
435.407 25.641 320.388
435.407 34.188 130.097
435.407 42.735 132.039
435.407 51.2821 322.33
435.407 59.8291 238.835
435.407 68.3761 188.35
435.407 76.9231 151.456
435.407 85.4701 266.019
435.407 94.0171 56.3107
435.407 102.564 126.214
435.407 111.111 62.1359
435.407 119.658 106.796
435.407 128.205 133.981
435.407 136.752 291.262
435.407 145.299 304.854
435.407 153.846 79.6117
435.407 487.179 23.301
435.407 495.726 73.7864
435.407 504.274 17.4757
435.407 512.821 48.5437
435.407 521.368 19.4175
435.407 529.915 23.301
435.407 538.462 17.4757
435.407 547.009 15.534
435.407 555.556 62.1359
435.407 564.103 31.068
435.407 572.65 29.1262
435.407 581.197 85.4369
435.407 589.744 345.631
435.407 598.291 104.854
435.407 606.838 60.1942
435.407 615.385 60.1942
435.407 623.932 133.981
435.407 632.479 135.922
435.407 641.026 198.058
435.407 649.573 236.893
435.407 658.12 240.777
435.407 666.667 240.777
435.407 675.214 262.136
435.407 683.761 293.204
435.407 692.308 493.204
435.407 700.855 621.359
435.407 709.402 751.456
435.407 717.949 667.961
435.407 726.496 499.029
435.407 735.043 499.029
435.407 743.59 497.087
435.407 752.137 493.204
435.407 760.684 489.32
435.407 769.231 489.32
435.407 777.778 487.379
435.407 786.325 485.437
435.407 794.872 485.437
435.407 803.419 483.495
435.407 811.966 483.495
435.407 820.513 483.495
435.407 829.06 481.553
435.407 837.607 479.612
435.407 846.154 473.786
440.191 8.54701 473.786
440.191 17.094 766.99
440.191 25.641 271.845
440.191 34.188 130.097
440.191 42.735 112.621
440.191 51.2821 322.33
440.191 59.8291 209.709
440.191 68.3761 188.35
440.191 76.9231 151.456
440.191 85.4701 196.117
440.191 94.0171 56.3107
440.191 102.564 126.214
440.191 111.111 50.4854
440.191 119.658 50.4854
440.191 128.205 182.524
440.191 136.752 279.612
440.191 145.299 256.311
440.191 153.846 15.534
440.191 376.068 0
440.191 384.615 0
440.191 418.803 0
440.191 427.35 0
440.191 487.179 21.3592
440.191 495.726 73.7864
440.191 504.274 21.3592
440.191 512.821 52.4272
440.191 521.368 17.4757
440.191 529.915 21.3592
440.191 538.462 17.4757
440.191 547.009 15.534
440.191 555.556 52.4272
440.191 564.103 27.1845
440.191 572.65 29.1262
440.191 581.197 34.9515
440.191 589.744 233.01
440.191 598.291 104.854
440.191 606.838 62.1359
440.191 615.385 54.3689
440.191 623.932 112.621
440.191 632.479 54.3689
440.191 641.026 215.534
440.191 649.573 320.388
440.191 658.12 209.709
440.191 666.667 291.262
440.191 675.214 289.32
440.191 683.761 368.932
440.191 692.308 493.204
440.191 700.855 619.417
440.191 709.402 594.175
440.191 717.949 667.961
440.191 726.496 499.029
440.191 735.043 499.029
440.191 743.59 497.087
440.191 752.137 493.204
440.191 760.684 489.32
440.191 769.231 487.379
440.191 777.778 485.437
440.191 786.325 485.437
440.191 794.872 483.495
440.191 803.419 483.495
440.191 811.966 483.495
440.191 820.513 483.495
440.191 829.06 481.553
440.191 837.607 477.67
440.191 846.154 473.786
444.976 8.54701 473.786
444.976 17.094 572.816
444.976 25.641 151.456
444.976 34.188 271.845
444.976 42.735 209.709
444.976 51.2821 287.379
444.976 59.8291 209.709
444.976 68.3761 87.3786
444.976 76.9231 151.456
444.976 85.4701 196.117
444.976 94.0171 62.1359
444.976 102.564 62.1359
444.976 111.111 116.505
444.976 119.658 95.1456
444.976 128.205 231.068
444.976 136.752 347.573
444.976 145.299 217.476
444.976 367.521 0
444.976 376.068 1.94175
444.976 487.179 50.4854
444.976 495.726 77.6699
444.976 504.274 54.3689
444.976 512.821 42.7184
444.976 521.368 15.534
444.976 529.915 23.301
444.976 538.462 17.4757
444.976 547.009 19.4175
444.976 555.556 50.4854
444.976 564.103 21.3592
444.976 572.65 25.2427
444.976 581.197 33.0097
444.976 589.744 233.01
444.976 598.291 188.35
444.976 606.838 67.9612
444.976 615.385 50.4854
444.976 623.932 97.0874
444.976 632.479 44.6602
444.976 641.026 147.573
444.976 649.573 234.951
444.976 658.12 153.398
444.976 666.667 291.262
444.976 675.214 365.049
444.976 683.761 425.243
444.976 692.308 551.456
444.976 700.855 493.204
444.976 709.402 594.175
444.976 717.949 666.019
444.976 726.496 664.078
444.976 735.043 497.087
444.976 743.59 495.146
444.976 752.137 493.204
444.976 760.684 489.32
444.976 769.231 487.379
444.976 777.778 485.437
444.976 786.325 485.437
444.976 794.872 483.495
444.976 803.419 483.495
444.976 811.966 483.495
444.976 820.513 483.495
444.976 829.06 479.612
444.976 837.607 477.67
444.976 846.154 471.845
444.976 854.701 469.903
449.761 8.54701 631.068
449.761 17.094 572.816
449.761 25.641 153.398
449.761 34.188 271.845
449.761 42.735 209.709
449.761 51.2821 287.379
449.761 59.8291 153.398
449.761 68.3761 87.3786
449.761 76.9231 166.99
449.761 85.4701 151.456
449.761 94.0171 135.922
449.761 102.564 56.3107
449.761 111.111 106.796
449.761 119.658 149.515
449.761 128.205 312.621
449.761 136.752 374.757
449.761 145.299 108.738
449.761 367.521 1.94175
449.761 376.068 1.94175
449.761 487.179 67.9612
449.761 495.726 54.3689
449.761 504.274 46.6019
449.761 512.821 15.534
449.761 521.368 15.534
449.761 529.915 21.3592
449.761 538.462 19.4175
449.761 547.009 17.4757
449.761 555.556 52.4272
449.761 564.103 25.2427
449.761 572.65 23.301
449.761 581.197 33.0097
449.761 589.744 147.573
449.761 598.291 211.65
449.761 606.838 62.1359
449.761 615.385 50.4854
449.761 623.932 99.0291
449.761 632.479 67.9612
449.761 641.026 135.922
449.761 649.573 258.252
449.761 658.12 186.408
449.761 666.667 262.136
449.761 675.214 365.049
449.761 683.761 277.67
449.761 692.308 621.359
449.761 700.855 565.049
449.761 709.402 662.136
449.761 717.949 328.155
449.761 726.496 664.078
449.761 735.043 497.087
449.761 743.59 495.146
449.761 752.137 491.262
449.761 760.684 489.32
449.761 769.231 485.437
449.761 777.778 485.437
449.761 786.325 483.495
449.761 794.872 483.495
449.761 803.419 483.495
449.761 811.966 483.495
449.761 820.513 481.553
449.761 829.06 479.612
449.761 837.607 475.728
449.761 846.154 471.845
449.761 854.701 469.903
454.545 8.54701 714.563
454.545 17.094 572.816
454.545 25.641 153.398
454.545 34.188 271.845
454.545 42.735 209.709
454.545 51.2821 287.379
454.545 59.8291 69.9029
454.545 68.3761 137.864
454.545 76.9231 166.99
454.545 85.4701 137.864
454.545 94.0171 135.922
454.545 102.564 56.3107
454.545 111.111 114.563
454.545 119.658 190.291
454.545 128.205 355.34
454.545 136.752 256.311
454.545 145.299 17.4757
454.545 358.974 1.94175
454.545 367.521 0
454.545 376.068 1.94175
454.545 410.256 0
454.545 418.803 0
454.545 487.179 67.9612
454.545 495.726 19.4175
454.545 504.274 44.6602
454.545 512.821 44.6602
454.545 521.368 15.534
454.545 529.915 23.301
454.545 538.462 19.4175
454.545 547.009 19.4175
454.545 555.556 48.5437
454.545 564.103 23.301
454.545 572.65 25.2427
454.545 581.197 33.0097
454.545 589.744 149.515
454.545 598.291 225.243
454.545 606.838 54.3689
454.545 615.385 42.7184
454.545 623.932 106.796
454.545 632.479 62.1359
454.545 641.026 165.049
454.545 649.573 285.437
454.545 658.12 258.252
454.545 666.667 291.262
454.545 675.214 365.049
454.545 683.761 277.67
454.545 692.308 710.68
454.545 700.855 660.194
454.545 709.402 708.738
454.545 717.949 326.214
454.545 726.496 664.078
454.545 735.043 495.146
454.545 743.59 491.262
454.545 752.137 489.32
454.545 760.684 487.379
454.545 769.231 485.437
454.545 777.778 485.437
454.545 786.325 483.495
454.545 794.872 483.495
454.545 803.419 483.495
454.545 811.966 481.553
454.545 820.513 479.612
454.545 829.06 477.67
454.545 837.607 473.786
454.545 846.154 471.845
454.545 854.701 469.903
459.33 8.54701 766.99
459.33 17.094 316.505
459.33 25.641 271.845
459.33 34.188 271.845
459.33 42.735 287.379
459.33 51.2821 287.379
459.33 59.8291 85.4369
459.33 68.3761 139.806
459.33 76.9231 62.1359
459.33 85.4701 137.864
459.33 94.0171 124.272
459.33 102.564 56.3107
459.33 111.111 106.796
459.33 119.658 341.748
459.33 128.205 366.99
459.33 136.752 114.563
459.33 145.299 19.4175
459.33 350.427 0
459.33 358.974 1.94175
459.33 367.521 3.8835
459.33 376.068 1.94175
459.33 410.256 1.94175
459.33 487.179 73.7864
459.33 495.726 13.5922
459.33 504.274 15.534
459.33 512.821 42.7184
459.33 521.368 15.534
459.33 529.915 21.3592
459.33 538.462 56.3107
459.33 547.009 52.4272
459.33 555.556 50.4854
459.33 564.103 27.1845
459.33 572.65 31.068
459.33 581.197 75.7282
459.33 589.744 163.107
459.33 598.291 211.65
459.33 606.838 50.4854
459.33 615.385 42.7184
459.33 623.932 124.272
459.33 632.479 133.981
459.33 641.026 182.524
459.33 649.573 209.709
459.33 658.12 234.951
459.33 666.667 289.32
459.33 675.214 365.049
459.33 683.761 326.214
459.33 692.308 660.194
459.33 700.855 592.233
459.33 709.402 827.184
459.33 717.949 489.32
459.33 726.496 664.078
459.33 735.043 493.204
459.33 743.59 491.262
459.33 752.137 487.379
459.33 760.684 485.437
459.33 769.231 483.495
459.33 777.778 481.553
459.33 786.325 481.553
459.33 794.872 481.553
459.33 803.419 481.553
459.33 811.966 479.612
459.33 820.513 477.67
459.33 829.06 475.728
459.33 837.607 471.845
459.33 846.154 471.845
459.33 854.701 469.903
464.115 8.54701 766.99
464.115 17.094 186.408
464.115 25.641 271.845
464.115 34.188 130.097
464.115 42.735 287.379
464.115 51.2821 209.709
464.115 59.8291 97.0874
464.115 68.3761 184.466
464.115 76.9231 149.515
464.115 85.4701 149.515
464.115 94.0171 135.922
464.115 102.564 114.563
464.115 111.111 166.99
464.115 119.658 312.621
464.115 128.205 304.854
464.115 136.752 79.6117
464.115 145.299 19.4175
464.115 350.427 1.94175
464.115 358.974 1.94175
464.115 367.521 3.8835
464.115 376.068 1.94175
464.115 410.256 0
464.115 487.179 75.7282
464.115 495.726 13.5922
464.115 504.274 15.534
464.115 512.821 42.7184
464.115 521.368 15.534
464.115 529.915 21.3592
464.115 538.462 54.3689
464.115 547.009 50.4854
464.115 555.556 21.3592
464.115 564.103 25.2427
464.115 572.65 25.2427
464.115 581.197 71.8447
464.115 589.744 172.816
464.115 598.291 285.437
464.115 606.838 42.7184
464.115 615.385 46.6019
464.115 623.932 54.3689
464.115 632.479 200
464.115 641.026 203.883
464.115 649.573 236.893
464.115 658.12 234.951
464.115 666.667 289.32
464.115 675.214 260.194
464.115 683.761 260.194
464.115 692.308 388.35
464.115 700.855 491.262
464.115 709.402 827.184
464.115 717.949 487.379
464.115 726.496 487.379
464.115 752.137 487.379
464.115 760.684 483.495
464.115 769.231 481.553
464.115 777.778 481.553
464.115 786.325 481.553
464.115 794.872 481.553
464.115 803.419 479.612
464.115 811.966 477.67
464.115 820.513 477.67
464.115 829.06 473.786
464.115 837.607 471.845
464.115 846.154 471.845
464.115 854.701 469.903
468.9 0 469.903
468.9 8.54701 768.932
468.9 17.094 153.398
468.9 25.641 271.845
468.9 34.188 130.097
468.9 42.735 322.33
468.9 51.2821 236.893
468.9 59.8291 110.68
468.9 68.3761 184.466
468.9 76.9231 165.049
468.9 85.4701 147.573
468.9 94.0171 147.573
468.9 102.564 124.272
468.9 111.111 201.942
468.9 119.658 262.136
468.9 128.205 233.01
468.9 136.752 50.4854
468.9 145.299 17.4757
468.9 350.427 1.94175
468.9 358.974 5.82524
468.9 367.521 3.8835
468.9 376.068 0
468.9 401.709 0
468.9 410.256 0
468.9 487.179 71.8447
468.9 495.726 93.2039
468.9 504.274 40.7767
468.9 512.821 40.7767
468.9 521.368 17.4757
468.9 529.915 27.1845
468.9 538.462 54.3689
468.9 547.009 48.5437
468.9 555.556 21.3592
468.9 564.103 23.301
468.9 572.65 29.1262
468.9 581.197 71.8447
468.9 589.744 302.913
468.9 598.291 256.311
468.9 606.838 46.6019
468.9 615.385 66.0194
468.9 623.932 54.3689
468.9 632.479 200
468.9 641.026 316.505
468.9 649.573 271.845
468.9 658.12 283.495
468.9 666.667 322.33
468.9 675.214 188.35
468.9 683.761 322.33
468.9 692.308 434.951
468.9 700.855 489.32
468.9 709.402 827.184
468.9 717.949 487.379
468.9 726.496 487.379
468.9 777.778 479.612
468.9 786.325 479.612
468.9 794.872 479.612
468.9 803.419 477.67
468.9 811.966 477.67
468.9 820.513 475.728
468.9 829.06 473.786
468.9 837.607 471.845
468.9 846.154 471.845
468.9 854.701 469.903
473.684 0 636.893
473.684 8.54701 634.951
473.684 17.094 153.398
473.684 25.641 273.786
473.684 34.188 238.835
473.684 42.735 320.388
473.684 51.2821 236.893
473.684 59.8291 203.883
473.684 68.3761 182.524
473.684 76.9231 147.573
473.684 85.4701 124.272
473.684 94.0171 126.214
473.684 102.564 166.99
473.684 111.111 137.864
473.684 119.658 190.291
473.684 128.205 240.777
473.684 136.752 48.5437
473.684 341.88 3.8835
473.684 350.427 3.8835
473.684 358.974 3.8835
473.684 367.521 3.8835
473.684 401.709 0
473.684 495.726 89.3204
473.684 504.274 66.0194
473.684 512.821 15.534
473.684 521.368 23.301
473.684 529.915 31.068
473.684 538.462 89.3204
473.684 547.009 48.5437
473.684 555.556 25.2427
473.684 564.103 23.301
473.684 572.65 25.2427
473.684 581.197 66.0194
473.684 589.744 332.039
473.684 598.291 108.738
473.684 606.838 46.6019
473.684 615.385 54.3689
473.684 623.932 54.3689
473.684 632.479 132.039
473.684 641.026 314.563
473.684 649.573 234.951
473.684 658.12 283.495
473.684 666.667 260.194
473.684 675.214 209.709
473.684 683.761 322.33
473.684 692.308 390.291
473.684 700.855 491.262
473.684 709.402 827.184
473.684 717.949 487.379
473.684 726.496 487.379
473.684 786.325 479.612
473.684 794.872 477.67
473.684 803.419 477.67
473.684 811.966 477.67
473.684 820.513 475.728
473.684 829.06 473.786
473.684 837.607 473.786
473.684 846.154 473.786
473.684 854.701 469.903
478.469 0 638.835
478.469 8.54701 473.786
478.469 17.094 153.398
478.469 25.641 271.845
478.469 34.188 236.893
478.469 42.735 236.893
478.469 51.2821 236.893
478.469 59.8291 182.524
478.469 68.3761 77.6699
478.469 76.9231 192.233
478.469 85.4701 124.272
478.469 94.0171 126.214
478.469 102.564 100.971
478.469 111.111 77.6699
478.469 119.658 213.592
478.469 128.205 182.524
478.469 136.752 102.913
478.469 341.88 1.94175
478.469 350.427 3.8835
478.469 358.974 5.82524
478.469 367.521 5.82524
478.469 376.068 0
478.469 393.162 0
478.469 401.709 0
478.469 495.726 60.1942
478.469 504.274 67.9612
478.469 512.821 15.534
478.469 521.368 25.2427
478.469 529.915 25.2427
478.469 538.462 85.4369
478.469 547.009 50.4854
478.469 555.556 21.3592
478.469 564.103 23.301
478.469 572.65 27.1845
478.469 581.197 104.854
478.469 589.744 332.039
478.469 598.291 46.6019
478.469 606.838 50.4854
478.469 615.385 60.1942
478.469 623.932 145.631
478.469 632.479 132.039
478.469 641.026 357.282
478.469 649.573 271.845
478.469 658.12 283.495
478.469 666.667 238.835
478.469 675.214 209.709
478.469 683.761 322.33
478.469 692.308 434.951
478.469 700.855 708.738
478.469 709.402 794.175
478.469 717.949 487.379
478.469 726.496 487.379
478.469 794.872 475.728
478.469 803.419 477.67
478.469 811.966 473.786
478.469 820.513 473.786
478.469 829.06 473.786
478.469 837.607 473.786
478.469 846.154 473.786
483.254 0 638.835
483.254 8.54701 374.757
483.254 17.094 318.447
483.254 25.641 273.786
483.254 34.188 236.893
483.254 42.735 236.893
483.254 51.2821 234.951
483.254 59.8291 165.049
483.254 68.3761 75.7282
483.254 76.9231 192.233
483.254 85.4701 116.505
483.254 94.0171 116.505
483.254 102.564 100.971
483.254 111.111 73.7864
483.254 119.658 71.8447
483.254 128.205 250.485
483.254 136.752 132.039
483.254 341.88 1.94175
483.254 350.427 3.8835
483.254 358.974 9.70874
483.254 367.521 5.82524
483.254 376.068 0
483.254 393.162 0
483.254 495.726 91.2621
483.254 504.274 114.563
483.254 512.821 17.4757
483.254 521.368 23.301
483.254 529.915 21.3592
483.254 538.462 89.3204
483.254 547.009 52.4272
483.254 555.556 23.301
483.254 564.103 21.3592
483.254 572.65 71.8447
483.254 581.197 213.592
483.254 589.744 347.573
483.254 598.291 50.4854
483.254 606.838 66.0194
483.254 615.385 58.2524
483.254 623.932 132.039
483.254 632.479 83.4951
483.254 641.026 357.282
483.254 649.573 273.786
483.254 658.12 256.311
483.254 666.667 238.835
483.254 675.214 209.709
483.254 683.761 322.33
483.254 692.308 547.573
483.254 700.855 708.738
483.254 709.402 739.806
483.254 717.949 485.437
483.254 726.496 485.437
483.254 803.419 473.786
483.254 811.966 473.786
483.254 820.513 473.786
483.254 829.06 473.786
483.254 837.607 473.786
488.038 0 640.777
488.038 8.54701 374.757
488.038 17.094 318.447
488.038 25.641 271.845
488.038 34.188 236.893
488.038 42.735 209.709
488.038 51.2821 207.767
488.038 59.8291 182.524
488.038 68.3761 163.107
488.038 76.9231 178.641
488.038 85.4701 108.738
488.038 94.0171 52.4272
488.038 102.564 108.738
488.038 111.111 77.6699
488.038 119.658 33.0097
488.038 128.205 225.243
488.038 136.752 145.631
488.038 145.299 46.6019
488.038 341.88 5.82524
488.038 350.427 3.8835
488.038 358.974 9.70874
488.038 367.521 1.94175
488.038 384.615 1.94175
488.038 393.162 0
488.038 495.726 48.5437
488.038 504.274 122.33
488.038 512.821 19.4175
488.038 521.368 23.301
488.038 529.915 21.3592
488.038 538.462 54.3689
488.038 547.009 50.4854
488.038 555.556 21.3592
488.038 564.103 29.1262
488.038 572.65 83.4951
488.038 581.197 287.379
488.038 589.744 314.563
488.038 598.291 66.0194
488.038 606.838 54.3689
488.038 615.385 60.1942
488.038 623.932 112.621
488.038 632.479 229.126
488.038 641.026 231.068
488.038 649.573 207.767
488.038 658.12 233.01
488.038 666.667 260.194
488.038 675.214 186.408
488.038 683.761 322.33
488.038 692.308 545.631
488.038 700.855 660.194
488.038 709.402 739.806
488.038 717.949 485.437
488.038 726.496 483.495
488.038 820.513 473.786
488.038 829.06 473.786
492.823 0 642.718
492.823 8.54701 236.893
492.823 17.094 318.447
492.823 25.641 273.786
492.823 34.188 209.709
492.823 42.735 110.68
492.823 51.2821 285.437
492.823 59.8291 165.049
492.823 68.3761 209.709
492.823 76.9231 124.272
492.823 85.4701 124.272
492.823 94.0171 56.3107
492.823 102.564 46.6019
492.823 111.111 130.097
492.823 119.658 31.068
492.823 128.205 81.5534
492.823 136.752 293.204
492.823 145.299 100.971
492.823 341.88 5.82524
492.823 350.427 7.76699
492.823 358.974 5.82524
492.823 367.521 1.94175
492.823 376.068 1.94175
492.823 384.615 0
492.823 401.709 1.94175
492.823 495.726 17.4757
492.823 504.274 100.971
492.823 512.821 58.2524
492.823 521.368 21.3592
492.823 529.915 19.4175
492.823 538.462 58.2524
492.823 547.009 54.3689
492.823 555.556 21.3592
492.823 564.103 29.1262
492.823 572.65 33.0097
492.823 581.197 287.379
492.823 589.744 427.184
492.823 598.291 66.0194
492.823 606.838 60.1942
492.823 615.385 60.1942
492.823 623.932 122.33
492.823 632.479 229.126
492.823 641.026 151.456
492.823 649.573 166.99
492.823 658.12 215.534
492.823 666.667 287.379
492.823 675.214 209.709
492.823 683.761 322.33
492.823 692.308 691.262
492.823 700.855 852.427
492.823 709.402 739.806
492.823 717.949 483.495
492.823 726.496 483.495
497.608 0 642.718
497.608 8.54701 234.951
497.608 17.094 320.388
497.608 25.641 271.845
497.608 34.188 130.097
497.608 42.735 236.893
497.608 51.2821 285.437
497.608 59.8291 165.049
497.608 68.3761 209.709
497.608 76.9231 62.1359
497.608 85.4701 114.563
497.608 94.0171 52.4272
497.608 102.564 40.7767
497.608 111.111 87.3786
497.608 119.658 73.7864
497.608 128.205 34.9515
497.608 136.752 151.456
497.608 145.299 176.699
497.608 153.846 75.7282
497.608 341.88 1.94175
497.608 350.427 7.76699
497.608 358.974 3.8835
497.608 367.521 5.82524
497.608 376.068 3.8835
497.608 495.726 17.4757
497.608 504.274 67.9612
497.608 512.821 85.4369
497.608 521.368 50.4854
497.608 529.915 52.4272
497.608 538.462 58.2524
497.608 547.009 21.3592
497.608 555.556 21.3592
497.608 564.103 31.068
497.608 572.65 36.8932
497.608 581.197 231.068
497.608 589.744 433.01
497.608 598.291 151.456
497.608 606.838 73.7864
497.608 615.385 161.165
497.608 623.932 200
497.608 632.479 229.126
497.608 641.026 126.214
497.608 649.573 151.456
497.608 658.12 198.058
497.608 666.667 236.893
497.608 675.214 287.379
497.608 683.761 545.631
497.608 692.308 693.204
497.608 700.855 792.233
497.608 709.402 483.495
497.608 717.949 483.495
497.608 726.496 483.495
502.392 8.54701 720.388
502.392 17.094 320.388
502.392 25.641 320.388
502.392 34.188 130.097
502.392 42.735 209.709
502.392 51.2821 285.437
502.392 59.8291 165.049
502.392 68.3761 209.709
502.392 76.9231 62.1359
502.392 85.4701 60.1942
502.392 94.0171 114.563
502.392 102.564 46.6019
502.392 111.111 36.8932
502.392 119.658 87.3786
502.392 128.205 77.6699
502.392 136.752 114.563
502.392 145.299 248.544
502.392 153.846 108.738
502.392 333.333 0
502.392 341.88 5.82524
502.392 350.427 3.8835
502.392 358.974 1.94175
502.392 367.521 3.8835
502.392 376.068 0
502.392 384.615 0
502.392 393.162 1.94175
502.392 495.726 15.534
502.392 504.274 73.7864
502.392 512.821 56.3107
502.392 521.368 83.4951
502.392 529.915 77.6699
502.392 538.462 23.301
502.392 547.009 25.2427
502.392 555.556 25.2427
502.392 564.103 31.068
502.392 572.65 34.9515
502.392 581.197 201.942
502.392 589.744 438.835
502.392 598.291 217.476
502.392 606.838 73.7864
502.392 615.385 200
502.392 623.932 200
502.392 632.479 231.068
502.392 641.026 108.738
502.392 649.573 213.592
502.392 658.12 215.534
502.392 666.667 236.893
502.392 675.214 287.379
502.392 683.761 590.291
502.392 692.308 852.427
502.392 700.855 790.291
502.392 709.402 483.495
502.392 717.949 481.553
502.392 726.496 481.553
502.392 735.043 475.728
507.177 8.54701 720.388
507.177 17.094 384.466
507.177 25.641 186.408
507.177 34.188 269.903
507.177 42.735 128.155
507.177 51.2821 207.767
507.177 59.8291 258.252
507.177 68.3761 231.068
507.177 76.9231 135.922
507.177 85.4701 54.3689
507.177 94.0171 114.563
507.177 102.564 46.6019
507.177 111.111 42.7184
507.177 119.658 87.3786
507.177 128.205 87.3786
507.177 136.752 73.7864
507.177 145.299 223.301
507.177 153.846 188.35
507.177 333.333 3.8835
507.177 341.88 1.94175
507.177 350.427 0
507.177 358.974 5.82524
507.177 367.521 3.8835
507.177 376.068 1.94175
507.177 384.615 0
507.177 504.274 73.7864
507.177 512.821 62.1359
507.177 521.368 87.3786
507.177 529.915 79.6117
507.177 538.462 21.3592
507.177 547.009 25.2427
507.177 555.556 27.1845
507.177 564.103 29.1262
507.177 572.65 83.4951
507.177 581.197 85.4369
507.177 589.744 390.291
507.177 598.291 372.816
507.177 606.838 93.2039
507.177 615.385 83.4951
507.177 623.932 200
507.177 632.479 231.068
507.177 641.026 126.214
507.177 649.573 198.058
507.177 658.12 151.456
507.177 666.667 349.515
507.177 675.214 386.408
507.177 683.761 590.291
507.177 692.308 825.243
507.177 700.855 654.369
507.177 709.402 481.553
507.177 717.949 479.612
507.177 726.496 479.612
507.177 735.043 475.728
511.962 17.094 718.447
511.962 25.641 318.447
511.962 34.188 269.903
511.962 42.735 128.155
511.962 51.2821 112.621
511.962 59.8291 287.379
511.962 68.3761 233.01
511.962 76.9231 194.175
511.962 85.4701 54.3689
511.962 94.0171 54.3689
511.962 102.564 106.796
511.962 111.111 56.3107
511.962 119.658 50.4854
511.962 128.205 157.282
511.962 136.752 89.3204
511.962 145.299 114.563
511.962 153.846 275.728
511.962 162.393 56.3107
511.962 324.786 5.82524
511.962 333.333 0
511.962 341.88 0
511.962 350.427 3.8835
511.962 358.974 3.8835
511.962 367.521 0
511.962 376.068 0
511.962 504.274 81.5534
511.962 512.821 66.0194
511.962 521.368 93.2039
511.962 529.915 50.4854
511.962 538.462 17.4757
511.962 547.009 25.2427
511.962 555.556 29.1262
511.962 564.103 33.0097
511.962 572.65 83.4951
511.962 581.197 42.7184
511.962 589.744 225.243
511.962 598.291 300.971
511.962 606.838 66.0194
511.962 615.385 73.7864
511.962 623.932 145.631
511.962 632.479 229.126
511.962 641.026 234.951
511.962 649.573 213.592
511.962 658.12 215.534
511.962 666.667 293.204
511.962 675.214 403.883
511.962 683.761 543.689
511.962 692.308 825.243
511.962 700.855 481.553
511.962 709.402 481.553
511.962 717.949 479.612
511.962 726.496 477.67
511.962 735.043 475.728
516.746 17.094 462.136
516.746 25.641 766.99
516.746 34.188 149.515
516.746 42.735 267.961
516.746 51.2821 110.68
516.746 59.8291 207.767
516.746 68.3761 256.311
516.746 76.9231 137.864
516.746 85.4701 180.583
516.746 94.0171 52.4272
516.746 102.564 60.1942
516.746 111.111 124.272
516.746 119.658 50.4854
516.746 128.205 93.2039
516.746 136.752 77.6699
516.746 145.299 108.738
516.746 153.846 264.078
516.746 162.393 93.2039
516.746 196.581 0
516.746 247.863 0
516.746 264.957 0
516.746 299.145 0
516.746 316.239 7.76699
516.746 324.786 3.8835
516.746 341.88 0
516.746 350.427 0
516.746 358.974 0
516.746 367.521 5.82524
516.746 376.068 0
516.746 384.615 1.94175
516.746 495.726 17.4757
516.746 504.274 83.4951
516.746 512.821 106.796
516.746 521.368 56.3107
516.746 529.915 48.5437
516.746 538.462 17.4757
516.746 547.009 25.2427
516.746 555.556 33.0097
516.746 564.103 83.4951
516.746 572.65 83.4951
516.746 581.197 46.6019
516.746 589.744 225.243
516.746 598.291 322.33
516.746 606.838 83.4951
516.746 615.385 178.641
516.746 623.932 159.223
516.746 632.479 281.553
516.746 641.026 205.825
516.746 649.573 233.01
516.746 658.12 293.204
516.746 666.667 215.534
516.746 675.214 442.718
516.746 683.761 617.476
516.746 692.308 825.243
516.746 700.855 481.553
516.746 709.402 479.612
516.746 717.949 479.612
516.746 726.496 477.67
516.746 735.043 475.728
521.531 25.641 627.184
521.531 34.188 475.728
521.531 42.735 264.078
521.531 51.2821 110.68
521.531 59.8291 108.738
521.531 68.3761 283.495
521.531 76.9231 165.049
521.531 85.4701 209.709
521.531 94.0171 122.33
521.531 102.564 60.1942
521.531 111.111 114.563
521.531 119.658 52.4272
521.531 128.205 50.4854
521.531 136.752 132.039
521.531 145.299 108.738
521.531 153.846 223.301
521.531 162.393 108.738
521.531 213.675 0
521.531 239.316 0
521.531 290.598 0
521.531 299.145 3.8835
521.531 307.692 3.8835
521.531 316.239 5.82524
521.531 333.333 1.94175
521.531 341.88 0
521.531 350.427 0
521.531 358.974 0
521.531 367.521 7.76699
521.531 495.726 71.8447
521.531 504.274 97.0874
521.531 512.821 102.913
521.531 521.368 25.2427
521.531 529.915 50.4854
521.531 538.462 25.2427
521.531 547.009 25.2427
521.531 555.556 27.1845
521.531 564.103 77.6699
521.531 572.65 50.4854
521.531 581.197 38.835
521.531 589.744 304.854
521.531 598.291 345.631
521.531 606.838 83.4951
521.531 615.385 178.641
521.531 623.932 205.825
521.531 632.479 281.553
521.531 641.026 411.65
521.531 649.573 345.631
521.531 658.12 293.204
521.531 666.667 260.194
521.531 675.214 533.981
521.531 683.761 852.427
521.531 692.308 741.748
521.531 700.855 479.612
521.531 709.402 479.612
521.531 717.949 479.612
521.531 726.496 477.67
521.531 735.043 475.728
526.316 25.641 623.301
526.316 34.188 471.845
526.316 42.735 312.621
526.316 51.2821 266.019
526.316 59.8291 108.738
526.316 68.3761 108.738
526.316 76.9231 343.689
526.316 85.4701 163.107
526.316 94.0171 209.709
526.316 102.564 54.3689
526.316 111.111 114.563
526.316 119.658 56.3107
526.316 128.205 56.3107
526.316 136.752 99.0291
526.316 145.299 118.447
526.316 153.846 240.777
526.316 162.393 200
526.316 213.675 1.94175
526.316 239.316 1.94175
526.316 290.598 1.94175
526.316 299.145 5.82524
526.316 307.692 5.82524
526.316 316.239 3.8835
526.316 333.333 1.94175
526.316 367.521 3.8835
526.316 376.068 3.8835
526.316 495.726 91.2621
526.316 504.274 71.8447
526.316 512.821 77.6699
526.316 521.368 27.1845
526.316 529.915 56.3107
526.316 538.462 23.301
526.316 547.009 40.7767
526.316 555.556 62.1359
526.316 564.103 66.0194
526.316 572.65 33.0097
526.316 581.197 133.981
526.316 589.744 434.951
526.316 598.291 236.893
526.316 606.838 83.4951
526.316 615.385 200
526.316 623.932 165.049
526.316 632.479 254.369
526.316 641.026 357.282
526.316 649.573 318.447
526.316 658.12 258.252
526.316 666.667 287.379
526.316 675.214 590.291
526.316 683.761 827.184
526.316 692.308 479.612
526.316 700.855 479.612
526.316 709.402 477.67
526.316 717.949 477.67
526.316 726.496 477.67
526.316 735.043 475.728
531.1 25.641 458.252
531.1 34.188 466.019
531.1 42.735 570.874
531.1 51.2821 312.621
531.1 59.8291 108.738
531.1 68.3761 126.214
531.1 76.9231 343.689
531.1 85.4701 83.4951
531.1 94.0171 229.126
531.1 102.564 124.272
531.1 111.111 54.3689
531.1 119.658 106.796
531.1 128.205 54.3689
531.1 136.752 104.854
531.1 145.299 81.5534
531.1 153.846 231.068
531.1 162.393 302.913
531.1 213.675 0
531.1 239.316 1.94175
531.1 290.598 1.94175
531.1 299.145 3.8835
531.1 307.692 5.82524
531.1 324.786 1.94175
531.1 333.333 1.94175
531.1 358.974 0
531.1 376.068 1.94175
531.1 495.726 149.515
531.1 504.274 75.7282
531.1 512.821 77.6699
531.1 521.368 29.1262
531.1 529.915 64.0777
531.1 538.462 25.2427
531.1 547.009 77.6699
531.1 555.556 81.5534
531.1 564.103 33.0097
531.1 572.65 33.0097
531.1 581.197 211.65
531.1 589.744 427.184
531.1 598.291 83.4951
531.1 606.838 200
531.1 615.385 252.427
531.1 623.932 281.553
531.1 632.479 314.563
531.1 641.026 427.184
531.1 649.573 429.126
531.1 658.12 485.437
531.1 666.667 613.592
531.1 675.214 881.553
531.1 683.761 792.233
531.1 692.308 479.612
531.1 700.855 479.612
531.1 709.402 477.67
531.1 717.949 477.67
531.1 726.496 475.728
535.885 25.641 458.252
535.885 34.188 464.078
535.885 42.735 570.874
535.885 51.2821 312.621
535.885 59.8291 233.01
535.885 68.3761 126.214
535.885 76.9231 343.689
535.885 85.4701 75.7282
535.885 94.0171 163.107
535.885 102.564 207.767
535.885 111.111 48.5437
535.885 119.658 106.796
535.885 128.205 40.7767
535.885 136.752 40.7767
535.885 145.299 93.2039
535.885 153.846 93.2039
535.885 162.393 335.922
535.885 170.94 104.854
535.885 188.034 0
535.885 239.316 0
535.885 290.598 3.8835
535.885 299.145 1.94175
535.885 307.692 5.82524
535.885 324.786 3.8835
535.885 333.333 0
535.885 358.974 0
535.885 487.179 33.0097
535.885 495.726 155.34
535.885 504.274 33.0097
535.885 512.821 73.7864
535.885 521.368 73.7864
535.885 529.915 71.8447
535.885 538.462 23.301
535.885 547.009 81.5534
535.885 555.556 44.6602
535.885 564.103 106.796
535.885 572.65 100.971
535.885 581.197 349.515
535.885 589.744 370.874
535.885 598.291 176.699
535.885 606.838 176.699
535.885 615.385 205.825
535.885 623.932 314.563
535.885 632.479 357.282
535.885 641.026 483.495
535.885 649.573 318.447
535.885 658.12 487.379
535.885 666.667 768.932
535.885 675.214 846.602
535.885 683.761 479.612
535.885 692.308 479.612
535.885 700.855 479.612
535.885 709.402 479.612
535.885 717.949 475.728
535.885 726.496 475.728
540.67 34.188 625.243
540.67 42.735 570.874
540.67 51.2821 182.524
540.67 59.8291 233.01
540.67 68.3761 128.155
540.67 76.9231 254.369
540.67 85.4701 163.107
540.67 94.0171 147.573
540.67 102.564 190.291
540.67 111.111 54.3689
540.67 119.658 46.6019
540.67 128.205 99.0291
540.67 136.752 42.7184
540.67 145.299 91.2621
540.67 153.846 106.796
540.67 162.393 233.01
540.67 170.94 256.311
540.67 188.034 0
540.67 205.128 0
540.67 239.316 0
540.67 290.598 3.8835
540.67 299.145 1.94175
540.67 307.692 9.70874
540.67 324.786 0
540.67 487.179 36.8932
540.67 495.726 73.7864
540.67 504.274 38.835
540.67 512.821 27.1845
540.67 521.368 69.9029
540.67 529.915 66.0194
540.67 538.462 58.2524
540.67 547.009 77.6699
540.67 555.556 44.6602
540.67 564.103 50.4854
540.67 572.65 172.816
540.67 581.197 374.757
540.67 589.744 165.049
540.67 598.291 198.058
540.67 606.838 126.214
540.67 615.385 407.767
540.67 623.932 355.34
540.67 632.479 483.495
540.67 641.026 316.505
540.67 649.573 316.505
540.67 658.12 487.379
540.67 666.667 864.078
540.67 675.214 735.922
540.67 683.761 479.612
540.67 692.308 479.612
540.67 700.855 479.612
540.67 709.402 479.612
540.67 717.949 475.728
545.455 34.188 625.243
545.455 42.735 471.845
545.455 51.2821 314.563
545.455 59.8291 267.961
545.455 68.3761 130.097
545.455 76.9231 281.553
545.455 85.4701 161.165
545.455 94.0171 133.981
545.455 102.564 112.621
545.455 111.111 165.049
545.455 119.658 114.563
545.455 128.205 157.282
545.455 136.752 44.6602
545.455 145.299 54.3689
545.455 153.846 112.621
545.455 162.393 203.883
545.455 170.94 363.107
545.455 179.487 102.913
545.455 188.034 1.94175
545.455 205.128 1.94175
545.455 247.863 0
545.455 290.598 29.1262
545.455 299.145 29.1262
545.455 307.692 5.82524
545.455 341.88 0
545.455 350.427 0
545.455 487.179 33.0097
545.455 495.726 100.971
545.455 504.274 31.068
545.455 512.821 29.1262
545.455 521.368 73.7864
545.455 529.915 69.9029
545.455 538.462 58.2524
545.455 547.009 33.0097
545.455 555.556 44.6602
545.455 564.103 54.3689
545.455 572.65 184.466
545.455 581.197 353.398
545.455 589.744 207.767
545.455 598.291 198.058
545.455 606.838 106.796
545.455 615.385 355.34
545.455 623.932 411.65
545.455 632.479 427.184
545.455 641.026 316.505
545.455 649.573 485.437
545.455 658.12 716.505
545.455 666.667 844.66
545.455 675.214 479.612
545.455 683.761 479.612
545.455 692.308 479.612
545.455 700.855 479.612
545.455 709.402 479.612
550.239 34.188 623.301
550.239 42.735 473.786
550.239 51.2821 269.903
550.239 59.8291 126.214
550.239 68.3761 110.68
550.239 76.9231 281.553
550.239 85.4701 163.107
550.239 94.0171 135.922
550.239 102.564 122.33
550.239 111.111 176.699
550.239 119.658 104.854
550.239 128.205 104.854
550.239 136.752 112.621
550.239 145.299 46.6019
550.239 153.846 99.0291
550.239 162.393 106.796
550.239 170.94 211.65
550.239 179.487 227.184
550.239 188.034 112.621
550.239 213.675 0
550.239 282.051 48.5437
550.239 290.598 25.2427
550.239 299.145 31.068
550.239 316.239 1.94175
550.239 333.333 0
550.239 341.88 1.94175
550.239 495.726 102.913
550.239 504.274 29.1262
550.239 512.821 31.068
550.239 521.368 81.5534
550.239 529.915 93.2039
550.239 538.462 54.3689
550.239 547.009 33.0097
550.239 555.556 44.6602
550.239 564.103 60.1942
550.239 572.65 60.1942
550.239 581.197 481.553
550.239 589.744 357.282
550.239 598.291 83.4951
550.239 606.838 203.883
550.239 615.385 355.34
550.239 623.932 409.709
550.239 632.479 283.495
550.239 641.026 283.495
550.239 649.573 485.437
550.239 658.12 864.078
550.239 666.667 733.981
550.239 675.214 479.612
550.239 683.761 479.612
550.239 692.308 479.612
550.239 700.855 479.612
550.239 709.402 479.612
555.024 34.188 623.301
555.024 42.735 572.816
555.024 51.2821 269.903
555.024 59.8291 151.456
555.024 68.3761 128.155
555.024 76.9231 205.825
555.024 85.4701 279.612
555.024 94.0171 95.1456
555.024 102.564 207.767
555.024 111.111 112.621
555.024 119.658 165.049
555.024 128.205 58.2524
555.024 136.752 52.4272
555.024 145.299 112.621
555.024 153.846 48.5437
555.024 162.393 97.0874
555.024 170.94 93.2039
555.024 179.487 227.184
555.024 188.034 184.466
555.024 196.581 132.039
555.024 213.675 1.94175
555.024 222.222 0
555.024 230.769 0
555.024 239.316 0
555.024 282.051 52.4272
555.024 290.598 33.0097
555.024 299.145 38.835
555.024 307.692 3.8835
555.024 495.726 93.2039
555.024 504.274 104.854
555.024 512.821 77.6699
555.024 521.368 67.9612
555.024 529.915 52.4272
555.024 538.462 25.2427
555.024 547.009 34.9515
555.024 555.556 44.6602
555.024 564.103 60.1942
555.024 572.65 66.0194
555.024 581.197 355.34
555.024 589.744 343.689
555.024 598.291 83.4951
555.024 606.838 254.369
555.024 615.385 314.563
555.024 623.932 254.369
555.024 632.479 233.01
555.024 641.026 347.573
555.024 649.573 737.864
555.024 658.12 862.136
555.024 666.667 646.602
555.024 675.214 479.612
555.024 683.761 479.612
555.024 692.308 479.612
555.024 700.855 479.612
555.024 709.402 475.728
559.809 34.188 466.019
559.809 42.735 473.786
559.809 51.2821 479.612
559.809 59.8291 151.456
559.809 68.3761 153.398
559.809 76.9231 233.01
559.809 85.4701 233.01
559.809 94.0171 180.583
559.809 102.564 66.0194
559.809 111.111 207.767
559.809 119.658 165.049
559.809 128.205 60.1942
559.809 136.752 58.2524
559.809 145.299 58.2524
559.809 153.846 112.621
559.809 162.393 48.5437
559.809 170.94 87.3786
559.809 179.487 194.175
559.809 188.034 264.078
559.809 196.581 106.796
559.809 205.128 99.0291
559.809 213.675 29.1262
559.809 230.769 0
559.809 247.863 0
559.809 290.598 3.8835
559.809 299.145 0
559.809 495.726 29.1262
559.809 504.274 108.738
559.809 512.821 66.0194
559.809 521.368 64.0777
559.809 529.915 52.4272
559.809 538.462 27.1845
559.809 547.009 46.6019
559.809 555.556 44.6602
559.809 564.103 60.1942
559.809 572.65 54.3689
559.809 581.197 333.981
559.809 589.744 343.689
559.809 598.291 83.4951
559.809 606.838 252.427
559.809 615.385 281.553
559.809 623.932 182.524
559.809 632.479 384.466
559.809 641.026 539.806
559.809 649.573 842.718
559.809 658.12 786.408
559.809 666.667 479.612
559.809 675.214 479.612
559.809 683.761 479.612
559.809 692.308 479.612
559.809 700.855 479.612
564.593 42.735 706.796
564.593 51.2821 314.563
564.593 59.8291 382.524
564.593 68.3761 153.398
564.593 76.9231 188.35
564.593 85.4701 271.845
564.593 94.0171 279.612
564.593 102.564 75.7282
564.593 111.111 207.767
564.593 119.658 60.1942
564.593 128.205 133.981
564.593 136.752 64.0777
564.593 145.299 64.0777
564.593 153.846 58.2524
564.593 162.393 104.854
564.593 170.94 110.68
564.593 179.487 186.408
564.593 188.034 260.194
564.593 196.581 246.602
564.593 205.128 104.854
564.593 213.675 102.913
564.593 222.222 33.0097
564.593 239.316 1.94175
564.593 247.863 0
564.593 256.41 0
564.593 264.957 0
564.593 273.504 0
564.593 282.051 1.94175
564.593 290.598 1.94175
564.593 495.726 73.7864
564.593 504.274 118.447
564.593 512.821 62.1359
564.593 521.368 64.0777
564.593 529.915 21.3592
564.593 538.462 29.1262
564.593 547.009 54.3689
564.593 555.556 50.4854
564.593 564.103 50.4854
564.593 572.65 102.913
564.593 581.197 314.563
564.593 589.744 320.388
564.593 598.291 252.427
564.593 606.838 252.427
564.593 615.385 283.495
564.593 623.932 256.311
564.593 632.479 427.184
564.593 641.026 650.485
564.593 649.573 862.136
564.593 658.12 733.981
564.593 683.761 479.612
564.593 692.308 479.612
569.378 42.735 466.019
569.378 51.2821 475.728
569.378 59.8291 409.709
569.378 68.3761 186.408
569.378 76.9231 188.35
569.378 85.4701 188.35
569.378 94.0171 234.951
569.378 102.564 254.369
569.378 111.111 69.9029
569.378 119.658 207.767
569.378 128.205 60.1942
569.378 136.752 120.388
569.378 145.299 64.0777
569.378 153.846 60.1942
569.378 162.393 54.3689
569.378 170.94 124.272
569.378 179.487 147.573
569.378 188.034 233.01
569.378 196.581 182.524
569.378 205.128 229.126
569.378 213.675 66.0194
569.378 222.222 102.913
569.378 282.051 1.94175
569.378 495.726 91.2621
569.378 504.274 145.631
569.378 512.821 71.8447
569.378 521.368 58.2524
569.378 529.915 56.3107
569.378 538.462 25.2427
569.378 547.009 40.7767
569.378 555.556 48.5437
569.378 564.103 44.6602
569.378 572.65 85.4369
569.378 581.197 248.544
569.378 589.744 320.388
569.378 598.291 252.427
569.378 606.838 314.563
569.378 615.385 283.495
569.378 623.932 256.311
569.378 632.479 427.184
569.378 641.026 607.767
569.378 649.573 817.476
574.163 51.2821 634.951
574.163 59.8291 382.524
574.163 68.3761 316.505
574.163 76.9231 188.35
574.163 85.4701 188.35
574.163 94.0171 153.398
574.163 102.564 207.767
574.163 111.111 254.369
574.163 119.658 67.9612
574.163 128.205 192.233
574.163 136.752 58.2524
574.163 145.299 112.621
574.163 153.846 58.2524
574.163 162.393 64.0777
574.163 170.94 66.0194
574.163 179.487 122.33
574.163 188.034 174.757
574.163 196.581 188.35
574.163 205.128 254.369
574.163 213.675 176.699
574.163 222.222 104.854
574.163 256.41 0
574.163 273.504 0
574.163 495.726 87.3786
574.163 504.274 200
574.163 512.821 132.039
574.163 521.368 100.971
574.163 529.915 58.2524
574.163 538.462 23.301
574.163 547.009 40.7767
574.163 555.556 48.5437
574.163 564.103 34.9515
574.163 572.65 85.4369
574.163 581.197 335.922
574.163 589.744 448.544
574.163 598.291 279.612
574.163 606.838 281.553
574.163 615.385 318.447
574.163 623.932 256.311
574.163 632.479 427.184
574.163 641.026 609.709
574.163 649.573 817.476
578.947 59.8291 634.951
578.947 68.3761 380.583
578.947 76.9231 316.505
578.947 85.4701 153.398
578.947 94.0171 153.398
578.947 102.564 233.01
578.947 111.111 108.738
578.947 119.658 277.67
578.947 128.205 133.981
578.947 136.752 143.689
578.947 145.299 71.8447
578.947 153.846 132.039
578.947 162.393 64.0777
578.947 170.94 71.8447
578.947 179.487 133.981
578.947 188.034 114.563
578.947 196.581 242.718
578.947 205.128 234.951
578.947 213.675 215.534
578.947 222.222 139.806
578.947 495.726 87.3786
578.947 504.274 229.126
578.947 512.821 99.0291
578.947 521.368 31.068
578.947 529.915 23.301
578.947 538.462 21.3592
578.947 547.009 29.1262
578.947 555.556 48.5437
578.947 564.103 34.9515
578.947 572.65 91.2621
578.947 581.197 386.408
578.947 589.744 485.437
578.947 598.291 252.427
578.947 606.838 283.495
