175.115 677.852 899.329
175.115 684.564 825.503
175.115 691.275 234.899
175.115 697.987 832.215
175.115 711.409 805.369
175.115 718.121 281.879
175.115 724.832 812.081
175.115 738.255 738.255
175.115 744.966 167.785
175.115 751.678 744.966
179.724 0 409.396
179.724 6.71141 409.396
179.724 13.4228 409.396
179.724 20.1342 416.107
179.724 26.8456 416.107
179.724 33.557 422.819
179.724 40.2685 422.819
179.724 46.9799 422.819
179.724 53.6913 422.819
179.724 60.4027 422.819
179.724 67.1141 422.819
179.724 73.8255 429.53
179.724 80.5369 429.53
179.724 87.2483 429.53
179.724 93.9597 429.53
179.724 100.671 429.53
179.724 120.805 429.53
179.724 127.517 429.53
179.724 134.228 436.242
179.724 140.94 436.242
179.724 147.651 436.242
179.724 154.362 583.893
179.724 161.074 463.087
179.724 167.785 610.738
179.724 174.497 402.685
179.724 181.208 402.685
179.724 187.919 409.396
179.724 194.631 409.396
179.724 201.342 409.396
179.724 208.054 671.141
179.724 214.765 671.141
179.724 221.477 671.141
179.724 228.188 651.007
179.724 234.899 651.007
179.724 241.611 651.007
179.724 248.322 536.913
179.724 255.034 536.913
179.724 261.745 530.201
179.724 268.456 530.201
179.724 275.168 530.201
179.724 281.879 697.987
179.724 288.591 624.161
179.724 295.302 624.161
179.724 302.013 624.161
179.724 308.725 697.987
179.724 315.436 697.987
179.724 322.148 697.987
179.724 328.859 691.275
179.724 335.57 691.275
179.724 342.282 691.275
179.724 348.993 731.544
179.724 355.705 543.624
179.724 362.416 731.544
179.724 369.128 865.772
179.724 375.839 214.765
179.724 382.55 872.483
179.724 389.262 859.06
179.724 395.973 322.148
179.724 402.685 852.349
179.724 409.396 691.275
179.724 416.107 469.799
179.724 422.819 691.275
179.724 456.376 382.55
179.724 463.087 382.55
179.724 469.799 375.839
179.724 604.027 409.396
179.724 610.738 644.295
179.724 617.45 644.295
179.724 624.161 644.295
179.724 637.584 859.06
179.724 644.295 120.805
179.724 651.007 872.483
179.724 664.43 892.617
179.724 671.141 154.362
179.724 677.852 899.329
179.724 684.564 832.215
179.724 691.275 281.879
179.724 697.987 832.215
179.724 711.409 832.215
179.724 718.121 355.705
179.724 724.832 832.215
179.724 738.255 778.523
179.724 744.966 463.087
179.724 751.678 778.523
184.332 13.4228 409.396
184.332 20.1342 416.107
184.332 26.8456 416.107
184.332 33.557 416.107
184.332 40.2685 422.819
184.332 46.9799 422.819
184.332 53.6913 422.819
184.332 60.4027 422.819
184.332 67.1141 422.819
184.332 73.8255 422.819
184.332 80.5369 422.819
184.332 100.671 429.53
184.332 107.383 429.53
184.332 114.094 429.53
184.332 120.805 429.53
184.332 127.517 429.53
184.332 134.228 429.53
184.332 140.94 436.242
184.332 147.651 436.242
184.332 154.362 442.953
184.332 161.074 463.087
184.332 167.785 463.087
184.332 174.497 463.087
184.332 181.208 463.087
184.332 187.919 597.315
184.332 194.631 409.396
184.332 201.342 409.396
184.332 208.054 671.141
184.332 214.765 671.141
184.332 221.477 671.141
184.332 228.188 664.43
184.332 234.899 664.43
184.332 241.611 657.718
184.332 248.322 543.624
184.332 255.034 543.624
184.332 261.745 536.913
184.332 268.456 536.913
184.332 275.168 536.913
184.332 281.879 536.913
184.332 288.591 751.678
184.332 295.302 751.678
184.332 302.013 751.678
184.332 308.725 697.987
184.332 315.436 697.987
184.332 322.148 697.987
184.332 328.859 704.698
184.332 335.57 704.698
184.332 342.282 744.966
184.332 348.993 731.544
184.332 355.705 697.987
184.332 362.416 731.544
184.332 369.128 832.215
184.332 375.839 416.107
184.332 382.55 865.772
184.332 389.262 872.483
184.332 395.973 409.396
184.332 402.685 865.772
184.332 409.396 791.946
184.332 416.107 610.738
184.332 422.819 791.946
184.332 429.53 389.262
184.332 436.242 389.262
184.332 442.953 389.262
184.332 456.376 382.55
184.332 463.087 382.55
184.332 469.799 382.55
184.332 610.738 409.396
184.332 617.45 409.396
184.332 624.161 644.295
184.332 637.584 832.215
184.332 644.295 127.517
184.332 651.007 859.06
184.332 664.43 892.617
184.332 671.141 93.9597
184.332 677.852 892.617
184.332 684.564 859.06
184.332 691.275 422.819
184.332 697.987 859.06
184.332 711.409 845.638
184.332 718.121 302.013
184.332 724.832 845.638
184.332 738.255 825.503
184.332 744.966 328.859
184.332 751.678 818.792
184.332 765.101 402.685
184.332 771.812 402.685
184.332 778.523 402.685
188.94 20.1342 416.107
188.94 26.8456 416.107
188.94 33.557 416.107
188.94 40.2685 416.107
188.94 46.9799 416.107
188.94 53.6913 416.107
188.94 60.4027 416.107
188.94 67.1141 422.819
188.94 73.8255 422.819
188.94 80.5369 422.819
188.94 100.671 429.53
188.94 107.383 429.53
188.94 114.094 429.53
188.94 134.228 429.53
188.94 140.94 429.53
188.94 147.651 429.53
188.94 154.362 442.953
188.94 161.074 463.087
188.94 167.785 463.087
188.94 174.497 463.087
188.94 181.208 463.087
188.94 187.919 463.087
188.94 194.631 476.51
188.94 201.342 476.51
188.94 208.054 610.738
188.94 214.765 416.107
188.94 221.477 671.141
188.94 228.188 677.852
188.94 234.899 677.852
188.94 241.611 664.43
188.94 248.322 550.336
188.94 255.034 550.336
188.94 261.745 543.624
188.94 268.456 543.624
188.94 275.168 543.624
188.94 281.879 536.913
188.94 288.591 738.255
188.94 295.302 738.255
188.94 302.013 771.812
188.94 308.725 691.275
188.94 315.436 691.275
188.94 322.148 697.987
188.94 328.859 711.409
188.94 335.57 711.409
188.94 342.282 704.698
188.94 348.993 697.987
188.94 355.705 697.987
188.94 362.416 731.544
188.94 369.128 832.215
188.94 375.839 416.107
188.94 382.55 832.215
188.94 389.262 872.483
188.94 395.973 342.282
188.94 402.685 872.483
188.94 409.396 798.658
188.94 416.107 375.839
188.94 422.819 791.946
188.94 429.53 389.262
188.94 436.242 389.262
188.94 442.953 389.262
188.94 469.799 382.55
188.94 476.51 389.262
188.94 483.221 389.262
188.94 489.933 389.262
188.94 624.161 409.396
188.94 637.584 785.235
188.94 644.295 375.839
188.94 651.007 832.215
188.94 664.43 885.906
188.94 671.141 73.8255
188.94 677.852 892.617
188.94 684.564 872.483
188.94 691.275 255.034
188.94 697.987 879.195
188.94 711.409 865.772
188.94 718.121 476.51
188.94 724.832 859.06
188.94 738.255 859.06
188.94 744.966 496.644
188.94 751.678 859.06
188.94 765.101 791.946
188.94 771.812 791.946
188.94 778.523 791.946
193.548 33.557 416.107
193.548 40.2685 416.107
193.548 46.9799 416.107
193.548 53.6913 416.107
193.548 60.4027 416.107
193.548 67.1141 422.819
193.548 73.8255 422.819
193.548 80.5369 422.819
193.548 114.094 429.53
193.548 140.94 422.819
193.548 147.651 422.819
193.548 154.362 436.242
193.548 161.074 449.664
193.548 167.785 463.087
193.548 174.497 463.087
193.548 181.208 463.087
193.548 187.919 463.087
193.548 194.631 469.799
193.548 201.342 469.799
193.548 208.054 610.738
193.548 214.765 610.738
193.548 221.477 617.45
193.548 228.188 765.101
193.548 234.899 765.101
193.548 241.611 765.101
193.548 248.322 550.336
193.548 255.034 550.336
193.548 261.745 550.336
193.548 268.456 651.007
193.548 275.168 651.007
193.548 281.879 651.007
193.548 288.591 738.255
193.548 295.302 738.255
193.548 302.013 738.255
193.548 308.725 684.564
193.548 315.436 684.564
193.548 322.148 691.275
193.548 328.859 711.409
193.548 335.57 711.409
193.548 342.282 711.409
193.548 348.993 590.604
193.548 355.705 590.604
193.548 362.416 751.678
193.548 369.128 825.503
193.548 375.839 489.933
193.548 382.55 832.215
193.548 389.262 879.195
193.548 395.973 214.765
193.548 402.685 872.483
193.548 409.396 812.081
193.548 416.107 402.685
193.548 422.819 798.658
193.548 429.53 389.262
193.548 436.242 389.262
193.548 442.953 389.262
193.548 456.376 543.624
193.548 463.087 543.624
193.548 469.799 543.624
193.548 476.51 389.262
193.548 483.221 389.262
193.548 489.933 389.262
193.548 637.584 724.832
193.548 644.295 322.148
193.548 651.007 791.946
193.548 664.43 872.483
193.548 671.141 134.228
193.548 677.852 885.906
193.548 684.564 879.195
193.548 691.275 26.8456
193.548 697.987 872.483
193.548 711.409 872.483
193.548 718.121 248.322
193.548 724.832 879.195
193.548 738.255 865.772
193.548 744.966 167.785
193.548 751.678 865.772
193.548 765.101 859.06
193.548 771.812 691.275
193.548 778.523 852.349
193.548 791.946 758.389
193.548 798.658 758.389
193.548 805.369 758.389
193.548 818.792 557.047
193.548 825.503 557.047
193.548 832.215 557.047
198.157 46.9799 416.107
198.157 67.1141 416.107
198.157 73.8255 422.819
198.157 80.5369 422.819
198.157 140.94 422.819
198.157 147.651 422.819
198.157 154.362 429.53
198.157 161.074 449.664
198.157 167.785 449.664
198.157 174.497 456.376
198.157 181.208 456.376
198.157 187.919 463.087
198.157 194.631 463.087
198.157 201.342 463.087
198.157 208.054 610.738
198.157 214.765 610.738
198.157 221.477 610.738
198.157 228.188 630.872
198.157 234.899 630.872
198.157 241.611 765.101
198.157 248.322 744.966
198.157 255.034 744.966
198.157 261.745 744.966
198.157 268.456 758.389
198.157 275.168 758.389
198.157 281.879 758.389
198.157 288.591 684.564
198.157 295.302 684.564
198.157 302.013 744.966
198.157 308.725 671.141
198.157 315.436 671.141
198.157 322.148 684.564
198.157 328.859 711.409
198.157 335.57 711.409
198.157 342.282 711.409
198.157 348.993 583.893
198.157 355.705 583.893
198.157 362.416 583.893
198.157 369.128 778.523
198.157 375.839 449.664
198.157 382.55 845.638
198.157 389.262 879.195
198.157 395.973 221.477
198.157 402.685 872.483
198.157 409.396 865.772
198.157 416.107 489.933
198.157 422.819 865.772
198.157 429.53 630.872
198.157 436.242 395.973
198.157 442.953 624.161
198.157 456.376 563.758
198.157 463.087 255.034
198.157 469.799 563.758
198.157 476.51 389.262
198.157 483.221 389.262
198.157 489.933 389.262
198.157 651.007 724.832
198.157 664.43 852.349
198.157 671.141 375.839
198.157 677.852 879.195
198.157 684.564 879.195
198.157 691.275 127.517
198.157 697.987 879.195
198.157 711.409 872.483
198.157 718.121 167.785
198.157 724.832 872.483
198.157 738.255 872.483
198.157 744.966 33.557
198.157 751.678 872.483
198.157 765.101 865.772
198.157 771.812 281.879
198.157 778.523 865.772
198.157 791.946 818.792
198.157 798.658 744.966
198.157 805.369 818.792
198.157 818.792 711.409
198.157 825.503 677.852
198.157 832.215 711.409
202.765 80.5369 422.819
202.765 154.362 422.819
202.765 167.785 449.664
202.765 174.497 456.376
202.765 181.208 456.376
202.765 187.919 456.376
202.765 194.631 456.376
202.765 201.342 456.376
202.765 208.054 463.087
202.765 214.765 463.087
202.765 221.477 610.738
202.765 228.188 624.161
202.765 234.899 624.161
202.765 241.611 630.872
202.765 248.322 751.678
202.765 255.034 751.678
202.765 261.745 744.966
202.765 268.456 637.584
202.765 275.168 637.584
202.765 281.879 738.255
202.765 288.591 771.812
202.765 295.302 771.812
202.765 302.013 771.812
202.765 308.725 812.081
202.765 315.436 610.738
202.765 322.148 805.369
202.765 328.859 704.698
202.765 335.57 704.698
202.765 342.282 704.698
202.765 348.993 637.584
202.765 355.705 637.584
202.765 362.416 644.295
202.765 369.128 718.121
202.765 375.839 328.859
202.765 382.55 778.523
202.765 389.262 879.195
202.765 395.973 221.477
202.765 402.685 879.195
202.765 409.396 872.483
202.765 416.107 234.899
202.765 422.819 872.483
202.765 429.53 838.926
202.765 436.242 583.893
202.765 442.953 832.215
202.765 456.376 671.141
202.765 463.087 463.087
202.765 469.799 657.718
202.765 476.51 597.315
202.765 483.221 597.315
202.765 489.933 583.893
202.765 496.644 583.893
202.765 503.356 583.893
202.765 510.067 583.893
202.765 664.43 771.812
202.765 671.141 744.966
202.765 677.852 852.349
202.765 684.564 778.523
202.765 691.275 442.953
202.765 697.987 879.195
202.765 711.409 865.772
202.765 718.121 255.034
202.765 724.832 872.483
202.765 738.255 879.195
202.765 751.678 872.483
202.765 765.101 865.772
202.765 771.812 0
202.765 778.523 865.772
202.765 791.946 838.926
202.765 798.658 422.819
202.765 805.369 838.926
202.765 818.792 791.946
202.765 825.503 778.523
202.765 832.215 791.946
202.765 845.638 382.55
202.765 852.349 382.55
202.765 859.06 382.55
207.373 187.919 456.376
207.373 194.631 449.664
207.373 201.342 449.664
207.373 208.054 456.376
207.373 214.765 463.087
207.373 221.477 463.087
207.373 228.188 624.161
207.373 234.899 624.161
207.373 241.611 624.161
207.373 248.322 644.295
207.373 255.034 644.295
207.373 261.745 751.678
207.373 268.456 644.295
207.373 275.168 644.295
207.373 281.879 644.295
207.373 288.591 765.101
207.373 295.302 765.101
207.373 302.013 771.812
207.373 308.725 805.369
207.373 315.436 637.584
207.373 322.148 805.369
207.373 328.859 697.987
207.373 335.57 697.987
207.373 342.282 704.698
207.373 348.993 637.584
207.373 355.705 416.107
207.373 362.416 637.584
207.373 369.128 704.698
207.373 375.839 503.356
207.373 382.55 738.255
207.373 389.262 872.483
207.373 395.973 221.477
207.373 402.685 879.195
207.373 409.396 885.906
207.373 416.107 228.188
207.373 422.819 872.483
207.373 429.53 865.772
207.373 436.242 362.416
207.373 442.953 859.06
207.373 456.376 791.946
207.373 463.087 483.221
207.373 469.799 791.946
207.373 476.51 758.389
207.373 483.221 711.409
207.373 489.933 744.966
207.373 496.644 597.315
207.373 503.356 295.302
207.373 510.067 597.315
207.373 516.779 449.664
207.373 523.49 449.664
207.373 530.201 449.664
207.373 543.624 624.161
207.373 550.336 624.161
207.373 557.047 624.161
207.373 563.758 456.376
207.373 570.47 456.376
207.373 577.181 456.376
207.373 637.584 449.664
207.373 644.295 449.664
207.373 651.007 449.664
207.373 664.43 563.758
207.373 671.141 563.758
207.373 677.852 791.946
207.373 684.564 422.819
207.373 691.275 422.819
207.373 697.987 798.658
207.373 711.409 832.215
207.373 718.121 436.242
207.373 724.832 865.772
207.373 738.255 885.906
207.373 744.966 154.362
207.373 751.678 879.195
207.373 765.101 879.195
207.373 771.812 6.71141
207.373 778.523 872.483
207.373 791.946 845.638
207.373 798.658 194.631
207.373 805.369 845.638
207.373 818.792 805.369
207.373 825.503 463.087
207.373 832.215 805.369
207.373 845.638 738.255
207.373 852.349 657.718
207.373 859.06 738.255
207.373 872.483 369.128
207.373 879.195 369.128
207.373 885.906 369.128
211.982 194.631 449.664
211.982 201.342 449.664
211.982 208.054 456.376
211.982 214.765 456.376
211.982 221.477 463.087
211.982 228.188 617.45
211.982 234.899 617.45
211.982 241.611 624.161
211.982 248.322 644.295
211.982 255.034 644.295
211.982 261.745 644.295
211.982 268.456 644.295
211.982 275.168 644.295
211.982 281.879 637.584
211.982 288.591 758.389
211.982 295.302 758.389
211.982 302.013 765.101
211.982 308.725 838.926
211.982 315.436 543.624
211.982 322.148 838.926
211.982 328.859 785.235
211.982 335.57 785.235
211.982 342.282 798.658
211.982 348.993 718.121
211.982 355.705 543.624
211.982 362.416 724.832
211.982 369.128 751.678
211.982 375.839 436.242
211.982 382.55 751.678
211.982 389.262 852.349
211.982 395.973 382.55
211.982 402.685 879.195
211.982 409.396 885.906
211.982 416.107 221.477
211.982 422.819 879.195
211.982 429.53 872.483
211.982 436.242 234.899
211.982 442.953 865.772
211.982 456.376 812.081
211.982 463.087 395.973
211.982 469.799 812.081
211.982 476.51 805.369
211.982 483.221 469.799
211.982 489.933 805.369
211.982 496.644 778.523
211.982 503.356 570.47
211.982 510.067 765.101
211.982 516.779 630.872
211.982 523.49 630.872
211.982 530.201 630.872
211.982 543.624 778.523
211.982 550.336 570.47
211.982 557.047 778.523
211.982 563.758 778.523
211.982 570.47 731.544
211.982 577.181 778.523
211.982 590.604 476.51
211.982 597.315 476.51
211.982 604.027 476.51
211.982 610.738 711.409
211.982 617.45 711.409
211.982 624.161 711.409
211.982 637.584 637.584
211.982 644.295 637.584
211.982 651.007 637.584
211.982 664.43 765.101
211.982 671.141 563.758
211.982 677.852 771.812
211.982 684.564 711.409
211.982 691.275 711.409
211.982 697.987 711.409
211.982 711.409 865.772
211.982 718.121 657.718
211.982 724.832 879.195
211.982 738.255 906.04
211.982 744.966 241.611
211.982 751.678 899.329
211.982 765.101 899.329
211.982 778.523 879.195
211.982 791.946 838.926
211.982 798.658 268.456
211.982 805.369 838.926
211.982 818.792 805.369
211.982 825.503 181.208
211.982 832.215 805.369
211.982 845.638 771.812
211.982 852.349 348.993
211.982 859.06 771.812
211.982 872.483 691.275
211.982 879.195 563.758
211.982 885.906 691.275
216.59 120.805 536.913
216.59 127.517 536.913
216.59 134.228 536.913
216.59 140.94 550.336
216.59 147.651 550.336
216.59 154.362 550.336
216.59 208.054 449.664
216.59 214.765 456.376
216.59 221.477 456.376
216.59 228.188 617.45
216.59 234.899 617.45
216.59 241.611 617.45
216.59 248.322 637.584
216.59 255.034 637.584
216.59 261.745 637.584
216.59 268.456 644.295
216.59 275.168 644.295
216.59 281.879 644.295
216.59 288.591 651.007
216.59 295.302 651.007
216.59 302.013 758.389
216.59 308.725 785.235
216.59 315.436 785.235
216.59 322.148 838.926
216.59 328.859 778.523
216.59 335.57 778.523
216.59 342.282 778.523
216.59 348.993 798.658
216.59 355.705 651.007
216.59 362.416 798.658
216.59 369.128 758.389
216.59 375.839 442.953
216.59 382.55 758.389
216.59 389.262 798.658
216.59 395.973 409.396
216.59 402.685 852.349
216.59 409.396 879.195
216.59 416.107 221.477
216.59 422.819 885.906
216.59 429.53 879.195
216.59 436.242 214.765
216.59 442.953 872.483
216.59 456.376 852.349
216.59 463.087 489.933
216.59 469.799 852.349
216.59 476.51 812.081
216.59 483.221 395.973
216.59 489.933 812.081
216.59 496.644 771.812
216.59 503.356 369.128
216.59 510.067 778.523
216.59 516.779 630.872
216.59 523.49 630.872
216.59 530.201 630.872
216.59 543.624 778.523
216.59 550.336 362.416
216.59 557.047 778.523
216.59 563.758 805.369
216.59 570.47 463.087
216.59 577.181 805.369
216.59 590.604 637.584
216.59 597.315 637.584
216.59 604.027 637.584
216.59 610.738 711.409
216.59 617.45 194.631
216.59 624.161 711.409
216.59 637.584 845.638
216.59 644.295 550.336
216.59 651.007 845.638
216.59 664.43 818.792
216.59 671.141 644.295
216.59 677.852 832.215
216.59 684.564 718.121
216.59 691.275 463.087
216.59 697.987 711.409
216.59 711.409 879.195
216.59 718.121 510.067
216.59 724.832 892.617
216.59 738.255 906.04
216.59 744.966 127.517
216.59 751.678 906.04
216.59 765.101 912.752
216.59 778.523 899.329
216.59 791.946 852.349
216.59 798.658 93.9597
216.59 805.369 852.349
216.59 818.792 812.081
216.59 825.503 342.282
216.59 832.215 812.081
216.59 845.638 778.523
216.59 852.349 208.054
216.59 859.06 771.812
216.59 872.483 704.698
216.59 879.195 308.725
216.59 885.906 704.698
221.198 120.805 536.913
221.198 127.517 536.913
221.198 134.228 536.913
221.198 140.94 550.336
221.198 147.651 550.336
221.198 154.362 550.336
221.198 208.054 456.376
221.198 214.765 456.376
221.198 221.477 456.376
221.198 228.188 463.087
221.198 234.899 463.087
221.198 241.611 617.45
221.198 248.322 624.161
221.198 255.034 624.161
221.198 261.745 630.872
221.198 268.456 637.584
221.198 275.168 637.584
221.198 281.879 644.295
221.198 288.591 651.007
221.198 295.302 651.007
221.198 302.013 651.007
221.198 308.725 778.523
221.198 315.436 778.523
221.198 322.148 785.235
221.198 328.859 771.812
221.198 335.57 771.812
221.198 342.282 778.523
221.198 348.993 791.946
221.198 355.705 791.946
221.198 362.416 798.658
221.198 369.128 812.081
221.198 375.839 664.43
221.198 382.55 818.792
221.198 389.262 805.369
221.198 395.973 395.973
221.198 402.685 798.658
221.198 409.396 778.523
221.198 416.107 483.221
221.198 422.819 879.195
221.198 429.53 885.906
221.198 436.242 194.631
221.198 442.953 885.906
221.198 456.376 872.483
221.198 463.087 221.477
221.198 469.799 859.06
221.198 476.51 852.349
221.198 483.221 348.993
221.198 489.933 852.349
221.198 496.644 805.369
221.198 503.356 315.436
221.198 510.067 812.081
221.198 516.779 805.369
221.198 523.49 805.369
221.198 530.201 805.369
221.198 543.624 778.523
221.198 550.336 362.416
221.198 557.047 778.523
221.198 563.758 845.638
221.198 570.47 550.336
221.198 577.181 838.926
221.198 590.604 731.544
221.198 597.315 469.799
221.198 604.027 724.832
221.198 610.738 771.812
221.198 617.45 563.758
221.198 624.161 771.812
221.198 637.584 845.638
221.198 644.295 248.322
221.198 651.007 845.638
221.198 664.43 785.235
221.198 671.141 577.181
221.198 677.852 818.792
221.198 684.564 812.081
221.198 691.275 637.584
221.198 697.987 812.081
221.198 711.409 859.06
221.198 718.121 181.208
221.198 724.832 879.195
221.198 738.255 919.463
221.198 744.966 161.074
221.198 751.678 912.752
221.198 765.101 926.174
221.198 778.523 912.752
221.198 791.946 865.772
221.198 798.658 0
221.198 805.369 852.349
221.198 818.792 812.081
221.198 825.503 134.228
221.198 832.215 812.081
221.198 845.638 778.523
221.198 852.349 214.765
221.198 859.06 778.523
221.198 872.483 684.564
221.198 879.195 308.725
221.198 885.906 711.409
225.806 134.228 536.913
225.806 140.94 550.336
225.806 147.651 550.336
225.806 154.362 550.336
225.806 161.074 550.336
225.806 167.785 550.336
225.806 221.477 456.376
225.806 228.188 456.376
225.806 234.899 456.376
225.806 241.611 463.087
225.806 248.322 617.45
225.806 255.034 617.45
225.806 261.745 624.161
225.806 268.456 637.584
225.806 275.168 637.584
225.806 281.879 637.584
225.806 288.591 657.718
225.806 295.302 657.718
225.806 302.013 651.007
225.806 308.725 778.523
225.806 315.436 778.523
225.806 322.148 778.523
225.806 328.859 637.584
225.806 335.57 637.584
225.806 342.282 771.812
225.806 348.993 724.832
225.806 355.705 724.832
225.806 362.416 791.946
225.806 369.128 812.081
225.806 375.839 812.081
225.806 382.55 812.081
225.806 389.262 744.966
225.806 395.973 543.624
225.806 402.685 805.369
225.806 409.396 785.235
225.806 416.107 469.799
225.806 422.819 791.946
225.806 429.53 879.195
225.806 436.242 328.859
225.806 442.953 885.906
225.806 456.376 879.195
225.806 463.087 234.899
225.806 469.799 865.772
225.806 476.51 859.06
225.806 483.221 248.322
225.806 489.933 852.349
225.806 496.644 812.081
225.806 503.356 476.51
225.806 510.067 798.658
225.806 516.779 832.215
225.806 523.49 295.302
225.806 530.201 832.215
225.806 543.624 818.792
225.806 550.336 476.51
225.806 557.047 845.638
225.806 563.758 859.06
225.806 570.47 342.282
225.806 577.181 859.06
225.806 590.604 751.678
225.806 597.315 751.678
225.806 604.027 791.946
225.806 610.738 771.812
225.806 617.45 355.705
225.806 624.161 771.812
225.806 637.584 845.638
225.806 644.295 248.322
225.806 651.007 845.638
225.806 664.43 872.483
225.806 671.141 597.315
225.806 677.852 872.483
225.806 684.564 859.06
225.806 691.275 469.799
225.806 697.987 859.06
225.806 711.409 859.06
225.806 718.121 181.208
225.806 724.832 859.06
225.806 738.255 919.463
225.806 744.966 67.1141
225.806 751.678 919.463
225.806 765.101 939.597
225.806 778.523 926.174
225.806 791.946 885.906
225.806 798.658 0
225.806 805.369 865.772
225.806 818.792 812.081
225.806 825.503 93.9597
225.806 832.215 812.081
225.806 845.638 771.812
225.806 852.349 228.188
225.806 859.06 778.523
225.806 872.483 691.275
225.806 879.195 429.53
225.806 885.906 718.121
230.415 140.94 557.047
230.415 147.651 557.047
230.415 154.362 550.336
230.415 161.074 550.336
230.415 167.785 550.336
230.415 174.497 536.913
230.415 181.208 536.913
230.415 187.919 536.913
230.415 194.631 530.201
230.415 201.342 530.201
230.415 208.054 530.201
230.415 228.188 456.376
230.415 234.899 456.376
230.415 241.611 456.376
230.415 248.322 516.779
230.415 255.034 516.779
230.415 261.745 617.45
230.415 268.456 637.584
230.415 275.168 637.584
230.415 281.879 637.584
230.415 288.591 651.007
230.415 295.302 651.007
230.415 302.013 651.007
230.415 308.725 684.564
230.415 315.436 684.564
230.415 322.148 778.523
230.415 328.859 644.295
230.415 335.57 644.295
230.415 342.282 637.584
230.415 348.993 651.007
230.415 355.705 651.007
230.415 362.416 724.832
230.415 369.128 812.081
230.415 375.839 664.43
230.415 382.55 812.081
230.415 389.262 771.812
230.415 395.973 604.027
230.415 402.685 765.101
230.415 409.396 818.792
230.415 416.107 543.624
230.415 422.819 818.792
230.415 429.53 879.195
230.415 436.242 355.705
230.415 442.953 885.906
230.415 456.376 879.195
230.415 463.087 248.322
230.415 469.799 879.195
230.415 476.51 859.06
230.415 483.221 208.054
230.415 489.933 859.06
230.415 496.644 818.792
230.415 503.356 791.946
230.415 510.067 845.638
230.415 516.779 832.215
230.415 523.49 295.302
230.415 530.201 832.215
230.415 543.624 859.06
230.415 550.336 469.799
230.415 557.047 859.06
230.415 563.758 872.483
230.415 570.47 302.013
230.415 577.181 872.483
230.415 590.604 825.503
230.415 597.315 469.799
230.415 604.027 825.503
230.415 610.738 778.523
230.415 617.45 570.47
230.415 624.161 805.369
230.415 637.584 859.06
230.415 644.295 214.765
230.415 651.007 859.06
230.415 664.43 885.906
230.415 671.141 302.013
230.415 677.852 885.906
230.415 684.564 859.06
230.415 691.275 208.054
230.415 697.987 859.06
230.415 711.409 852.349
230.415 718.121 181.208
230.415 724.832 859.06
230.415 738.255 926.174
230.415 744.966 100.671
230.415 751.678 919.463
230.415 765.101 946.309
230.415 778.523 939.597
230.415 791.946 885.906
230.415 798.658 20.1342
230.415 805.369 879.195
230.415 818.792 798.658
230.415 825.503 161.074
230.415 832.215 812.081
230.415 845.638 771.812
230.415 852.349 93.9597
230.415 859.06 771.812
230.415 872.483 731.544
230.415 879.195 422.819
230.415 885.906 731.544
230.415 899.329 570.47
230.415 906.04 570.47
230.415 912.752 570.47
235.023 140.94 557.047
235.023 147.651 557.047
235.023 154.362 557.047
235.023 161.074 550.336
235.023 167.785 550.336
235.023 174.497 550.336
235.023 181.208 550.336
235.023 187.919 550.336
235.023 194.631 536.913
235.023 201.342 536.913
235.023 208.054 530.201
235.023 214.765 530.201
235.023 221.477 530.201
235.023 241.611 456.376
235.023 248.322 516.779
235.023 255.034 516.779
235.023 261.745 516.779
235.023 268.456 637.584
235.023 275.168 637.584
235.023 281.879 637.584
235.023 288.591 651.007
235.023 295.302 651.007
235.023 302.013 651.007
235.023 308.725 691.275
235.023 315.436 691.275
235.023 322.148 684.564
235.023 328.859 644.295
235.023 335.57 644.295
235.023 342.282 644.295
235.023 348.993 651.007
235.023 355.705 651.007
235.023 362.416 651.007
235.023 369.128 798.658
235.023 375.839 798.658
235.023 382.55 812.081
235.023 389.262 805.369
235.023 395.973 651.007
235.023 402.685 818.792
235.023 409.396 812.081
235.023 416.107 402.685
235.023 422.819 818.792
235.023 429.53 859.06
235.023 436.242 583.893
235.023 442.953 885.906
235.023 456.376 872.483
235.023 463.087 422.819
235.023 469.799 879.195
235.023 476.51 859.06
235.023 483.221 248.322
235.023 489.933 859.06
235.023 496.644 812.081
235.023 503.356 295.302
235.023 510.067 818.792
235.023 516.779 832.215
235.023 523.49 241.611
235.023 530.201 832.215
235.023 543.624 872.483
235.023 550.336 302.013
235.023 557.047 872.483
235.023 563.758 872.483
235.023 570.47 342.282
235.023 577.181 872.483
235.023 590.604 825.503
235.023 597.315 469.799
235.023 604.027 825.503
235.023 610.738 859.06
235.023 617.45 469.799
235.023 624.161 859.06
235.023 637.584 865.772
235.023 644.295 402.685
235.023 651.007 865.772
235.023 664.43 899.329
235.023 671.141 302.013
235.023 677.852 899.329
235.023 684.564 859.06
235.023 691.275 342.282
235.023 697.987 859.06
235.023 711.409 865.772
235.023 718.121 335.57
235.023 724.832 872.483
235.023 738.255 926.174
235.023 744.966 13.4228
235.023 751.678 926.174
235.023 765.101 946.309
235.023 771.812 0
235.023 778.523 939.597
235.023 791.946 865.772
235.023 798.658 0
235.023 805.369 879.195
235.023 818.792 785.235
235.023 825.503 93.9597
235.023 832.215 798.658
235.023 845.638 765.101
235.023 852.349 33.557
235.023 859.06 771.812
235.023 872.483 738.255
235.023 879.195 228.188
235.023 885.906 738.255
235.023 899.329 657.718
235.023 906.04 536.913
235.023 912.752 657.718
235.023 926.174 348.993
235.023 932.886 348.993
235.023 939.597 348.993
239.631 140.94 563.758
239.631 147.651 563.758
239.631 154.362 557.047
239.631 161.074 550.336
239.631 167.785 550.336
239.631 174.497 557.047
239.631 181.208 557.047
239.631 187.919 543.624
239.631 194.631 550.336
239.631 201.342 550.336
239.631 208.054 536.913
239.631 214.765 530.201
239.631 221.477 530.201
239.631 228.188 530.201
239.631 234.899 530.201
239.631 241.611 530.201
239.631 248.322 281.879
239.631 255.034 281.879
239.631 261.745 516.779
239.631 268.456 536.913
239.631 275.168 536.913
239.631 281.879 630.872
239.631 288.591 651.007
239.631 295.302 651.007
239.631 302.013 651.007
239.631 308.725 691.275
239.631 315.436 691.275
239.631 322.148 691.275
239.631 328.859 590.604
239.631 335.57 590.604
239.631 342.282 731.544
239.631 348.993 651.007
239.631 355.705 651.007
239.631 362.416 651.007
239.631 369.128 738.255
239.631 375.839 738.255
239.631 382.55 798.658
239.631 389.262 812.081
239.631 395.973 651.007
239.631 402.685 805.369
239.631 409.396 832.215
239.631 416.107 563.758
239.631 422.819 852.349
239.631 429.53 825.503
239.631 436.242 550.336
239.631 442.953 865.772
239.631 456.376 885.906
239.631 463.087 308.725
239.631 469.799 879.195
239.631 476.51 872.483
239.631 483.221 221.477
239.631 489.933 872.483
239.631 496.644 859.06
239.631 503.356 395.973
239.631 510.067 865.772
239.631 516.779 845.638
239.631 523.49 214.765
239.631 530.201 845.638
239.631 543.624 872.483
239.631 550.336 187.919
239.631 557.047 872.483
239.631 563.758 872.483
239.631 570.47 288.591
239.631 577.181 879.195
239.631 590.604 865.772
239.631 597.315 644.295
239.631 604.027 879.195
239.631 610.738 865.772
239.631 617.45 395.973
239.631 624.161 865.772
239.631 637.584 852.349
239.631 644.295 248.322
239.631 651.007 865.772
239.631 664.43 906.04
239.631 671.141 335.57
239.631 677.852 912.752
239.631 684.564 859.06
239.631 691.275 348.993
239.631 697.987 879.195
239.631 711.409 865.772
239.631 718.121 161.074
239.631 724.832 872.483
239.631 738.255 926.174
239.631 744.966 53.6913
239.631 751.678 926.174
239.631 765.101 946.309
239.631 778.523 946.309
239.631 791.946 832.215
239.631 798.658 13.4228
239.631 805.369 865.772
239.631 818.792 778.523
239.631 825.503 6.71141
239.631 832.215 778.523
239.631 845.638 765.101
239.631 852.349 6.71141
239.631 859.06 765.101
239.631 872.483 738.255
239.631 879.195 93.9597
239.631 885.906 738.255
239.631 899.329 684.564
239.631 906.04 348.993
239.631 912.752 684.564
239.631 926.174 489.933
239.631 932.886 489.933
239.631 939.597 489.933
244.24 154.362 563.758
244.24 167.785 550.336
244.24 174.497 563.758
244.24 181.208 563.758
244.24 187.919 557.047
244.24 194.631 557.047
244.24 201.342 557.047
244.24 208.054 543.624
244.24 214.765 536.913
244.24 221.477 530.201
244.24 228.188 570.47
244.24 234.899 570.47
244.24 241.611 570.47
244.24 248.322 288.591
244.24 255.034 288.591
244.24 261.745 288.591
244.24 268.456 302.013
244.24 275.168 302.013
244.24 281.879 536.913
244.24 288.591 644.295
244.24 295.302 644.295
244.24 302.013 651.007
244.24 308.725 691.275
244.24 315.436 691.275
244.24 322.148 691.275
244.24 328.859 590.604
244.24 335.57 590.604
244.24 342.282 590.604
244.24 348.993 677.852
244.24 355.705 677.852
244.24 362.416 778.523
244.24 369.128 738.255
244.24 375.839 738.255
244.24 382.55 738.255
244.24 389.262 818.792
244.24 395.973 657.718
244.24 402.685 812.081
244.24 409.396 838.926
244.24 416.107 697.987
244.24 422.819 832.215
244.24 429.53 805.369
244.24 436.242 489.933
244.24 442.953 818.792
244.24 456.376 899.329
244.24 463.087 315.436
244.24 469.799 899.329
244.24 476.51 892.617
244.24 483.221 476.51
244.24 489.933 892.617
244.24 496.644 859.06
244.24 503.356 295.302
244.24 510.067 859.06
244.24 516.779 872.483
244.24 523.49 369.128
244.24 530.201 872.483
244.24 543.624 872.483
244.24 550.336 187.919
244.24 557.047 872.483
244.24 563.758 872.483
244.24 570.47 181.208
244.24 577.181 872.483
244.24 590.604 879.195
244.24 597.315 261.745
244.24 604.027 879.195
244.24 610.738 885.906
244.24 617.45 362.416
244.24 624.161 892.617
244.24 637.584 879.195
244.24 644.295 342.282
244.24 651.007 879.195
244.24 664.43 912.752
244.24 671.141 275.168
244.24 677.852 912.752
244.24 684.564 845.638
244.24 691.275 348.993
244.24 697.987 872.483
244.24 711.409 872.483
244.24 718.121 402.685
244.24 724.832 879.195
244.24 738.255 932.886
244.24 744.966 6.71141
244.24 751.678 926.174
244.24 765.101 939.597
244.24 778.523 939.597
244.24 791.946 818.792
244.24 798.658 0
244.24 805.369 832.215
244.24 818.792 771.812
244.24 825.503 13.4228
244.24 832.215 771.812
244.24 845.638 758.389
244.24 852.349 20.1342
244.24 859.06 765.101
244.24 872.483 731.544
244.24 879.195 100.671
244.24 885.906 738.255
244.24 899.329 684.564
244.24 906.04 268.456
244.24 912.752 684.564
244.24 926.174 557.047
244.24 932.886 557.047
244.24 939.597 597.315
244.24 959.732 348.993
244.24 966.443 348.993
244.24 973.154 348.993
248.848 187.919 563.758
248.848 194.631 563.758
248.848 201.342 563.758
248.848 208.054 557.047
248.848 214.765 543.624
248.848 221.477 536.913
248.848 228.188 570.47
248.848 234.899 570.47
248.848 241.611 570.47
248.848 248.322 295.302
248.848 255.034 295.302
248.848 261.745 288.591
248.848 268.456 302.013
248.848 275.168 302.013
248.848 281.879 302.013
248.848 288.591 644.295
248.848 295.302 644.295
248.848 302.013 644.295
248.848 308.725 691.275
248.848 315.436 691.275
248.848 322.148 691.275
248.848 328.859 697.987
248.848 335.57 697.987
248.848 342.282 697.987
248.848 348.993 677.852
248.848 355.705 677.852
248.848 362.416 677.852
248.848 369.128 751.678
248.848 375.839 751.678
248.848 382.55 791.946
248.848 389.262 825.503
248.848 395.973 684.564
248.848 402.685 832.215
248.848 409.396 845.638
248.848 416.107 677.852
248.848 422.819 838.926
248.848 429.53 798.658
248.848 436.242 637.584
248.848 442.953 845.638
248.848 456.376 912.752
248.848 463.087 395.973
248.848 469.799 912.752
248.848 476.51 912.752
248.848 483.221 275.168
248.848 489.933 906.04
248.848 496.644 865.772
248.848 503.356 530.201
248.848 510.067 872.483
248.848 516.779 859.06
248.848 523.49 181.208
248.848 530.201 872.483
248.848 543.624 885.906
248.848 550.336 328.859
248.848 557.047 892.617
248.848 563.758 879.195
248.848 570.47 161.074
248.848 577.181 879.195
248.848 590.604 879.195
248.848 597.315 161.074
248.848 604.027 879.195
248.848 610.738 892.617
248.848 617.45 328.859
248.848 624.161 892.617
248.848 637.584 899.329
248.848 644.295 389.262
248.848 651.007 899.329
248.848 664.43 899.329
248.848 671.141 248.322
248.848 677.852 912.752
248.848 684.564 859.06
248.848 691.275 302.013
248.848 697.987 859.06
248.848 711.409 885.906
248.848 718.121 335.57
248.848 724.832 885.906
248.848 738.255 939.597
248.848 751.678 932.886
248.848 765.101 932.886
248.848 778.523 939.597
248.848 791.946 785.235
248.848 798.658 33.557
248.848 805.369 818.792
248.848 818.792 765.101
248.848 825.503 6.71141
248.848 832.215 765.101
248.848 845.638 751.678
248.848 852.349 26.8456
248.848 859.06 758.389
248.848 872.483 731.544
248.848 879.195 60.4027
248.848 885.906 738.255
248.848 899.329 671.141
248.848 906.04 302.013
248.848 912.752 684.564
248.848 926.174 557.047
248.848 932.886 348.993
248.848 939.597 557.047
248.848 959.732 483.221
248.848 966.443 483.221
248.848 973.154 483.221
253.456 194.631 563.758
253.456 201.342 563.758
253.456 208.054 557.047
253.456 214.765 557.047
253.456 221.477 543.624
253.456 228.188 664.43
253.456 234.899 664.43
253.456 241.611 657.718
253.456 248.322 671.141
253.456 255.034 671.141
253.456 261.745 664.43
253.456 268.456 442.953
253.456 275.168 442.953
253.456 281.879 516.779
253.456 288.591 536.913
253.456 295.302 536.913
253.456 302.013 704.698
253.456 308.725 738.255
253.456 315.436 550.336
253.456 322.148 744.966
253.456 328.859 691.275
253.456 335.57 691.275
253.456 342.282 697.987
253.456 348.993 697.987
253.456 355.705 697.987
253.456 362.416 684.564
253.456 369.128 744.966
253.456 375.839 744.966
253.456 382.55 751.678
253.456 389.262 852.349
253.456 395.973 577.181
253.456 402.685 852.349
253.456 409.396 791.946
253.456 416.107 791.946
253.456 422.819 845.638
253.456 429.53 825.503
253.456 436.242 691.275
253.456 442.953 825.503
253.456 456.376 879.195
253.456 463.087 496.644
253.456 469.799 912.752
253.456 476.51 912.752
253.456 483.221 281.879
253.456 489.933 912.752
253.456 496.644 865.772
253.456 503.356 342.282
253.456 510.067 865.772
253.456 516.779 885.906
253.456 523.49 469.799
253.456 530.201 885.906
253.456 543.624 879.195
253.456 550.336 261.745
253.456 557.047 885.906
253.456 563.758 885.906
253.456 570.47 234.899
253.456 577.181 885.906
253.456 590.604 892.617
253.456 597.315 476.51
253.456 604.027 899.329
253.456 610.738 892.617
253.456 617.45 234.899
253.456 624.161 892.617
253.456 637.584 912.752
253.456 644.295 194.631
253.456 651.007 906.04
253.456 664.43 899.329
253.456 671.141 201.342
253.456 677.852 906.04
253.456 684.564 885.906
253.456 691.275 355.705
253.456 697.987 885.906
253.456 711.409 892.617
253.456 718.121 335.57
253.456 724.832 892.617
253.456 738.255 939.597
253.456 751.678 939.597
253.456 765.101 926.174
253.456 778.523 932.886
253.456 791.946 778.523
253.456 798.658 6.71141
253.456 805.369 785.235
253.456 818.792 758.389
253.456 825.503 6.71141
253.456 832.215 765.101
253.456 845.638 744.966
253.456 852.349 6.71141
253.456 859.06 751.678
253.456 872.483 724.832
253.456 879.195 26.8456
253.456 885.906 731.544
253.456 899.329 677.852
253.456 906.04 348.993
253.456 912.752 684.564
253.456 926.174 550.336
253.456 932.886 550.336
253.456 939.597 597.315
253.456 959.732 483.221
253.456 966.443 483.221
253.456 973.154 483.221
258.065 194.631 563.758
258.065 201.342 563.758
258.065 208.054 671.141
258.065 214.765 671.141
258.065 221.477 664.43
258.065 228.188 677.852
258.065 234.899 677.852
258.065 241.611 664.43
258.065 248.322 671.141
258.065 255.034 671.141
258.065 261.745 671.141
258.065 268.456 671.141
258.065 275.168 671.141
258.065 281.879 671.141
258.065 288.591 536.913
258.065 295.302 536.913
258.065 302.013 536.913
258.065 308.725 738.255
258.065 315.436 570.47
258.065 322.148 744.966
258.065 328.859 691.275
258.065 335.57 691.275
258.065 342.282 691.275
258.065 348.993 697.987
258.065 355.705 697.987
258.065 362.416 697.987
258.065 369.128 711.409
258.065 375.839 711.409
258.065 382.55 798.658
258.065 389.262 872.483
258.065 395.973 630.872
258.065 402.685 865.772
258.065 409.396 798.658
258.065 416.107 798.658
258.065 422.819 791.946
258.065 429.53 818.792
258.065 436.242 818.792
258.065 442.953 825.503
258.065 456.376 879.195
258.065 463.087 496.644
258.065 469.799 879.195
258.065 476.51 912.752
258.065 483.221 322.148
258.065 489.933 912.752
258.065 496.644 885.906
258.065 503.356 375.839
258.065 510.067 879.195
258.065 516.779 899.329
258.065 523.49 429.53
258.065 530.201 899.329
258.065 543.624 906.04
258.065 550.336 308.725
258.065 557.047 906.04
258.065 563.758 879.195
258.065 570.47 268.456
258.065 577.181 885.906
258.065 590.604 892.617
258.065 597.315 161.074
258.065 604.027 892.617
258.065 610.738 899.329
258.065 617.45 335.57
258.065 624.161 906.04
258.065 637.584 899.329
258.065 644.295 241.611
258.065 651.007 912.752
258.065 664.43 906.04
258.065 671.141 369.128
258.065 677.852 906.04
258.065 684.564 885.906
258.065 691.275 348.993
258.065 697.987 885.906
258.065 711.409 906.04
258.065 718.121 201.342
258.065 724.832 899.329
258.065 738.255 946.309
258.065 751.678 939.597
258.065 765.101 912.752
258.065 778.523 926.174
258.065 791.946 812.081
258.065 798.658 120.805
258.065 805.369 812.081
258.065 818.792 751.678
258.065 825.503 0
258.065 832.215 758.389
258.065 845.638 738.255
258.065 852.349 67.1141
258.065 859.06 744.966
258.065 872.483 718.121
258.065 879.195 33.557
258.065 885.906 724.832
258.065 899.329 664.43
258.065 906.04 295.302
258.065 912.752 677.852
258.065 926.174 590.604
258.065 932.886 348.993
258.065 939.597 590.604
258.065 973.154 483.221
262.673 174.497 402.685
262.673 181.208 402.685
262.673 187.919 402.685
262.673 194.631 671.141
262.673 201.342 671.141
262.673 208.054 671.141
262.673 214.765 671.141
262.673 221.477 671.141
262.673 228.188 684.564
262.673 234.899 684.564
262.673 241.611 677.852
262.673 248.322 684.564
262.673 255.034 684.564
262.673 261.745 677.852
262.673 268.456 677.852
262.673 275.168 677.852
262.673 281.879 677.852
262.673 288.591 677.852
262.673 295.302 677.852
262.673 302.013 684.564
262.673 308.725 684.564
262.673 315.436 523.49
262.673 322.148 738.255
262.673 328.859 677.852
262.673 335.57 677.852
262.673 342.282 691.275
262.673 348.993 691.275
262.673 355.705 691.275
262.673 362.416 691.275
262.673 369.128 785.235
262.673 375.839 785.235
262.673 382.55 785.235
262.673 389.262 859.06
262.673 395.973 583.893
262.673 402.685 872.483
262.673 409.396 838.926
262.673 416.107 671.141
262.673 422.819 832.215
262.673 429.53 798.658
262.673 436.242 798.658
262.673 442.953 818.792
262.673 456.376 879.195
262.673 463.087 738.255
262.673 469.799 879.195
262.673 476.51 912.752
262.673 483.221 322.148
262.673 489.933 912.752
262.673 496.644 906.04
262.673 503.356 489.933
262.673 510.067 906.04
262.673 516.779 892.617
262.673 523.49 422.819
262.673 530.201 892.617
262.673 543.624 912.752
262.673 550.336 302.013
262.673 557.047 912.752
262.673 563.758 892.617
262.673 570.47 275.168
262.673 577.181 906.04
262.673 590.604 865.772
262.673 597.315 181.208
262.673 604.027 899.329
262.673 610.738 892.617
262.673 617.45 234.899
262.673 624.161 899.329
262.673 637.584 899.329
262.673 644.295 295.302
262.673 651.007 899.329
262.673 664.43 906.04
262.673 671.141 234.899
262.673 677.852 906.04
262.673 684.564 885.906
262.673 691.275 369.128
262.673 697.987 892.617
262.673 711.409 919.463
262.673 718.121 93.9597
262.673 724.832 912.752
262.673 738.255 953.02
262.673 751.678 946.309
262.673 765.101 906.04
262.673 771.812 0
262.673 778.523 912.752
262.673 791.946 825.503
262.673 798.658 40.2685
262.673 805.369 812.081
262.673 818.792 751.678
262.673 825.503 6.71141
262.673 832.215 751.678
262.673 845.638 731.544
262.673 852.349 60.4027
262.673 859.06 738.255
262.673 872.483 718.121
262.673 879.195 26.8456
262.673 885.906 718.121
262.673 899.329 597.315
262.673 906.04 208.054
262.673 912.752 664.43
262.673 926.174 476.51
262.673 932.886 208.054
262.673 939.597 590.604
267.281 140.94 395.973
267.281 147.651 395.973
267.281 154.362 395.973
267.281 161.074 402.685
267.281 167.785 402.685
267.281 174.497 402.685
267.281 181.208 402.685
267.281 187.919 402.685
267.281 194.631 409.396
267.281 201.342 409.396
267.281 208.054 671.141
267.281 214.765 677.852
267.281 221.477 671.141
267.281 228.188 684.564
267.281 234.899 684.564
267.281 241.611 677.852
267.281 248.322 691.275
267.281 255.034 691.275
267.281 261.745 684.564
267.281 268.456 684.564
267.281 275.168 684.564
267.281 281.879 677.852
267.281 288.591 677.852
267.281 295.302 677.852
267.281 302.013 677.852
267.281 308.725 724.832
267.281 315.436 557.047
267.281 322.148 758.389
267.281 328.859 704.698
267.281 335.57 704.698
267.281 342.282 765.101
267.281 348.993 798.658
267.281 355.705 624.161
267.281 362.416 812.081
267.281 369.128 785.235
267.281 375.839 785.235
267.281 382.55 785.235
267.281 389.262 758.389
267.281 395.973 557.047
267.281 402.685 859.06
267.281 409.396 838.926
267.281 416.107 691.275
267.281 422.819 852.349
267.281 429.53 812.081
267.281 436.242 812.081
267.281 442.953 832.215
267.281 456.376 885.906
267.281 463.087 724.832
267.281 469.799 879.195
267.281 476.51 899.329
267.281 483.221 557.047
267.281 489.933 919.463
267.281 496.644 912.752
267.281 503.356 375.839
267.281 510.067 906.04
267.281 516.779 906.04
267.281 523.49 442.953
267.281 530.201 919.463
267.281 543.624 872.483
267.281 550.336 348.993
267.281 557.047 912.752
267.281 563.758 906.04
267.281 570.47 261.745
267.281 577.181 906.04
267.281 590.604 885.906
267.281 597.315 234.899
267.281 604.027 885.906
267.281 610.738 892.617
267.281 617.45 214.765
267.281 624.161 892.617
267.281 637.584 906.04
267.281 644.295 214.765
267.281 651.007 899.329
267.281 664.43 919.463
267.281 671.141 328.859
267.281 677.852 926.174
267.281 684.564 899.329
267.281 691.275 402.685
267.281 697.987 892.617
267.281 711.409 932.886
267.281 718.121 60.4027
267.281 724.832 926.174
267.281 738.255 953.02
267.281 751.678 946.309
267.281 765.101 892.617
267.281 771.812 0
267.281 778.523 906.04
267.281 791.946 825.503
267.281 798.658 80.5369
267.281 805.369 818.792
267.281 818.792 778.523
267.281 825.503 140.94
267.281 832.215 778.523
267.281 845.638 731.544
267.281 852.349 60.4027
267.281 859.06 731.544
267.281 872.483 704.698
267.281 879.195 40.2685
267.281 885.906 718.121
267.281 899.329 483.221
267.281 906.04 208.054
267.281 912.752 590.604
267.281 926.174 476.51
267.281 932.886 208.054
267.281 939.597 476.51
271.889 140.94 395.973
271.889 147.651 395.973
271.889 154.362 402.685
271.889 161.074 402.685
271.889 167.785 402.685
271.889 174.497 409.396
271.889 181.208 409.396
271.889 187.919 402.685
271.889 194.631 409.396
271.889 201.342 409.396
271.889 208.054 671.141
271.889 214.765 677.852
271.889 221.477 671.141
271.889 228.188 436.242
271.889 234.899 436.242
271.889 241.611 684.564
271.889 248.322 691.275
271.889 255.034 691.275
271.889 261.745 684.564
271.889 268.456 691.275
271.889 275.168 691.275
271.889 281.879 684.564
271.889 288.591 704.698
271.889 295.302 704.698
271.889 302.013 697.987
271.889 308.725 724.832
271.889 315.436 557.047
271.889 322.148 724.832
271.889 328.859 724.832
271.889 335.57 724.832
271.889 342.282 765.101
271.889 348.993 765.101
271.889 355.705 765.101
271.889 362.416 805.369
271.889 369.128 778.523
271.889 375.839 778.523
271.889 382.55 785.235
271.889 389.262 771.812
271.889 395.973 563.758
271.889 402.685 758.389
271.889 409.396 805.369
271.889 416.107 805.369
271.889 422.819 838.926
271.889 429.53 852.349
271.889 436.242 852.349
271.889 442.953 845.638
271.889 456.376 879.195
271.889 463.087 630.872
271.889 469.799 899.329
271.889 476.51 879.195
271.889 483.221 711.409
271.889 489.933 899.329
271.889 496.644 912.752
271.889 503.356 550.336
271.889 510.067 912.752
271.889 516.779 879.195
271.889 523.49 496.644
271.889 530.201 906.04
271.889 543.624 879.195
271.889 550.336 469.799
271.889 557.047 879.195
271.889 563.758 899.329
271.889 570.47 328.859
271.889 577.181 906.04
271.889 590.604 899.329
271.889 597.315 335.57
271.889 604.027 899.329
271.889 610.738 899.329
271.889 617.45 268.456
271.889 624.161 899.329
271.889 637.584 919.463
271.889 644.295 275.168
271.889 651.007 919.463
271.889 664.43 919.463
271.889 671.141 221.477
271.889 677.852 919.463
271.889 684.564 906.04
271.889 691.275 369.128
271.889 697.987 906.04
271.889 711.409 932.886
271.889 718.121 6.71141
271.889 724.832 932.886
271.889 738.255 959.732
271.889 744.966 6.71141
271.889 751.678 953.02
271.889 765.101 885.906
271.889 778.523 892.617
271.889 791.946 825.503
271.889 798.658 13.4228
271.889 805.369 818.792
271.889 818.792 798.658
271.889 825.503 107.383
271.889 832.215 798.658
271.889 845.638 724.832
271.889 852.349 60.4027
271.889 859.06 731.544
271.889 872.483 697.987
271.889 879.195 80.5369
271.889 885.906 704.698
271.889 899.329 483.221
271.889 906.04 342.282
271.889 912.752 483.221
271.889 926.174 335.57
271.889 932.886 335.57
271.889 939.597 476.51
276.498 120.805 382.55
276.498 127.517 382.55
276.498 134.228 382.55
276.498 140.94 395.973
276.498 147.651 395.973
276.498 154.362 395.973
276.498 161.074 409.396
276.498 167.785 402.685
276.498 174.497 409.396
276.498 181.208 409.396
276.498 187.919 409.396
276.498 194.631 416.107
276.498 201.342 416.107
276.498 208.054 416.107
276.498 214.765 422.819
276.498 221.477 677.852
276.498 228.188 436.242
276.498 234.899 436.242
276.498 241.611 436.242
276.498 248.322 436.242
276.498 255.034 436.242
276.498 261.745 691.275
276.498 268.456 697.987
276.498 275.168 697.987
276.498 281.879 691.275
276.498 288.591 704.698
276.498 295.302 704.698
276.498 302.013 697.987
276.498 308.725 731.544
276.498 315.436 563.758
276.498 322.148 724.832
276.498 328.859 731.544
276.498 335.57 563.758
276.498 342.282 731.544
276.498 348.993 677.852
276.498 355.705 677.852
276.498 362.416 771.812
276.498 369.128 818.792
276.498 375.839 664.43
276.498 382.55 818.792
276.498 389.262 785.235
276.498 395.973 610.738
276.498 402.685 785.235
276.498 409.396 785.235
276.498 416.107 610.738
