508.696 893.13 296.774
508.696 900.763 296.774
508.696 908.397 296.774
508.696 916.031 296.774
508.696 923.664 290.323
513.043 122.137 367.742
513.043 129.771 270.968
513.043 137.405 529.032
513.043 145.038 432.258
513.043 152.672 496.774
513.043 160.305 348.387
513.043 167.939 477.419
513.043 175.573 393.548
513.043 183.206 270.968
513.043 190.84 419.355
513.043 198.473 380.645
513.043 206.107 277.419
513.043 213.74 425.806
513.043 221.374 387.097
513.043 229.008 387.097
513.043 236.641 574.194
513.043 244.275 535.484
513.043 251.908 600
513.043 259.542 464.516
513.043 267.176 516.129
513.043 274.809 445.161
513.043 282.443 548.387
513.043 290.076 361.29
513.043 297.71 561.29
513.043 305.344 335.484
513.043 312.977 445.161
513.043 320.611 400
513.043 328.244 296.774
513.043 335.878 283.871
513.043 610.687 103.226
513.043 618.321 135.484
513.043 625.954 245.161
513.043 633.588 412.903
513.043 641.221 393.548
513.043 648.855 406.452
513.043 656.489 503.226
513.043 664.122 612.903
513.043 671.756 587.097
513.043 679.389 593.548
513.043 687.023 612.903
513.043 694.656 819.355
513.043 702.29 754.839
513.043 709.924 806.452
513.043 717.557 832.258
513.043 725.191 748.387
513.043 732.824 658.065
513.043 740.458 612.903
513.043 748.092 632.258
513.043 755.725 561.29
513.043 763.359 580.645
513.043 770.992 645.161
513.043 778.626 593.548
513.043 786.26 554.839
513.043 793.893 651.613
513.043 801.527 445.161
513.043 809.16 445.161
513.043 816.794 600
513.043 824.427 522.581
513.043 832.061 587.097
513.043 839.695 419.355
513.043 900.763 296.774
513.043 908.397 296.774
517.391 122.137 367.742
517.391 129.771 270.968
517.391 137.405 509.677
517.391 145.038 541.935
517.391 152.672 425.806
517.391 160.305 354.839
517.391 167.939 425.806
517.391 175.573 374.194
517.391 183.206 270.968
517.391 190.84 419.355
517.391 198.473 380.645
517.391 206.107 277.419
517.391 213.74 425.806
517.391 221.374 387.097
517.391 229.008 503.226
517.391 236.641 567.742
517.391 244.275 541.935
517.391 251.908 600
517.391 259.542 425.806
517.391 267.176 567.742
517.391 274.809 490.323
517.391 282.443 580.645
517.391 290.076 361.29
517.391 297.71 580.645
517.391 305.344 296.774
517.391 312.977 445.161
517.391 320.611 400
517.391 328.244 296.774
517.391 335.878 270.968
517.391 603.053 25.8065
517.391 610.687 141.935
517.391 618.321 135.484
517.391 625.954 393.548
517.391 633.588 400
517.391 641.221 393.548
517.391 648.855 393.548
517.391 656.489 503.226
517.391 664.122 561.29
517.391 671.756 587.097
517.391 679.389 683.871
517.391 687.023 619.355
517.391 694.656 787.097
517.391 702.29 754.839
517.391 709.924 767.742
517.391 717.557 774.194
517.391 725.191 774.194
517.391 732.824 696.774
517.391 740.458 612.903
517.391 748.092 651.613
517.391 755.725 593.548
517.391 763.359 580.645
517.391 770.992 638.71
517.391 778.626 593.548
517.391 786.26 561.29
517.391 793.893 625.806
517.391 801.527 548.387
517.391 809.16 567.742
517.391 816.794 561.29
517.391 824.427 445.161
517.391 832.061 587.097
521.739 122.137 367.742
521.739 129.771 270.968
521.739 137.405 483.871
521.739 145.038 509.677
521.739 152.672 348.387
521.739 160.305 477.419
521.739 167.939 393.548
521.739 175.573 374.194
521.739 183.206 270.968
521.739 190.84 419.355
521.739 198.473 380.645
521.739 206.107 277.419
521.739 213.74 425.806
521.739 221.374 387.097
521.739 229.008 503.226
521.739 236.641 561.29
521.739 244.275 541.935
521.739 251.908 600
521.739 259.542 458.065
521.739 267.176 593.548
521.739 274.809 503.226
521.739 282.443 580.645
521.739 290.076 438.71
521.739 297.71 516.129
521.739 305.344 354.839
521.739 312.977 470.968
521.739 320.611 400
521.739 328.244 296.774
521.739 335.878 270.968
521.739 603.053 25.8065
521.739 610.687 148.387
521.739 618.321 135.484
521.739 625.954 393.548
521.739 633.588 393.548
521.739 641.221 393.548
521.739 648.855 393.548
521.739 656.489 425.806
521.739 664.122 593.548
521.739 671.756 541.935
521.739 679.389 632.258
521.739 687.023 612.903
521.739 694.656 761.29
521.739 702.29 754.839
521.739 709.924 787.097
521.739 717.557 825.806
521.739 725.191 754.839
521.739 732.824 587.097
521.739 740.458 606.452
521.739 748.092 677.419
521.739 755.725 612.903
521.739 763.359 574.194
521.739 770.992 516.129
521.739 778.626 612.903
521.739 786.26 561.29
521.739 793.893 561.29
521.739 801.527 561.29
521.739 809.16 625.806
521.739 816.794 522.581
521.739 824.427 445.161
521.739 832.061 419.355
526.087 122.137 367.742
526.087 129.771 270.968
526.087 137.405 322.581
526.087 145.038 477.419
526.087 152.672 400
526.087 160.305 438.71
526.087 167.939 374.194
526.087 175.573 374.194
526.087 183.206 270.968
526.087 190.84 419.355
526.087 198.473 380.645
526.087 206.107 277.419
526.087 213.74 425.806
526.087 221.374 387.097
526.087 229.008 503.226
526.087 236.641 561.29
526.087 244.275 535.484
526.087 251.908 606.452
526.087 259.542 509.677
526.087 267.176 670.968
526.087 274.809 567.742
526.087 282.443 567.742
526.087 290.076 625.806
526.087 297.71 554.839
526.087 305.344 470.968
526.087 312.977 296.774
526.087 320.611 400
526.087 328.244 296.774
526.087 335.878 270.968
526.087 603.053 77.4194
526.087 610.687 187.097
526.087 618.321 135.484
526.087 625.954 393.548
526.087 633.588 393.548
526.087 641.221 393.548
526.087 648.855 393.548
526.087 656.489 425.806
526.087 664.122 593.548
526.087 671.756 529.032
526.087 679.389 593.548
526.087 687.023 600
526.087 694.656 703.226
526.087 702.29 754.839
526.087 709.924 825.806
526.087 717.557 767.742
526.087 725.191 774.194
526.087 732.824 780.645
526.087 740.458 632.258
526.087 748.092 677.419
526.087 755.725 625.806
526.087 763.359 606.452
526.087 770.992 554.839
526.087 778.626 529.032
526.087 786.26 561.29
526.087 793.893 561.29
526.087 801.527 561.29
526.087 809.16 561.29
526.087 816.794 451.613
526.087 824.427 464.516
526.087 832.061 438.71
530.435 129.771 316.129
530.435 137.405 348.387
530.435 145.038 516.129
530.435 152.672 406.452
530.435 160.305 419.355
530.435 167.939 374.194
530.435 175.573 374.194
530.435 183.206 270.968
530.435 190.84 412.903
530.435 198.473 380.645
530.435 206.107 277.419
530.435 213.74 425.806
530.435 221.374 387.097
530.435 229.008 535.484
530.435 236.641 587.097
530.435 244.275 561.29
530.435 251.908 606.452
530.435 259.542 645.161
530.435 267.176 658.065
530.435 274.809 541.935
530.435 282.443 651.613
530.435 290.076 645.161
530.435 297.71 406.452
530.435 305.344 516.129
530.435 312.977 361.29
530.435 320.611 470.968
530.435 328.244 348.387
530.435 335.878 341.935
530.435 595.42 32.2581
530.435 603.053 129.032
530.435 610.687 245.161
530.435 618.321 135.484
530.435 625.954 393.548
530.435 633.588 393.548
530.435 641.221 393.548
530.435 648.855 393.548
530.435 656.489 425.806
530.435 664.122 593.548
530.435 671.756 529.032
530.435 679.389 593.548
530.435 687.023 593.548
530.435 694.656 664.516
530.435 702.29 729.032
530.435 709.924 806.452
530.435 717.557 754.839
530.435 725.191 819.355
530.435 732.824 754.839
530.435 740.458 632.258
530.435 748.092 670.968
530.435 755.725 625.806
530.435 763.359 580.645
530.435 770.992 554.839
530.435 778.626 574.194
530.435 786.26 496.774
530.435 793.893 554.839
530.435 801.527 561.29
530.435 809.16 561.29
530.435 816.794 554.839
530.435 824.427 483.871
530.435 832.061 432.258
534.783 129.771 367.742
534.783 137.405 270.968
534.783 145.038 548.387
534.783 152.672 393.548
534.783 160.305 406.452
534.783 167.939 374.194
534.783 175.573 374.194
534.783 183.206 264.516
534.783 190.84 412.903
534.783 198.473 380.645
534.783 206.107 277.419
534.783 213.74 425.806
534.783 221.374 387.097
534.783 229.008 387.097
534.783 236.641 496.774
534.783 244.275 458.065
534.783 251.908 625.806
534.783 259.542 677.419
534.783 267.176 561.29
534.783 274.809 554.839
534.783 282.443 696.774
534.783 290.076 593.548
534.783 297.71 554.839
534.783 305.344 425.806
534.783 312.977 322.581
534.783 320.611 354.839
534.783 328.244 406.452
534.783 335.878 296.774
534.783 343.511 51.6129
534.783 595.42 32.2581
534.783 603.053 135.484
534.783 610.687 129.032
534.783 618.321 83.871
534.783 625.954 341.935
534.783 633.588 393.548
534.783 641.221 393.548
534.783 648.855 393.548
534.783 656.489 432.258
534.783 664.122 574.194
534.783 671.756 470.968
534.783 679.389 664.516
534.783 687.023 625.806
534.783 694.656 632.258
534.783 702.29 812.903
534.783 709.924 800
534.783 717.557 754.839
534.783 725.191 819.355
534.783 732.824 754.839
534.783 740.458 651.613
534.783 748.092 677.419
534.783 755.725 664.516
534.783 763.359 625.806
534.783 770.992 554.839
534.783 778.626 574.194
534.783 786.26 529.032
534.783 793.893 612.903
534.783 801.527 561.29
534.783 809.16 561.29
534.783 816.794 554.839
534.783 824.427 587.097
534.783 832.061 122.581
539.13 137.405 322.581
539.13 145.038 548.387
539.13 152.672 387.097
539.13 160.305 406.452
539.13 167.939 367.742
539.13 175.573 367.742
539.13 183.206 264.516
539.13 190.84 412.903
539.13 198.473 380.645
539.13 206.107 329.032
539.13 213.74 445.161
539.13 221.374 387.097
539.13 229.008 387.097
539.13 236.641 535.484
539.13 244.275 587.097
539.13 251.908 574.194
539.13 259.542 677.419
539.13 267.176 593.548
539.13 274.809 658.065
539.13 282.443 658.065
539.13 290.076 683.871
539.13 297.71 612.903
539.13 305.344 419.355
539.13 312.977 464.516
539.13 320.611 477.419
539.13 328.244 296.774
539.13 335.878 348.387
539.13 343.511 335.484
539.13 595.42 32.2581
539.13 603.053 135.484
539.13 610.687 129.032
539.13 618.321 141.935
539.13 625.954 290.323
539.13 633.588 393.548
539.13 641.221 393.548
539.13 648.855 393.548
539.13 656.489 445.161
539.13 664.122 625.806
539.13 671.756 619.355
539.13 679.389 645.161
539.13 687.023 535.484
539.13 694.656 625.806
539.13 702.29 812.903
539.13 709.924 800
539.13 717.557 754.839
539.13 725.191 819.355
539.13 732.824 754.839
539.13 740.458 787.097
539.13 748.092 690.323
539.13 755.725 664.516
539.13 763.359 612.903
539.13 770.992 561.29
539.13 778.626 587.097
539.13 786.26 587.097
539.13 793.893 496.774
539.13 801.527 574.194
539.13 809.16 561.29
539.13 816.794 554.839
539.13 824.427 670.968
539.13 832.061 122.581
543.478 137.405 361.29
543.478 145.038 535.484
543.478 152.672 432.258
543.478 160.305 406.452
543.478 167.939 367.742
543.478 175.573 367.742
543.478 183.206 264.516
543.478 190.84 412.903
543.478 198.473 380.645
543.478 206.107 380.645
543.478 213.74 277.419
543.478 221.374 387.097
543.478 229.008 387.097
543.478 236.641 387.097
543.478 244.275 496.774
543.478 251.908 464.516
543.478 259.542 683.871
543.478 267.176 632.258
543.478 274.809 503.226
543.478 282.443 651.613
543.478 290.076 567.742
543.478 297.71 574.194
543.478 305.344 458.065
543.478 312.977 374.194
543.478 320.611 412.903
543.478 328.244 354.839
543.478 335.878 470.968
543.478 343.511 348.387
543.478 351.145 96.7742
543.478 595.42 32.2581
543.478 603.053 135.484
543.478 610.687 129.032
543.478 618.321 148.387
543.478 625.954 141.935
543.478 633.588 393.548
543.478 641.221 393.548
543.478 648.855 393.548
543.478 656.489 445.161
543.478 664.122 600
543.478 671.756 651.613
543.478 679.389 612.903
543.478 687.023 664.516
543.478 694.656 632.258
543.478 702.29 780.645
543.478 709.924 800
543.478 717.557 754.839
543.478 725.191 819.355
543.478 732.824 748.387
543.478 740.458 793.548
543.478 748.092 709.677
543.478 755.725 664.516
543.478 763.359 606.452
543.478 770.992 606.452
543.478 778.626 567.742
543.478 786.26 606.452
543.478 793.893 529.032
543.478 801.527 606.452
543.478 809.16 554.839
543.478 816.794 554.839
543.478 824.427 670.968
543.478 832.061 367.742
547.826 145.038 477.419
547.826 152.672 470.968
547.826 160.305 406.452
547.826 167.939 367.742
547.826 175.573 367.742
547.826 183.206 264.516
547.826 190.84 412.903
547.826 198.473 380.645
547.826 206.107 380.645
547.826 213.74 277.419
547.826 221.374 425.806
547.826 229.008 387.097
547.826 236.641 387.097
547.826 244.275 496.774
547.826 251.908 567.742
547.826 259.542 606.452
547.826 267.176 600
547.826 274.809 561.29
547.826 282.443 664.516
547.826 290.076 593.548
547.826 297.71 632.258
547.826 305.344 567.742
547.826 312.977 587.097
547.826 320.611 432.258
547.826 328.244 477.419
547.826 335.878 296.774
547.826 343.511 400
547.826 351.145 290.323
547.826 358.779 32.2581
547.826 595.42 32.2581
547.826 603.053 154.839
547.826 610.687 193.548
547.826 618.321 187.097
547.826 625.954 135.484
547.826 633.588 393.548
547.826 641.221 393.548
547.826 648.855 406.452
547.826 656.489 451.613
547.826 664.122 561.29
547.826 671.756 767.742
547.826 679.389 612.903
547.826 687.023 690.323
547.826 694.656 554.839
547.826 702.29 748.387
547.826 709.924 800
547.826 717.557 754.839
547.826 725.191 812.903
547.826 732.824 735.484
547.826 740.458 658.065
547.826 748.092 658.065
547.826 755.725 664.516
547.826 763.359 619.355
547.826 770.992 632.258
547.826 778.626 587.097
547.826 786.26 690.323
547.826 793.893 561.29
547.826 801.527 522.581
547.826 809.16 554.839
547.826 816.794 554.839
547.826 824.427 529.032
547.826 832.061 367.742
552.174 145.038 400
552.174 152.672 490.323
552.174 160.305 458.065
552.174 167.939 367.742
552.174 175.573 374.194
552.174 183.206 322.581
552.174 190.84 438.71
552.174 198.473 380.645
552.174 206.107 380.645
552.174 213.74 329.032
552.174 221.374 445.161
552.174 229.008 387.097
552.174 236.641 387.097
552.174 244.275 387.097
552.174 251.908 600
552.174 259.542 496.774
552.174 267.176 541.935
552.174 274.809 587.097
552.174 282.443 561.29
552.174 290.076 664.516
552.174 297.71 458.065
552.174 305.344 561.29
552.174 312.977 432.258
552.174 320.611 367.742
552.174 328.244 522.581
552.174 335.878 354.839
552.174 343.511 464.516
552.174 351.145 296.774
552.174 358.779 193.548
552.174 595.42 25.8065
552.174 603.053 129.032
552.174 610.687 129.032
552.174 618.321 232.258
552.174 625.954 90.3226
552.174 633.588 341.935
552.174 641.221 400
552.174 648.855 425.806
552.174 656.489 470.968
552.174 664.122 496.774
552.174 671.756 619.355
552.174 679.389 593.548
552.174 687.023 677.419
552.174 694.656 554.839
552.174 702.29 703.226
552.174 709.924 800
552.174 717.557 754.839
552.174 725.191 761.29
552.174 732.824 535.484
552.174 740.458 716.129
552.174 748.092 658.065
552.174 755.725 658.065
552.174 763.359 619.355
552.174 770.992 638.71
552.174 778.626 606.452
552.174 786.26 690.323
552.174 793.893 561.29
552.174 801.527 561.29
552.174 809.16 393.548
552.174 816.794 367.742
552.174 824.427 529.032
552.174 832.061 341.935
552.174 839.695 341.935
556.522 145.038 425.806
556.522 152.672 464.516
556.522 160.305 425.806
556.522 167.939 374.194
556.522 175.573 374.194
556.522 183.206 374.194
556.522 190.84 322.581
556.522 198.473 387.097
556.522 206.107 380.645
556.522 213.74 380.645
556.522 221.374 329.032
556.522 229.008 393.548
556.522 236.641 387.097
556.522 244.275 387.097
556.522 251.908 600
556.522 259.542 535.484
556.522 267.176 600
556.522 274.809 535.484
556.522 282.443 600
556.522 290.076 638.71
556.522 297.71 541.935
556.522 305.344 625.806
556.522 312.977 503.226
556.522 320.611 548.387
556.522 328.244 509.677
556.522 335.878 490.323
556.522 343.511 296.774
556.522 351.145 348.387
556.522 358.779 303.226
556.522 595.42 25.8065
556.522 603.053 135.484
556.522 610.687 129.032
556.522 618.321 380.645
556.522 625.954 380.645
556.522 633.588 296.774
556.522 641.221 400
556.522 648.855 425.806
556.522 656.489 580.645
556.522 664.122 432.258
556.522 671.756 554.839
556.522 679.389 677.419
556.522 687.023 670.968
556.522 694.656 580.645
556.522 702.29 716.129
556.522 709.924 800
556.522 717.557 587.097
556.522 725.191 561.29
556.522 732.824 651.613
556.522 740.458 683.871
556.522 748.092 658.065
556.522 755.725 632.258
556.522 763.359 606.452
556.522 770.992 625.806
556.522 778.626 696.774
556.522 786.26 690.323
556.522 793.893 561.29
556.522 801.527 400
556.522 809.16 425.806
556.522 816.794 367.742
556.522 824.427 529.032
556.522 832.061 341.935
556.522 839.695 341.935
556.522 847.328 341.935
560.87 145.038 393.548
560.87 152.672 451.613
560.87 160.305 445.161
560.87 167.939 432.258
560.87 175.573 374.194
560.87 183.206 374.194
560.87 190.84 374.194
560.87 198.473 264.516
560.87 206.107 380.645
560.87 213.74 380.645
560.87 221.374 380.645
560.87 229.008 277.419
560.87 236.641 387.097
560.87 244.275 387.097
560.87 251.908 600
560.87 259.542 535.484
560.87 267.176 600
560.87 274.809 574.194
560.87 282.443 522.581
560.87 290.076 587.097
560.87 297.71 664.516
560.87 305.344 516.129
560.87 312.977 567.742
560.87 320.611 412.903
560.87 328.244 593.548
560.87 335.878 554.839
560.87 343.511 348.387
560.87 351.145 464.516
560.87 358.779 296.774
560.87 366.412 32.2581
560.87 603.053 83.871
560.87 610.687 129.032
560.87 618.321 380.645
560.87 625.954 380.645
560.87 633.588 141.935
560.87 641.221 412.903
560.87 648.855 425.806
560.87 656.489 580.645
560.87 664.122 432.258
560.87 671.756 554.839
560.87 679.389 670.968
560.87 687.023 677.419
560.87 694.656 606.452
560.87 702.29 645.161
560.87 709.924 651.613
560.87 717.557 580.645
560.87 725.191 574.194
560.87 732.824 625.806
560.87 740.458 677.419
560.87 748.092 658.065
560.87 755.725 619.355
560.87 763.359 638.71
560.87 770.992 619.355
560.87 778.626 690.323
560.87 786.26 561.29
560.87 793.893 561.29
560.87 801.527 374.194
560.87 809.16 541.935
560.87 816.794 367.742
560.87 824.427 529.032
560.87 832.061 341.935
560.87 839.695 341.935
560.87 847.328 341.935
560.87 854.962 341.935
565.217 145.038 374.194
565.217 152.672 451.613
565.217 160.305 503.226
565.217 167.939 496.774
565.217 175.573 380.645
565.217 183.206 374.194
565.217 190.84 374.194
565.217 198.473 316.129
565.217 206.107 438.71
565.217 213.74 380.645
565.217 221.374 380.645
565.217 229.008 329.032
565.217 236.641 445.161
565.217 244.275 387.097
565.217 251.908 567.742
565.217 259.542 535.484
565.217 267.176 600
565.217 274.809 574.194
565.217 282.443 509.677
565.217 290.076 612.903
565.217 297.71 600
565.217 305.344 548.387
565.217 312.977 612.903
565.217 320.611 451.613
565.217 328.244 483.871
565.217 335.878 432.258
565.217 343.511 451.613
565.217 351.145 296.774
565.217 358.779 296.774
565.217 366.412 187.097
565.217 603.053 45.1613
565.217 610.687 135.484
565.217 618.321 380.645
565.217 625.954 387.097
565.217 633.588 148.387
565.217 641.221 425.806
565.217 648.855 412.903
565.217 656.489 541.935
565.217 664.122 432.258
565.217 671.756 548.387
565.217 679.389 645.161
565.217 687.023 670.968
565.217 694.656 606.452
565.217 702.29 664.516
565.217 709.924 683.871
565.217 717.557 561.29
565.217 725.191 554.839
565.217 732.824 619.355
565.217 740.458 677.419
565.217 748.092 658.065
565.217 755.725 619.355
565.217 763.359 638.71
565.217 770.992 709.677
565.217 778.626 690.323
565.217 786.26 567.742
565.217 793.893 561.29
565.217 801.527 374.194
565.217 809.16 541.935
565.217 816.794 367.742
565.217 824.427 529.032
565.217 832.061 341.935
565.217 839.695 341.935
565.217 847.328 341.935
565.217 854.962 341.935
565.217 862.595 335.484
569.565 137.405 393.548
569.565 145.038 361.29
569.565 152.672 258.065
569.565 160.305 529.032
569.565 167.939 445.161
569.565 175.573 361.29
569.565 183.206 374.194
569.565 190.84 367.742
569.565 198.473 367.742
569.565 206.107 290.323
569.565 213.74 400
569.565 221.374 406.452
569.565 229.008 380.645
569.565 236.641 322.581
569.565 244.275 393.548
569.565 251.908 387.097
569.565 259.542 567.742
569.565 267.176 619.355
569.565 274.809 574.194
569.565 282.443 535.484
569.565 290.076 574.194
569.565 297.71 567.742
569.565 305.344 580.645
569.565 312.977 677.419
569.565 320.611 574.194
569.565 328.244 303.226
569.565 335.878 535.484
569.565 343.511 554.839
569.565 351.145 348.387
569.565 358.779 425.806
569.565 366.412 245.161
569.565 603.053 45.1613
569.565 610.687 135.484
569.565 618.321 380.645
569.565 625.954 387.097
569.565 633.588 148.387
569.565 641.221 425.806
569.565 648.855 574.194
569.565 656.489 509.677
569.565 664.122 432.258
569.565 671.756 541.935
569.565 679.389 612.903
569.565 687.023 670.968
569.565 694.656 670.968
569.565 702.29 690.323
569.565 709.924 645.161
569.565 717.557 554.839
569.565 725.191 625.806
569.565 732.824 619.355
569.565 740.458 696.774
569.565 748.092 638.71
569.565 755.725 600
569.565 763.359 606.452
569.565 770.992 696.774
569.565 778.626 690.323
569.565 786.26 561.29
569.565 793.893 561.29
569.565 801.527 374.194
569.565 809.16 541.935
569.565 816.794 367.742
569.565 824.427 529.032
569.565 832.061 341.935
569.565 839.695 341.935
569.565 847.328 341.935
569.565 854.962 341.935
569.565 862.595 335.484
573.913 137.405 393.548
573.913 145.038 354.839
573.913 152.672 258.065
573.913 160.305 387.097
573.913 167.939 438.71
573.913 175.573 522.581
573.913 183.206 264.516
573.913 190.84 367.742
573.913 198.473 367.742
573.913 206.107 329.032
573.913 213.74 451.613
573.913 221.374 432.258
573.913 229.008 438.71
573.913 236.641 380.645
573.913 244.275 270.968
573.913 251.908 387.097
573.913 259.542 632.258
573.913 267.176 496.774
573.913 274.809 574.194
573.913 282.443 574.194
573.913 290.076 464.516
573.913 297.71 567.742
573.913 305.344 606.452
573.913 312.977 503.226
573.913 320.611 516.129
573.913 328.244 361.29
573.913 335.878 658.065
573.913 343.511 425.806
573.913 351.145 406.452
573.913 358.779 296.774
573.913 366.412 296.774
573.913 374.046 32.2581
573.913 603.053 90.3226
573.913 610.687 154.839
573.913 618.321 387.097
573.913 625.954 387.097
573.913 633.588 148.387
573.913 641.221 425.806
573.913 648.855 580.645
573.913 656.489 425.806
573.913 664.122 425.806
573.913 671.756 516.129
573.913 679.389 554.839
573.913 687.023 677.419
573.913 694.656 619.355
573.913 702.29 696.774
573.913 709.924 670.968
573.913 717.557 574.194
573.913 725.191 658.065
573.913 732.824 619.355
573.913 740.458 683.871
573.913 748.092 619.355
573.913 755.725 638.71
573.913 763.359 587.097
573.913 770.992 690.323
573.913 778.626 567.742
573.913 786.26 567.742
573.913 793.893 574.194
573.913 801.527 374.194
573.913 809.16 541.935
573.913 816.794 367.742
573.913 824.427 341.935
573.913 832.061 341.935
573.913 839.695 341.935
573.913 847.328 341.935
573.913 854.962 341.935
573.913 862.595 335.484
573.913 870.229 335.484
578.261 137.405 387.097
578.261 145.038 354.839
578.261 152.672 258.065
578.261 160.305 387.097
578.261 167.939 303.226
578.261 175.573 561.29
578.261 183.206 348.387
578.261 190.84 425.806
578.261 198.473 374.194
578.261 206.107 406.452
578.261 213.74 296.774
578.261 221.374 496.774
578.261 229.008 438.71
578.261 236.641 393.548
578.261 244.275 277.419
578.261 251.908 419.355
578.261 259.542 664.516
578.261 267.176 535.484
578.261 274.809 619.355
578.261 282.443 535.484
578.261 290.076 477.419
578.261 297.71 445.161
578.261 305.344 541.935
578.261 312.977 535.484
578.261 320.611 619.355
578.261 328.244 535.484
578.261 335.878 303.226
578.261 343.511 464.516
578.261 351.145 503.226
578.261 358.779 296.774
578.261 366.412 354.839
578.261 374.046 187.097
578.261 595.42 32.2581
578.261 603.053 161.29
578.261 610.687 180.645
578.261 618.321 387.097
578.261 625.954 393.548
578.261 633.588 200
578.261 641.221 432.258
578.261 648.855 580.645
578.261 656.489 425.806
578.261 664.122 425.806
578.261 671.756 490.323
578.261 679.389 574.194
578.261 687.023 677.419
578.261 694.656 619.355
578.261 702.29 696.774
578.261 709.924 664.516
578.261 717.557 651.613
578.261 725.191 580.645
578.261 732.824 645.161
578.261 740.458 696.774
578.261 748.092 632.258
578.261 755.725 651.613
578.261 763.359 587.097
578.261 770.992 690.323
578.261 778.626 567.742
578.261 786.26 567.742
578.261 793.893 438.71
578.261 801.527 374.194
578.261 809.16 535.484
578.261 816.794 367.742
578.261 824.427 341.935
578.261 832.061 341.935
578.261 839.695 341.935
578.261 847.328 341.935
578.261 854.962 341.935
578.261 862.595 335.484
578.261 870.229 335.484
578.261 877.863 335.484
582.609 137.405 387.097
582.609 145.038 354.839
582.609 152.672 258.065
582.609 160.305 387.097
582.609 167.939 348.387
582.609 175.573 361.29
582.609 183.206 393.548
582.609 190.84 258.065
582.609 198.473 387.097
582.609 206.107 425.806
582.609 213.74 445.161
582.609 221.374 490.323
582.609 229.008 541.935
582.609 236.641 464.516
582.609 244.275 322.581
582.609 251.908 419.355
582.609 259.542 387.097
582.609 267.176 574.194
582.609 274.809 496.774
582.609 282.443 503.226
582.609 290.076 600
582.609 297.71 470.968
582.609 305.344 587.097
582.609 312.977 619.355
582.609 320.611 567.742
582.609 328.244 516.129
582.609 335.878 361.29
582.609 343.511 625.806
582.609 351.145 432.258
582.609 358.779 296.774
582.609 366.412 348.387
582.609 374.046 187.097
582.609 595.42 90.3226
582.609 603.053 135.484
582.609 610.687 232.258
582.609 618.321 387.097
582.609 625.954 129.032
582.609 633.588 245.161
582.609 641.221 432.258
582.609 648.855 580.645
582.609 656.489 425.806
582.609 664.122 425.806
582.609 671.756 432.258
582.609 679.389 567.742
582.609 687.023 670.968
582.609 694.656 651.613
582.609 702.29 709.677
582.609 709.924 670.968
582.609 717.557 690.323
582.609 725.191 438.71
582.609 732.824 690.323
582.609 740.458 606.452
582.609 748.092 619.355
582.609 755.725 651.613
582.609 763.359 580.645
582.609 770.992 690.323
582.609 778.626 567.742
582.609 786.26 561.29
582.609 793.893 374.194
582.609 801.527 374.194
582.609 809.16 535.484
582.609 816.794 367.742
582.609 824.427 341.935
582.609 832.061 341.935
582.609 839.695 341.935
582.609 847.328 341.935
582.609 854.962 341.935
582.609 862.595 335.484
582.609 870.229 335.484
582.609 877.863 335.484
582.609 885.496 335.484
586.957 137.405 348.387
586.957 145.038 354.839
586.957 152.672 258.065
586.957 160.305 387.097
586.957 167.939 348.387
586.957 175.573 361.29
586.957 183.206 490.323
586.957 190.84 258.065
586.957 198.473 419.355
586.957 206.107 509.677
586.957 213.74 451.613
586.957 221.374 483.871
586.957 229.008 458.065
586.957 236.641 412.903
586.957 244.275 296.774
586.957 251.908 419.355
586.957 259.542 380.645
586.957 267.176 619.355
586.957 274.809 529.032
586.957 282.443 593.548
586.957 290.076 612.903
586.957 297.71 541.935
586.957 305.344 567.742
586.957 312.977 696.774
586.957 320.611 477.419
586.957 328.244 593.548
586.957 335.878 541.935
586.957 343.511 432.258
586.957 351.145 425.806
586.957 358.779 400
586.957 366.412 380.645
586.957 374.046 187.097
586.957 587.786 32.2581
586.957 595.42 154.839
586.957 603.053 180.645
586.957 610.687 380.645
586.957 618.321 393.548
586.957 625.954 187.097
586.957 633.588 393.548
586.957 641.221 432.258
586.957 648.855 580.645
586.957 656.489 425.806
586.957 664.122 432.258
586.957 671.756 600
586.957 679.389 632.258
586.957 687.023 754.839
586.957 694.656 677.419
586.957 702.29 606.452
586.957 709.924 677.419
586.957 717.557 580.645
586.957 725.191 438.71
586.957 732.824 645.161
586.957 740.458 606.452
586.957 748.092 638.71
586.957 755.725 716.129
586.957 763.359 587.097
586.957 770.992 567.742
586.957 778.626 567.742
586.957 786.26 561.29
586.957 793.893 374.194
586.957 801.527 374.194
586.957 809.16 541.935
586.957 816.794 367.742
586.957 824.427 367.742
586.957 832.061 341.935
586.957 839.695 341.935
586.957 847.328 341.935
586.957 854.962 341.935
586.957 862.595 335.484
586.957 870.229 335.484
586.957 877.863 335.484
586.957 885.496 335.484
586.957 893.13 335.484
586.957 900.763 335.484
591.304 145.038 309.677
591.304 152.672 212.903
591.304 160.305 374.194
591.304 167.939 348.387
591.304 175.573 258.065
591.304 183.206 503.226
591.304 190.84 258.065
591.304 198.473 419.355
591.304 206.107 516.129
591.304 213.74 477.419
591.304 221.374 503.226
591.304 229.008 412.903
591.304 236.641 380.645
591.304 244.275 283.871
591.304 251.908 419.355
591.304 259.542 380.645
591.304 267.176 380.645
591.304 274.809 574.194
591.304 282.443 529.032
591.304 290.076 516.129
591.304 297.71 580.645
591.304 305.344 470.968
591.304 312.977 548.387
591.304 320.611 516.129
591.304 328.244 580.645
591.304 335.878 516.129
591.304 343.511 309.677
591.304 351.145 548.387
591.304 358.779 503.226
591.304 366.412 296.774
591.304 374.046 193.548
591.304 587.786 51.6129
591.304 595.42 122.581
591.304 603.053 225.806
591.304 610.687 387.097
591.304 618.321 180.645
591.304 625.954 232.258
591.304 633.588 387.097
591.304 641.221 412.903
591.304 648.855 541.935
591.304 656.489 432.258
591.304 664.122 432.258
591.304 671.756 600
591.304 679.389 600
591.304 687.023 703.226
591.304 694.656 677.419
591.304 702.29 606.452
591.304 709.924 619.355
591.304 717.557 580.645
591.304 725.191 438.71
591.304 732.824 574.194
591.304 740.458 632.258
591.304 748.092 658.065
591.304 755.725 600
591.304 763.359 606.452
591.304 770.992 567.742
591.304 778.626 567.742
591.304 786.26 380.645
591.304 793.893 374.194
591.304 801.527 354.839
591.304 809.16 496.774
591.304 816.794 367.742
591.304 824.427 367.742
591.304 832.061 341.935
591.304 839.695 341.935
591.304 847.328 341.935
591.304 854.962 341.935
591.304 862.595 341.935
591.304 870.229 335.484
591.304 877.863 335.484
591.304 885.496 335.484
591.304 893.13 335.484
591.304 900.763 335.484
591.304 908.397 335.484
595.652 145.038 258.065
595.652 152.672 387.097
595.652 160.305 361.29
595.652 167.939 348.387
595.652 175.573 258.065
595.652 183.206 535.484
595.652 190.84 264.516
595.652 198.473 419.355
595.652 206.107 516.129
595.652 213.74 516.129
595.652 221.374 374.194
595.652 229.008 406.452
595.652 236.641 374.194
595.652 244.275 270.968
595.652 251.908 419.355
595.652 259.542 380.645
595.652 267.176 380.645
595.652 274.809 380.645
595.652 282.443 574.194
595.652 290.076 490.323
595.652 297.71 619.355
595.652 305.344 516.129
595.652 312.977 535.484
595.652 320.611 664.516
595.652 328.244 625.806
595.652 335.878 432.258
595.652 343.511 503.226
595.652 351.145 522.581
595.652 358.779 477.419
595.652 366.412 361.29
595.652 374.046 277.419
595.652 587.786 90.3226
595.652 595.42 122.581
595.652 603.053 380.645
595.652 610.687 135.484
595.652 618.321 232.258
595.652 625.954 387.097
595.652 633.588 387.097
595.652 641.221 406.452
595.652 648.855 509.677
595.652 656.489 432.258
595.652 664.122 432.258
595.652 671.756 606.452
595.652 679.389 600
595.652 687.023 625.806
595.652 694.656 677.419
595.652 702.29 516.129
595.652 709.924 632.258
595.652 717.557 580.645
595.652 725.191 509.677
595.652 732.824 645.161
595.652 740.458 548.387
595.652 748.092 587.097
595.652 755.725 625.806
595.652 763.359 690.323
595.652 770.992 567.742
595.652 778.626 593.548
595.652 786.26 387.097
595.652 793.893 400
595.652 801.527 548.387
595.652 809.16 464.516
595.652 816.794 400
595.652 824.427 387.097
595.652 832.061 341.935
595.652 839.695 341.935
595.652 847.328 341.935
595.652 854.962 341.935
595.652 862.595 341.935
595.652 870.229 335.484
595.652 877.863 335.484
595.652 885.496 335.484
595.652 893.13 335.484
595.652 900.763 335.484
595.652 908.397 335.484
595.652 916.031 335.484
600 145.038 303.226
600 152.672 406.452
600 160.305 348.387
600 167.939 348.387
600 175.573 258.065
600 183.206 535.484
600 190.84 309.677
600 198.473 419.355
600 206.107 516.129
600 213.74 516.129
600 221.374 374.194
600 229.008 438.71
600 236.641 374.194
600 244.275 270.968
600 251.908 419.355
600 259.542 380.645
600 267.176 380.645
600 274.809 380.645
600 282.443 380.645
600 290.076 587.097
600 297.71 470.968
600 305.344 561.29
600 312.977 619.355
600 320.611 509.677
600 328.244 529.032
600 335.878 509.677
600 343.511 625.806
600 351.145 309.677
600 358.779 503.226
600 366.412 316.129
600 374.046 296.774
600 381.679 25.8065
600 580.153 25.8065
600 587.786 135.484
600 595.42 122.581
600 603.053 387.097
600 610.687 187.097
600 618.321 387.097
600 625.954 387.097
600 633.588 393.548
600 641.221 406.452
600 648.855 432.258
600 656.489 432.258
600 664.122 432.258
600 671.756 600
600 679.389 600
600 687.023 593.548
600 694.656 580.645
600 702.29 561.29
600 709.924 670.968
600 717.557 580.645
600 725.191 580.645
600 732.824 458.065
600 740.458 606.452
600 748.092 664.516
600 755.725 664.516
600 763.359 703.226
600 770.992 593.548
600 778.626 387.097
600 786.26 380.645
600 793.893 432.258
600 801.527 548.387
600 809.16 367.742
600 816.794 367.742
600 824.427 341.935
600 832.061 341.935
600 839.695 341.935
600 847.328 341.935
600 854.962 341.935
600 862.595 341.935
600 870.229 341.935
600 877.863 341.935
600 885.496 335.484
600 893.13 335.484
600 900.763 335.484
600 908.397 335.484
600 916.031 335.484
600 923.664 335.484
604.348 152.672 258.065
604.348 160.305 348.387
604.348 167.939 348.387
604.348 175.573 303.226
604.348 183.206 483.871
604.348 190.84 400
604.348 198.473 445.161
604.348 206.107 387.097
604.348 213.74 516.129
604.348 221.374 380.645
604.348 229.008 438.71
604.348 236.641 374.194
604.348 244.275 322.581
604.348 251.908 438.71
604.348 259.542 380.645
604.348 267.176 380.645
604.348 274.809 380.645
604.348 282.443 380.645
604.348 290.076 406.452
604.348 297.71 400
604.348 305.344 664.516
604.348 312.977 374.194
604.348 320.611 587.097
604.348 328.244 587.097
604.348 335.878 625.806
604.348 343.511 522.581
604.348 351.145 361.29
604.348 358.779 412.903
604.348 366.412 367.742
604.348 374.046 354.839
604.348 381.679 180.645
604.348 580.153 25.8065
604.348 587.786 135.484
604.348 595.42 135.484
604.348 603.053 135.484
604.348 610.687 238.71
604.348 618.321 387.097
604.348 625.954 393.548
604.348 633.588 406.452
604.348 641.221 412.903
604.348 648.855 438.71
604.348 656.489 432.258
604.348 664.122 419.355
604.348 671.756 561.29
604.348 679.389 587.097
604.348 687.023 593.548
604.348 694.656 587.097
604.348 702.29 600
604.348 709.924 683.871
604.348 717.557 580.645
604.348 725.191 580.645
604.348 732.824 496.774
604.348 740.458 716.129
604.348 748.092 696.774
604.348 755.725 677.419
604.348 763.359 729.032
604.348 770.992 483.871
604.348 778.626 400
604.348 786.26 400
604.348 793.893 548.387
604.348 801.527 400
604.348 809.16 374.194
604.348 816.794 367.742
604.348 824.427 348.387
604.348 832.061 341.935
604.348 839.695 341.935
604.348 847.328 341.935
604.348 854.962 341.935
604.348 862.595 341.935
604.348 870.229 341.935
604.348 877.863 341.935
604.348 885.496 341.935
604.348 893.13 341.935
604.348 900.763 335.484
604.348 908.397 335.484
604.348 916.031 335.484
604.348 923.664 335.484
608.696 160.305 406.452
608.696 167.939 348.387
608.696 175.573 348.387
608.696 183.206 303.226
608.696 190.84 451.613
608.696 198.473 470.968
608.696 206.107 425.806
608.696 213.74 509.677
608.696 221.374 296.774
608.696 229.008 458.065
608.696 236.641 374.194
608.696 244.275 374.194
608.696 251.908 270.968
608.696 259.542 380.645
608.696 267.176 380.645
608.696 274.809 380.645
608.696 282.443 380.645
608.696 290.076 400
608.696 297.71 503.226
608.696 305.344 354.839
608.696 312.977 567.742
608.696 320.611 593.548
608.696 328.244 554.839
608.696 335.878 541.935
608.696 343.511 432.258
608.696 351.145 412.903
608.696 358.779 400
608.696 366.412 412.903
608.696 374.046 425.806
608.696 381.679 187.097
608.696 587.786 90.3226
608.696 595.42 135.484
608.696 603.053 135.484
608.696 610.687 387.097
608.696 618.321 393.548
608.696 625.954 393.548
608.696 633.588 412.903
608.696 641.221 412.903
608.696 648.855 425.806
608.696 656.489 438.71
608.696 664.122 587.097
608.696 671.756 535.484
608.696 679.389 638.71
608.696 687.023 496.774
608.696 694.656 516.129
608.696 702.29 451.613
608.696 709.924 400
608.696 717.557 400
608.696 725.191 400
608.696 732.824 348.387
608.696 740.458 464.516
608.696 748.092 670.968
608.696 755.725 761.29
608.696 763.359 516.129
608.696 770.992 574.194
608.696 778.626 393.548
608.696 786.26 451.613
608.696 793.893 400
608.696 801.527 425.806
608.696 809.16 367.742
608.696 816.794 367.742
608.696 824.427 348.387
608.696 832.061 341.935
608.696 839.695 341.935
608.696 847.328 341.935
608.696 854.962 341.935
608.696 862.595 341.935
608.696 870.229 341.935
608.696 877.863 341.935
608.696 885.496 341.935
608.696 893.13 341.935
608.696 900.763 341.935
608.696 908.397 335.484
608.696 916.031 335.484
608.696 923.664 335.484
608.696 931.298 335.484
613.043 167.939 348.387
613.043 175.573 348.387
613.043 183.206 348.387
613.043 190.84 470.968
613.043 198.473 438.71
613.043 206.107 509.677
613.043 213.74 516.129
613.043 221.374 380.645
613.043 229.008 509.677
613.043 236.641 374.194
613.043 244.275 374.194
613.043 251.908 322.581
613.043 259.542 438.71
613.043 267.176 380.645
613.043 274.809 380.645
613.043 282.443 380.645
613.043 290.076 406.452
613.043 297.71 470.968
613.043 305.344 374.194
613.043 312.977 470.968
613.043 320.611 329.032
613.043 328.244 509.677
613.043 335.878 432.258
613.043 343.511 522.581
613.043 351.145 509.677
613.043 358.779 387.097
613.043 366.412 458.065
613.043 374.046 393.548
613.043 381.679 141.935
613.043 587.786 45.1613
613.043 595.42 122.581
613.043 603.053 83.871
613.043 610.687 341.935
613.043 618.321 393.548
613.043 625.954 400
613.043 633.588 406.452
613.043 641.221 412.903
613.043 648.855 412.903
613.043 656.489 438.71
613.043 664.122 587.097
613.043 671.756 451.613
613.043 679.389 716.129
613.043 687.023 619.355
613.043 694.656 432.258
613.043 702.29 477.419
613.043 709.924 400
613.043 717.557 400
613.043 725.191 412.903
613.043 732.824 380.645
613.043 740.458 509.677
613.043 748.092 387.097
613.043 755.725 761.29
613.043 763.359 664.516
613.043 770.992 651.613
613.043 778.626 535.484
613.043 786.26 432.258
613.043 793.893 432.258
613.043 801.527 541.935
613.043 809.16 393.548
613.043 816.794 348.387
613.043 824.427 348.387
613.043 832.061 348.387
613.043 839.695 341.935
613.043 847.328 341.935
613.043 854.962 341.935
613.043 862.595 341.935
613.043 870.229 341.935
613.043 877.863 341.935
613.043 885.496 341.935
613.043 893.13 341.935
613.043 900.763 341.935
613.043 908.397 335.484
613.043 916.031 335.484
613.043 923.664 335.484
613.043 931.298 335.484
613.043 938.931 335.484
617.391 183.206 348.387
617.391 190.84 348.387
617.391 198.473 464.516
617.391 206.107 490.323
617.391 213.74 548.387
617.391 221.374 458.065
617.391 229.008 535.484
617.391 236.641 425.806
617.391 244.275 380.645
617.391 251.908 374.194
617.391 259.542 264.516
617.391 267.176 380.645
617.391 274.809 380.645
617.391 282.443 380.645
617.391 290.076 406.452
617.391 297.71 470.968
617.391 305.344 438.71
617.391 312.977 367.742
617.391 320.611 374.194
617.391 328.244 670.968
617.391 335.878 496.774
617.391 343.511 541.935
617.391 351.145 516.129
617.391 358.779 374.194
617.391 366.412 503.226
617.391 374.046 309.677
617.391 381.679 174.194
617.391 587.786 45.1613
617.391 595.42 122.581
617.391 603.053 380.645
617.391 610.687 290.323
617.391 618.321 393.548
617.391 625.954 400
617.391 633.588 406.452
617.391 641.221 412.903
617.391 648.855 412.903
617.391 656.489 419.355
617.391 664.122 548.387
617.391 671.756 451.613
617.391 679.389 580.645
617.391 687.023 496.774
617.391 694.656 470.968
617.391 702.29 400
617.391 709.924 400
617.391 717.557 400
617.391 725.191 432.258
617.391 732.824 451.613
617.391 740.458 535.484
617.391 748.092 419.355
617.391 755.725 690.323
617.391 763.359 580.645
617.391 770.992 567.742
617.391 778.626 658.065
617.391 786.26 625.806
617.391 793.893 554.839
617.391 801.527 406.452
617.391 809.16 348.387
617.391 816.794 348.387
617.391 824.427 348.387
617.391 832.061 348.387
617.391 839.695 348.387
617.391 847.328 348.387
617.391 854.962 341.935
617.391 862.595 341.935
617.391 870.229 341.935
617.391 877.863 341.935
617.391 885.496 341.935
617.391 893.13 341.935
617.391 900.763 341.935
617.391 908.397 341.935
617.391 916.031 335.484
617.391 923.664 335.484
617.391 931.298 335.484
617.391 938.931 335.484
617.391 946.565 335.484
621.739 198.473 354.839
621.739 206.107 258.065
621.739 213.74 387.097
621.739 221.374 451.613
621.739 229.008 503.226
621.739 236.641 567.742
621.739 244.275 451.613
621.739 251.908 374.194
621.739 259.542 322.581
621.739 267.176 438.71
621.739 274.809 380.645
621.739 282.443 380.645
621.739 290.076 406.452
621.739 297.71 470.968
621.739 305.344 458.065
621.739 312.977 509.677
621.739 320.611 535.484
621.739 328.244 587.097
621.739 335.878 438.71
621.739 343.511 470.968
621.739 351.145 561.29
621.739 358.779 374.194
621.739 366.412 503.226
621.739 374.046 367.742
621.739 381.679 219.355
621.739 587.786 25.8065
621.739 595.42 122.581
621.739 603.053 380.645
621.739 610.687 135.484
621.739 618.321 393.548
621.739 625.954 393.548
621.739 633.588 406.452
621.739 641.221 406.452
621.739 648.855 412.903
621.739 656.489 432.258
621.739 664.122 516.129
621.739 671.756 625.806
621.739 679.389 574.194
621.739 687.023 470.968
621.739 694.656 406.452
621.739 702.29 400
621.739 709.924 400
621.739 717.557 419.355
621.739 725.191 451.613
621.739 732.824 477.419
621.739 740.458 380.645
621.739 748.092 509.677
621.739 755.725 387.097
621.739 763.359 606.452
621.739 770.992 548.387
621.739 778.626 541.935
621.739 786.26 541.935
621.739 793.893 348.387
621.739 801.527 348.387
621.739 809.16 348.387
621.739 816.794 348.387
621.739 824.427 348.387
621.739 832.061 348.387
621.739 839.695 348.387
621.739 847.328 348.387
621.739 854.962 348.387
621.739 862.595 348.387
621.739 870.229 348.387
621.739 877.863 348.387
621.739 885.496 341.935
621.739 893.13 341.935
621.739 900.763 341.935
621.739 908.397 335.484
621.739 916.031 335.484
621.739 923.664 335.484
621.739 931.298 335.484
621.739 938.931 335.484
621.739 946.565 335.484
621.739 954.198 335.484
626.087 206.107 309.677
626.087 213.74 419.355
626.087 221.374 451.613
626.087 229.008 535.484
626.087 236.641 503.226
626.087 244.275 509.677
626.087 251.908 432.258
626.087 259.542 374.194
626.087 267.176 322.581
626.087 274.809 387.097
626.087 282.443 393.548
626.087 290.076 425.806
626.087 297.71 470.968
626.087 305.344 483.871
626.087 312.977 548.387
626.087 320.611 438.71
626.087 328.244 612.903
626.087 335.878 438.71
626.087 343.511 561.29
626.087 351.145 580.645
626.087 358.779 374.194
626.087 366.412 522.581
626.087 374.046 367.742
626.087 381.679 200
626.087 595.42 77.4194
626.087 603.053 329.032
626.087 610.687 83.871
626.087 618.321 341.935
626.087 625.954 393.548
626.087 633.588 400
626.087 641.221 406.452
626.087 648.855 419.355
626.087 656.489 432.258
626.087 664.122 464.516
626.087 671.756 632.258
626.087 679.389 470.968
626.087 687.023 412.903
626.087 694.656 400
626.087 702.29 400
626.087 709.924 412.903
626.087 717.557 451.613
626.087 725.191 477.419
626.087 732.824 593.548
626.087 740.458 451.613
626.087 748.092 561.29
626.087 755.725 445.161
626.087 763.359 580.645
626.087 770.992 548.387
626.087 778.626 541.935
626.087 786.26 354.839
626.087 793.893 354.839
626.087 801.527 348.387
626.087 809.16 348.387
626.087 816.794 348.387
626.087 824.427 348.387
626.087 832.061 348.387
626.087 839.695 348.387
626.087 847.328 348.387
626.087 854.962 348.387
626.087 862.595 348.387
626.087 870.229 348.387
626.087 877.863 348.387
626.087 885.496 348.387
626.087 893.13 341.935
626.087 900.763 341.935
626.087 908.397 341.935
626.087 916.031 335.484
626.087 923.664 335.484
626.087 931.298 335.484
626.087 938.931 335.484
626.087 946.565 335.484
626.087 954.198 335.484
626.087 961.832 335.484
630.435 213.74 309.677
630.435 221.374 458.065
630.435 229.008 529.032
630.435 236.641 387.097
630.435 244.275 470.968
630.435 251.908 458.065
630.435 259.542 374.194
630.435 267.176 374.194
630.435 274.809 322.581
630.435 282.443 406.452
630.435 290.076 445.161
630.435 297.71 477.419
630.435 305.344 567.742
630.435 312.977 509.677
630.435 320.611 451.613
630.435 328.244 529.032
630.435 335.878 509.677
630.435 343.511 535.484
630.435 351.145 580.645
630.435 358.779 419.355
630.435 366.412 374.194
630.435 374.046 361.29
630.435 381.679 193.548
630.435 595.42 45.1613
630.435 603.053 277.419
630.435 610.687 380.645
630.435 618.321 290.323
630.435 625.954 393.548
630.435 633.588 393.548
630.435 641.221 412.903
630.435 648.855 451.613
630.435 656.489 432.258
630.435 664.122 477.419
630.435 671.756 612.903
630.435 679.389 432.258
630.435 687.023 412.903
630.435 694.656 400
630.435 702.29 406.452
630.435 709.924 451.613
630.435 717.557 477.419
630.435 725.191 593.548
630.435 732.824 451.613
630.435 740.458 483.871
630.435 748.092 458.065
630.435 755.725 445.161
630.435 763.359 206.452
630.435 770.992 374.194
630.435 778.626 354.839
630.435 786.26 354.839
630.435 793.893 354.839
630.435 801.527 348.387
630.435 809.16 348.387
630.435 816.794 348.387
630.435 824.427 348.387
630.435 832.061 348.387
630.435 839.695 348.387
630.435 847.328 348.387
630.435 854.962 348.387
630.435 862.595 348.387
630.435 870.229 348.387
630.435 877.863 348.387
630.435 885.496 348.387
630.435 893.13 348.387
630.435 900.763 341.935
630.435 908.397 341.935
630.435 916.031 335.484
630.435 923.664 335.484
630.435 931.298 335.484
630.435 938.931 335.484
630.435 946.565 335.484
630.435 954.198 335.484
630.435 961.832 335.484
634.783 221.374 412.903
634.783 229.008 503.226
634.783 236.641 535.484
634.783 244.275 419.355
634.783 251.908 483.871
634.783 259.542 438.71
634.783 267.176 374.194
634.783 274.809 380.645
634.783 282.443 367.742
634.783 290.076 529.032
634.783 297.71 470.968
634.783 305.344 561.29
634.783 312.977 477.419
634.783 320.611 529.032
634.783 328.244 541.935
634.783 335.878 580.645
634.783 343.511 574.194
634.783 351.145 600
634.783 358.779 419.355
634.783 366.412 374.194
634.783 374.046 412.903
634.783 381.679 193.548
634.783 595.42 25.8065
634.783 603.053 122.581
634.783 610.687 380.645
634.783 618.321 135.484
634.783 625.954 393.548
634.783 633.588 400
634.783 641.221 425.806
634.783 648.855 477.419
634.783 656.489 432.258
634.783 664.122 477.419
634.783 671.756 587.097
634.783 679.389 412.903
634.783 687.023 548.387
634.783 694.656 412.903
634.783 702.29 425.806
634.783 709.924 477.419
634.783 717.557 593.548
634.783 725.191 451.613
634.783 732.824 490.323
634.783 740.458 470.968
634.783 748.092 445.161
634.783 755.725 400
634.783 763.359 400
634.783 770.992 348.387
634.783 778.626 374.194
634.783 786.26 354.839
634.783 793.893 354.839
634.783 801.527 354.839
634.783 809.16 348.387
634.783 816.794 348.387
634.783 824.427 348.387
634.783 832.061 348.387
634.783 839.695 348.387
634.783 847.328 348.387
634.783 854.962 348.387
634.783 862.595 348.387
634.783 870.229 348.387
634.783 877.863 348.387
634.783 885.496 348.387
634.783 893.13 341.935
634.783 900.763 341.935
634.783 908.397 341.935
634.783 916.031 341.935
634.783 923.664 335.484
634.783 931.298 335.484
634.783 938.931 335.484
634.783 946.565 335.484
634.783 954.198 335.484
639.13 229.008 361.29
639.13 236.641 535.484
639.13 244.275 451.613
639.13 251.908 445.161
639.13 259.542 451.613
639.13 267.176 393.548
639.13 274.809 412.903
639.13 282.443 219.355
639.13 290.076 367.742
639.13 297.71 264.516
639.13 305.344 561.29
639.13 312.977 477.419
639.13 320.611 529.032
639.13 328.244 574.194
639.13 335.878 509.677
639.13 343.511 477.419
639.13 351.145 593.548
639.13 358.779 419.355
639.13 366.412 374.194
639.13 374.046 374.194
639.13 381.679 135.484
639.13 595.42 25.8065
639.13 603.053 122.581
639.13 610.687 380.645
639.13 618.321 135.484
639.13 625.954 387.097
639.13 633.588 393.548
639.13 641.221 419.355
639.13 648.855 574.194
639.13 656.489 438.71
639.13 664.122 451.613
639.13 671.756 587.097
639.13 679.389 432.258
639.13 687.023 509.677
639.13 694.656 438.71
639.13 702.29 451.613
639.13 709.924 600
639.13 717.557 458.065
639.13 725.191 477.419
639.13 732.824 400
639.13 740.458 400
639.13 748.092 400
639.13 755.725 400
639.13 763.359 400
639.13 770.992 400
639.13 778.626 348.387
639.13 786.26 387.097
639.13 793.893 354.839
639.13 801.527 354.839
639.13 809.16 348.387
639.13 816.794 348.387
639.13 824.427 348.387
639.13 832.061 348.387
639.13 839.695 348.387
639.13 847.328 348.387
639.13 854.962 348.387
639.13 862.595 348.387
639.13 870.229 348.387
639.13 877.863 348.387
639.13 885.496 348.387
639.13 893.13 341.935
639.13 900.763 341.935
639.13 908.397 341.935
639.13 916.031 341.935
639.13 923.664 341.935
639.13 931.298 335.484
639.13 938.931 335.484
639.13 946.565 335.484
643.478 229.008 361.29
643.478 236.641 393.548
643.478 244.275 258.065
643.478 251.908 309.677
643.478 259.542 335.484
643.478 267.176 232.258
643.478 274.809 219.355
