226.601 434.343 428.571
226.601 439.394 584.416
226.601 444.444 272.727
226.601 449.495 662.338
226.601 454.545 590.909
226.601 459.596 272.727
226.601 464.646 655.844
226.601 469.697 655.844
226.601 474.747 181.818
226.601 479.798 636.364
226.601 484.848 642.857
226.601 489.899 181.818
226.601 494.949 642.857
226.601 500 766.234
226.601 505.051 285.714
226.601 510.101 785.714
226.601 515.152 785.714
226.601 520.202 383.117
226.601 525.253 785.714
226.601 530.303 792.208
226.601 535.354 383.117
226.601 540.404 798.701
226.601 545.455 779.221
226.601 550.505 610.39
226.601 555.556 779.221
226.601 565.657 824.675
226.601 570.707 285.714
226.601 575.758 824.675
226.601 580.808 831.169
226.601 585.859 292.208
226.601 590.909 824.675
226.601 595.96 798.701
226.601 601.01 519.481
226.601 606.061 811.688
226.601 611.111 805.195
226.601 616.162 467.532
226.601 621.212 805.195
226.601 631.313 805.195
226.601 636.364 51.9481
226.601 641.414 805.195
226.601 646.465 811.688
226.601 651.515 64.9351
226.601 656.566 811.688
226.601 666.667 798.701
226.601 671.717 168.831
226.601 676.768 798.701
226.601 681.818 792.208
226.601 686.869 142.857
226.601 691.919 792.208
226.601 702.02 818.182
226.601 707.071 32.4675
226.601 712.121 824.675
226.601 722.222 818.182
226.601 727.273 19.4805
226.601 732.323 818.182
226.601 737.374 805.195
226.601 742.424 123.377
226.601 747.475 798.701
226.601 757.576 818.182
226.601 762.626 103.896
226.601 767.677 811.688
226.601 777.778 870.13
226.601 787.879 863.636
226.601 797.98 876.623
226.601 808.081 876.623
226.601 818.182 883.117
226.601 823.232 71.4286
226.601 828.283 876.623
226.601 838.384 844.156
226.601 843.434 123.377
226.601 848.485 857.143
226.601 858.586 941.558
226.601 863.636 12.987
226.601 868.687 922.078
226.601 878.788 753.247
226.601 883.838 480.519
226.601 888.889 753.247
231.527 338.384 435.065
231.527 343.434 435.065
231.527 348.485 441.558
231.527 353.535 441.558
231.527 358.586 441.558
231.527 363.636 441.558
231.527 368.687 448.052
231.527 373.737 448.052
231.527 378.788 448.052
231.527 383.838 448.052
231.527 388.889 454.545
231.527 393.939 461.039
231.527 398.99 461.039
231.527 404.04 435.065
231.527 409.091 461.039
231.527 414.141 461.039
231.527 419.192 610.39
231.527 434.343 422.078
231.527 439.394 584.416
231.527 444.444 266.234
231.527 449.495 584.416
231.527 454.545 629.87
231.527 459.596 629.87
231.527 464.646 694.805
231.527 469.697 694.805
231.527 474.747 454.545
231.527 479.798 727.273
231.527 484.848 564.935
231.527 489.899 253.247
231.527 494.949 642.857
231.527 500 558.442
231.527 505.051 253.247
231.527 510.101 759.74
231.527 515.152 798.701
231.527 520.202 331.169
231.527 525.253 811.688
231.527 530.303 785.714
231.527 535.354 441.558
231.527 540.404 811.688
231.527 545.455 779.221
231.527 550.505 376.623
231.527 555.556 779.221
231.527 565.657 824.675
231.527 570.707 214.286
231.527 575.758 824.675
231.527 580.808 824.675
231.527 585.859 279.221
231.527 590.909 837.662
231.527 595.96 805.195
231.527 601.01 564.935
231.527 606.061 824.675
231.527 611.111 798.701
231.527 616.162 448.052
231.527 621.212 811.688
231.527 631.313 818.182
231.527 636.364 155.844
231.527 641.414 805.195
231.527 646.465 818.182
231.527 651.515 64.9351
231.527 656.566 811.688
231.527 666.667 805.195
231.527 671.717 162.338
231.527 676.768 798.701
231.527 681.818 798.701
231.527 686.869 64.9351
231.527 691.919 792.208
231.527 702.02 805.195
231.527 707.071 90.9091
231.527 712.121 818.182
231.527 722.222 824.675
231.527 727.273 19.4805
231.527 732.323 824.675
231.527 737.374 805.195
231.527 742.424 64.9351
231.527 747.475 805.195
231.527 757.576 831.169
231.527 762.626 64.9351
231.527 767.677 824.675
231.527 777.778 870.13
231.527 787.879 870.13
231.527 797.98 883.117
231.527 808.081 876.623
231.527 818.182 896.104
231.527 823.232 116.883
231.527 828.283 883.117
231.527 838.384 857.143
231.527 843.434 110.39
231.527 848.485 844.156
231.527 858.586 941.558
231.527 863.636 32.4675
231.527 868.687 941.558
231.527 878.788 811.688
231.527 883.838 662.338
231.527 888.889 811.688
236.453 348.485 435.065
236.453 363.636 441.558
236.453 368.687 441.558
236.453 373.737 441.558
236.453 378.788 454.545
236.453 383.838 441.558
236.453 388.889 448.052
236.453 393.939 454.545
236.453 398.99 454.545
236.453 404.04 454.545
236.453 409.091 461.039
236.453 414.141 461.039
236.453 419.192 461.039
236.453 424.242 454.545
236.453 429.293 454.545
236.453 434.343 454.545
236.453 439.394 461.039
236.453 444.444 461.039
236.453 449.495 590.909
236.453 454.545 623.377
236.453 459.596 623.377
236.453 464.646 629.87
236.453 469.697 623.377
236.453 474.747 623.377
236.453 479.798 688.312
236.453 484.848 422.078
236.453 489.899 422.078
236.453 494.949 571.429
236.453 500 564.935
236.453 505.051 253.247
236.453 510.101 642.857
236.453 515.152 779.221
236.453 520.202 305.195
236.453 525.253 818.182
236.453 530.303 740.26
236.453 535.354 350.649
236.453 540.404 792.208
236.453 545.455 766.234
236.453 550.505 454.545
236.453 555.556 779.221
236.453 565.657 805.195
236.453 570.707 558.442
236.453 575.758 837.662
236.453 580.808 818.182
236.453 585.859 285.714
236.453 590.909 818.182
236.453 595.96 818.182
236.453 601.01 448.052
236.453 606.061 824.675
236.453 611.111 805.195
236.453 616.162 448.052
236.453 621.212 824.675
236.453 631.313 811.688
236.453 636.364 285.714
236.453 641.414 818.182
236.453 646.465 831.169
236.453 651.515 155.844
236.453 656.566 831.169
236.453 666.667 811.688
236.453 671.717 175.325
236.453 676.768 805.195
236.453 681.818 798.701
236.453 686.869 58.4416
236.453 691.919 798.701
236.453 702.02 792.208
236.453 707.071 90.9091
236.453 712.121 805.195
236.453 722.222 831.169
236.453 727.273 58.4416
236.453 732.323 824.675
236.453 737.374 811.688
236.453 742.424 38.961
236.453 747.475 811.688
236.453 757.576 831.169
236.453 762.626 110.39
236.453 767.677 824.675
236.453 777.778 876.623
236.453 787.879 876.623
236.453 797.98 876.623
236.453 808.081 876.623
236.453 818.182 889.61
236.453 823.232 123.377
236.453 828.283 883.117
236.453 838.384 870.13
236.453 843.434 142.857
236.453 848.485 850.649
236.453 858.586 961.039
236.453 868.687 941.558
236.453 878.788 811.688
236.453 883.838 480.519
236.453 888.889 811.688
241.379 378.788 441.558
241.379 383.838 441.558
241.379 388.889 441.558
241.379 393.939 441.558
241.379 398.99 441.558
241.379 404.04 454.545
241.379 409.091 461.039
241.379 414.141 461.039
241.379 419.192 461.039
241.379 424.242 448.052
241.379 429.293 448.052
241.379 434.343 448.052
241.379 439.394 636.364
241.379 444.444 285.714
241.379 449.495 636.364
241.379 454.545 707.792
241.379 459.596 467.532
241.379 464.646 714.286
241.379 469.697 707.792
241.379 474.747 461.039
241.379 479.798 714.286
241.379 484.848 435.065
241.379 489.899 435.065
241.379 494.949 415.584
241.379 500 577.922
241.379 505.051 259.74
241.379 510.101 655.844
241.379 515.152 759.74
241.379 520.202 571.429
241.379 525.253 779.221
241.379 530.303 688.312
241.379 535.354 454.545
241.379 540.404 740.26
241.379 545.455 714.286
241.379 550.505 714.286
241.379 555.556 766.234
241.379 565.657 798.701
241.379 570.707 246.753
241.379 575.758 805.195
241.379 580.808 805.195
241.379 585.859 324.675
241.379 590.909 818.182
241.379 595.96 798.701
241.379 601.01 318.182
241.379 606.061 824.675
241.379 611.111 805.195
241.379 616.162 279.221
241.379 621.212 805.195
241.379 631.313 824.675
241.379 636.364 396.104
241.379 641.414 805.195
241.379 646.465 837.662
241.379 651.515 64.9351
241.379 656.566 837.662
241.379 666.667 824.675
241.379 671.717 220.779
241.379 676.768 818.182
241.379 681.818 805.195
241.379 686.869 51.9481
241.379 691.919 798.701
241.379 702.02 805.195
241.379 707.071 38.961
241.379 712.121 798.701
241.379 722.222 831.169
241.379 727.273 51.9481
241.379 732.323 831.169
241.379 737.374 818.182
241.379 742.424 155.844
241.379 747.475 811.688
241.379 757.576 831.169
241.379 762.626 58.4416
241.379 767.677 831.169
241.379 777.778 876.623
241.379 787.879 876.623
241.379 797.98 876.623
241.379 808.081 883.117
241.379 818.182 889.61
241.379 823.232 84.4156
241.379 828.283 883.117
241.379 838.384 876.623
241.379 843.434 227.273
241.379 848.485 876.623
241.379 858.586 961.039
241.379 868.687 961.039
241.379 878.788 850.649
241.379 883.838 597.403
241.379 888.889 850.649
246.305 388.889 441.558
246.305 393.939 441.558
246.305 398.99 441.558
246.305 404.04 441.558
246.305 409.091 454.545
246.305 414.141 454.545
246.305 419.192 454.545
246.305 424.242 448.052
246.305 429.293 448.052
246.305 434.343 448.052
246.305 439.394 629.87
246.305 444.444 305.195
246.305 449.495 642.857
246.305 454.545 642.857
246.305 459.596 292.208
246.305 464.646 707.792
246.305 469.697 636.364
246.305 474.747 285.714
246.305 479.798 707.792
246.305 484.848 610.39
246.305 489.899 610.39
246.305 494.949 616.883
246.305 500 577.922
246.305 505.051 259.74
246.305 510.101 577.922
246.305 515.152 759.74
246.305 520.202 571.429
246.305 525.253 779.221
246.305 530.303 636.364
246.305 535.354 636.364
246.305 540.404 694.805
246.305 545.455 623.377
246.305 550.505 623.377
246.305 555.556 714.286
246.305 565.657 753.247
246.305 570.707 558.442
246.305 575.758 792.208
246.305 580.808 766.234
246.305 585.859 448.052
246.305 590.909 805.195
246.305 595.96 792.208
246.305 601.01 318.182
246.305 606.061 805.195
246.305 611.111 805.195
246.305 616.162 207.792
246.305 621.212 824.675
246.305 631.313 831.169
246.305 636.364 259.74
246.305 641.414 831.169
246.305 646.465 837.662
246.305 651.515 246.753
246.305 656.566 837.662
246.305 666.667 831.169
246.305 671.717 84.4156
246.305 676.768 824.675
246.305 681.818 785.714
246.305 686.869 136.364
246.305 691.919 805.195
246.305 702.02 818.182
246.305 707.071 38.961
246.305 712.121 805.195
246.305 722.222 837.662
246.305 727.273 51.9481
246.305 732.323 831.169
246.305 737.374 818.182
246.305 742.424 25.974
246.305 747.475 818.182
246.305 757.576 837.662
246.305 767.677 831.169
246.305 777.778 876.623
246.305 787.879 876.623
246.305 797.98 883.117
246.305 808.081 876.623
246.305 818.182 909.091
246.305 823.232 162.338
246.305 828.283 896.104
246.305 838.384 883.117
246.305 843.434 318.182
246.305 848.485 876.623
246.305 858.586 948.052
246.305 863.636 12.987
246.305 868.687 948.052
246.305 878.788 850.649
246.305 883.838 668.831
246.305 888.889 850.649
251.232 404.04 441.558
251.232 409.091 441.558
251.232 414.141 441.558
251.232 419.192 454.545
251.232 424.242 461.039
251.232 429.293 461.039
251.232 434.343 629.87
251.232 439.394 636.364
251.232 444.444 292.208
251.232 449.495 629.87
251.232 454.545 636.364
251.232 459.596 292.208
251.232 464.646 642.857
251.232 469.697 454.545
251.232 474.747 454.545
251.232 479.798 629.87
251.232 484.848 629.87
251.232 489.899 629.87
251.232 494.949 701.299
251.232 500 422.078
251.232 505.051 422.078
251.232 510.101 577.922
251.232 515.152 759.74
251.232 520.202 370.13
251.232 525.253 759.74
251.232 530.303 636.364
251.232 535.354 636.364
251.232 540.404 629.87
251.232 545.455 636.364
251.232 550.505 636.364
251.232 555.556 694.805
251.232 565.657 753.247
251.232 570.707 558.442
251.232 575.758 772.727
251.232 580.808 740.26
251.232 585.859 551.948
251.232 590.909 766.234
251.232 595.96 798.701
251.232 601.01 207.792
251.232 606.061 792.208
251.232 611.111 759.74
251.232 616.162 441.558
251.232 621.212 805.195
251.232 631.313 844.156
251.232 636.364 240.26
251.232 641.414 850.649
251.232 646.465 850.649
251.232 651.515 58.4416
251.232 656.566 837.662
251.232 666.667 811.688
251.232 671.717 279.221
251.232 676.768 831.169
251.232 681.818 792.208
251.232 686.869 136.364
251.232 691.919 805.195
251.232 702.02 818.182
251.232 707.071 32.4675
251.232 712.121 818.182
251.232 722.222 837.662
251.232 727.273 25.974
251.232 732.323 831.169
251.232 737.374 824.675
251.232 742.424 103.896
251.232 747.475 818.182
251.232 757.576 857.143
251.232 762.626 38.961
251.232 767.677 844.156
251.232 777.778 876.623
251.232 787.879 876.623
251.232 797.98 883.117
251.232 808.081 883.117
251.232 818.182 889.61
251.232 823.232 162.338
251.232 828.283 889.61
251.232 838.384 889.61
251.232 843.434 337.662
251.232 848.485 883.117
251.232 858.586 948.052
251.232 863.636 25.974
251.232 868.687 948.052
251.232 878.788 896.104
251.232 883.838 818.182
251.232 888.889 896.104
256.158 202.02 428.571
256.158 207.071 428.571
256.158 212.121 428.571
256.158 217.172 435.065
256.158 222.222 435.065
256.158 227.273 441.558
256.158 232.323 441.558
256.158 338.384 448.052
256.158 343.434 448.052
256.158 348.485 448.052
256.158 368.687 448.052
256.158 373.737 448.052
256.158 378.788 448.052
256.158 383.838 454.545
256.158 388.889 454.545
256.158 393.939 461.039
256.158 398.99 461.039
256.158 404.04 461.039
256.158 409.091 461.039
256.158 414.141 461.039
256.158 419.192 623.377
256.158 424.242 461.039
256.158 429.293 461.039
256.158 434.343 461.039
256.158 439.394 636.364
256.158 444.444 298.701
256.158 449.495 636.364
256.158 454.545 441.558
256.158 459.596 441.558
256.158 464.646 636.364
256.158 469.697 441.558
256.158 474.747 441.558
256.158 479.798 454.545
256.158 484.848 454.545
256.158 489.899 454.545
256.158 494.949 629.87
256.158 500 422.078
256.158 505.051 422.078
256.158 510.101 422.078
256.158 515.152 603.896
256.158 520.202 603.896
256.158 525.253 759.74
256.158 530.303 506.494
256.158 535.354 506.494
256.158 540.404 636.364
256.158 545.455 422.078
256.158 550.505 422.078
256.158 555.556 636.364
256.158 565.657 694.805
256.158 570.707 454.545
256.158 575.758 753.247
256.158 580.808 707.792
256.158 585.859 467.532
256.158 590.909 740.26
256.158 595.96 759.74
256.158 601.01 285.714
256.158 606.061 798.701
256.158 611.111 688.312
256.158 616.162 688.312
256.158 621.212 759.74
256.158 631.313 831.169
256.158 636.364 259.74
256.158 641.414 844.156
256.158 646.465 844.156
256.158 651.515 149.351
256.158 656.566 850.649
256.158 666.667 837.662
256.158 671.717 246.753
256.158 676.768 824.675
256.158 681.818 798.701
256.158 686.869 58.4416
256.158 691.919 805.195
256.158 702.02 824.675
256.158 707.071 45.4545
256.158 712.121 824.675
256.158 722.222 831.169
256.158 727.273 71.4286
256.158 732.323 837.662
256.158 737.374 824.675
256.158 742.424 71.4286
256.158 747.475 818.182
256.158 757.576 857.143
256.158 762.626 45.4545
256.158 767.677 850.649
256.158 777.778 876.623
256.158 787.879 876.623
256.158 797.98 883.117
256.158 808.081 883.117
256.158 818.182 876.623
256.158 823.232 32.4675
256.158 828.283 889.61
256.158 838.384 889.61
256.158 843.434 201.299
256.158 848.485 883.117
256.158 858.586 922.078
256.158 863.636 136.364
256.158 868.687 922.078
256.158 878.788 935.065
256.158 883.838 720.779
256.158 888.889 935.065
261.084 186.869 428.571
261.084 191.919 428.571
261.084 196.97 428.571
261.084 202.02 428.571
261.084 207.071 428.571
261.084 212.121 428.571
261.084 217.172 435.065
261.084 222.222 435.065
261.084 227.273 441.558
261.084 232.323 441.558
261.084 313.131 448.052
261.084 318.182 448.052
261.084 323.232 448.052
261.084 338.384 448.052
261.084 343.434 448.052
261.084 348.485 448.052
261.084 368.687 454.545
261.084 373.737 454.545
261.084 378.788 454.545
261.084 383.838 454.545
261.084 388.889 454.545
261.084 393.939 461.039
261.084 398.99 461.039
261.084 404.04 461.039
261.084 409.091 461.039
261.084 414.141 461.039
261.084 419.192 461.039
261.084 424.242 467.532
261.084 429.293 467.532
261.084 434.343 461.039
261.084 439.394 480.519
261.084 444.444 480.519
261.084 449.495 636.364
261.084 464.646 441.558
261.084 469.697 441.558
261.084 474.747 441.558
261.084 479.798 441.558
261.084 484.848 448.052
261.084 489.899 448.052
261.084 494.949 454.545
261.084 500 428.571
261.084 505.051 428.571
261.084 510.101 422.078
261.084 515.152 422.078
261.084 520.202 422.078
261.084 525.253 603.896
261.084 540.404 506.494
261.084 545.455 422.078
261.084 550.505 422.078
261.084 555.556 422.078
261.084 565.657 636.364
261.084 570.707 636.364
261.084 575.758 701.299
261.084 580.808 623.377
261.084 585.859 623.377
261.084 590.909 707.792
261.084 595.96 616.883
261.084 601.01 616.883
261.084 606.061 759.74
261.084 611.111 720.779
261.084 616.162 720.779
261.084 621.212 785.714
261.084 631.313 805.195
261.084 636.364 324.675
261.084 641.414 831.169
261.084 646.465 824.675
261.084 651.515 292.208
261.084 656.566 837.662
261.084 666.667 857.143
261.084 671.717 162.338
261.084 676.768 850.649
261.084 681.818 811.688
261.084 686.869 155.844
261.084 691.919 811.688
261.084 702.02 824.675
261.084 707.071 51.9481
261.084 712.121 824.675
261.084 722.222 831.169
261.084 727.273 32.4675
261.084 732.323 831.169
261.084 737.374 831.169
261.084 742.424 25.974
261.084 747.475 824.675
261.084 757.576 857.143
261.084 767.677 850.649
261.084 777.778 876.623
261.084 787.879 876.623
261.084 797.98 876.623
261.084 808.081 876.623
261.084 818.182 883.117
261.084 823.232 12.987
261.084 828.283 883.117
261.084 838.384 870.13
261.084 843.434 181.818
261.084 848.485 870.13
261.084 858.586 889.61
261.084 863.636 168.831
261.084 868.687 889.61
261.084 878.788 954.545
261.084 883.838 337.662
261.084 888.889 948.052
266.01 186.869 428.571
266.01 191.919 428.571
266.01 196.97 428.571
266.01 202.02 428.571
266.01 207.071 428.571
266.01 212.121 428.571
266.01 217.172 435.065
266.01 222.222 435.065
266.01 227.273 441.558
266.01 232.323 441.558
266.01 237.374 448.052
266.01 242.424 448.052
266.01 247.475 448.052
266.01 313.131 448.052
266.01 318.182 448.052
266.01 323.232 448.052
266.01 328.283 448.052
266.01 333.333 448.052
266.01 338.384 454.545
266.01 343.434 454.545
266.01 348.485 448.052
266.01 368.687 454.545
266.01 373.737 454.545
266.01 378.788 454.545
266.01 383.838 461.039
266.01 388.889 454.545
266.01 393.939 461.039
266.01 398.99 461.039
266.01 404.04 461.039
266.01 409.091 467.532
266.01 414.141 467.532
266.01 419.192 461.039
266.01 424.242 467.532
266.01 429.293 467.532
266.01 434.343 467.532
266.01 439.394 480.519
266.01 444.444 480.519
266.01 449.495 480.519
266.01 479.798 441.558
266.01 484.848 448.052
266.01 489.899 448.052
266.01 494.949 448.052
266.01 500 435.065
266.01 505.051 435.065
266.01 510.101 428.571
266.01 515.152 428.571
266.01 520.202 428.571
266.01 525.253 422.078
266.01 530.303 428.571
266.01 535.354 428.571
266.01 540.404 428.571
266.01 545.455 422.078
266.01 550.505 422.078
266.01 555.556 422.078
266.01 565.657 422.078
266.01 570.707 422.078
266.01 575.758 636.364
266.01 580.808 623.377
266.01 585.859 623.377
266.01 590.909 623.377
266.01 595.96 616.883
266.01 601.01 616.883
266.01 606.061 616.883
266.01 611.111 720.779
266.01 616.162 720.779
266.01 621.212 720.779
266.01 631.313 798.701
266.01 636.364 383.117
266.01 641.414 805.195
266.01 646.465 818.182
266.01 651.515 246.753
266.01 656.566 831.169
266.01 666.667 850.649
266.01 671.717 246.753
266.01 676.768 857.143
266.01 681.818 837.662
266.01 686.869 168.831
266.01 691.919 805.195
266.01 702.02 831.169
266.01 707.071 71.4286
266.01 712.121 824.675
266.01 722.222 844.156
266.01 732.323 831.169
266.01 737.374 831.169
266.01 742.424 19.4805
266.01 747.475 831.169
266.01 757.576 863.636
266.01 767.677 857.143
266.01 777.778 883.117
266.01 787.879 876.623
266.01 797.98 876.623
266.01 808.081 876.623
266.01 818.182 876.623
266.01 823.232 51.9481
266.01 828.283 876.623
266.01 838.384 870.13
266.01 843.434 90.9091
266.01 848.485 870.13
266.01 858.586 883.117
266.01 863.636 90.9091
266.01 868.687 876.623
266.01 878.788 967.532
266.01 883.838 188.312
266.01 888.889 961.039
270.936 186.869 428.571
270.936 191.919 428.571
270.936 196.97 428.571
270.936 202.02 435.065
270.936 207.071 435.065
270.936 212.121 435.065
270.936 217.172 435.065
270.936 222.222 435.065
270.936 227.273 441.558
270.936 232.323 441.558
270.936 237.374 448.052
270.936 242.424 448.052
270.936 247.475 448.052
270.936 297.98 448.052
270.936 303.03 448.052
270.936 308.081 448.052
270.936 323.232 448.052
270.936 328.283 448.052
270.936 333.333 448.052
270.936 338.384 454.545
270.936 343.434 454.545
270.936 348.485 454.545
270.936 353.535 461.039
270.936 358.586 461.039
270.936 363.636 461.039
270.936 368.687 461.039
270.936 373.737 461.039
270.936 378.788 461.039
270.936 383.838 461.039
270.936 388.889 461.039
270.936 393.939 467.532
270.936 398.99 467.532
270.936 404.04 461.039
270.936 409.091 467.532
270.936 414.141 467.532
270.936 419.192 467.532
270.936 424.242 474.026
270.936 429.293 474.026
270.936 434.343 467.532
270.936 439.394 480.519
270.936 444.444 480.519
270.936 449.495 480.519
270.936 484.848 448.052
270.936 489.899 448.052
270.936 494.949 448.052
270.936 500 441.558
270.936 505.051 441.558
270.936 510.101 435.065
270.936 515.152 435.065
270.936 520.202 435.065
270.936 525.253 428.571
270.936 530.303 428.571
270.936 535.354 428.571
270.936 540.404 428.571
270.936 545.455 428.571
270.936 550.505 428.571
270.936 555.556 422.078
270.936 575.758 422.078
270.936 580.808 623.377
270.936 585.859 623.377
270.936 590.909 629.87
270.936 595.96 422.078
270.936 601.01 422.078
270.936 606.061 616.883
270.936 611.111 727.273
270.936 616.162 727.273
270.936 621.212 727.273
270.936 631.313 785.714
270.936 636.364 610.39
270.936 641.414 798.701
270.936 646.465 818.182
270.936 651.515 376.623
270.936 656.566 818.182
270.936 666.667 863.636
270.936 671.717 279.221
270.936 676.768 870.13
270.936 681.818 844.156
270.936 686.869 194.805
270.936 691.919 837.662
270.936 702.02 857.143
270.936 707.071 64.9351
270.936 712.121 837.662
270.936 722.222 844.156
270.936 727.273 25.974
270.936 732.323 844.156
270.936 737.374 844.156
270.936 742.424 38.961
270.936 747.475 837.662
270.936 757.576 870.13
270.936 762.626 25.974
270.936 767.677 863.636
270.936 777.778 883.117
270.936 787.879 883.117
270.936 797.98 876.623
270.936 808.081 876.623
270.936 818.182 883.117
270.936 823.232 90.9091
270.936 828.283 870.13
270.936 838.384 876.623
270.936 843.434 149.351
270.936 848.485 876.623
270.936 858.586 883.117
270.936 863.636 97.4026
270.936 868.687 876.623
270.936 878.788 967.532
270.936 883.838 58.4416
270.936 888.889 967.532
270.936 898.99 487.013
270.936 904.04 487.013
270.936 909.091 487.013
275.862 186.869 428.571
275.862 191.919 428.571
275.862 196.97 428.571
275.862 202.02 435.065
275.862 207.071 435.065
275.862 212.121 435.065
275.862 217.172 441.558
275.862 222.222 441.558
275.862 227.273 441.558
275.862 232.323 441.558
275.862 237.374 448.052
275.862 242.424 448.052
275.862 247.475 448.052
275.862 252.525 448.052
275.862 257.576 448.052
275.862 297.98 448.052
275.862 303.03 448.052
275.862 308.081 448.052
275.862 328.283 454.545
275.862 333.333 454.545
275.862 338.384 448.052
275.862 343.434 454.545
275.862 348.485 454.545
275.862 353.535 461.039
275.862 358.586 461.039
275.862 363.636 461.039
275.862 368.687 461.039
275.862 373.737 461.039
275.862 378.788 461.039
275.862 383.838 467.532
275.862 388.889 461.039
275.862 393.939 467.532
275.862 398.99 467.532
275.862 404.04 467.532
275.862 409.091 474.026
275.862 414.141 474.026
275.862 419.192 467.532
275.862 424.242 474.026
275.862 429.293 474.026
275.862 434.343 474.026
275.862 439.394 480.519
275.862 444.444 480.519
275.862 449.495 480.519
275.862 484.848 448.052
275.862 489.899 448.052
275.862 494.949 448.052
275.862 510.101 441.558
275.862 525.253 435.065
275.862 540.404 428.571
275.862 555.556 428.571
275.862 580.808 435.065
275.862 585.859 435.065
275.862 590.909 623.377
275.862 595.96 493.506
275.862 601.01 493.506
275.862 606.061 629.87
275.862 611.111 727.273
275.862 616.162 727.273
275.862 621.212 727.273
275.862 631.313 785.714
275.862 636.364 512.987
275.862 641.414 785.714
275.862 646.465 811.688
275.862 651.515 272.727
275.862 656.566 818.182
275.862 666.667 863.636
275.862 671.717 279.221
275.862 676.768 863.636
275.862 681.818 857.143
275.862 686.869 149.351
275.862 691.919 857.143
275.862 702.02 876.623
275.862 707.071 38.961
275.862 712.121 857.143
275.862 722.222 850.649
275.862 727.273 97.4026
275.862 732.323 844.156
275.862 737.374 850.649
275.862 747.475 844.156
275.862 757.576 870.13
275.862 762.626 25.974
275.862 767.677 870.13
275.862 777.778 883.117
275.862 787.879 883.117
275.862 797.98 876.623
275.862 808.081 876.623
275.862 818.182 889.61
275.862 823.232 84.4156
275.862 828.283 876.623
275.862 838.384 870.13
275.862 843.434 123.377
275.862 848.485 863.636
275.862 858.586 876.623
275.862 863.636 240.26
275.862 868.687 876.623
275.862 878.788 941.558
275.862 883.838 201.299
275.862 888.889 948.052
275.862 898.99 487.013
275.862 904.04 487.013
275.862 909.091 487.013
280.788 186.869 428.571
280.788 191.919 428.571
280.788 196.97 428.571
280.788 202.02 435.065
280.788 207.071 435.065
280.788 212.121 435.065
280.788 217.172 435.065
280.788 222.222 441.558
280.788 227.273 441.558
280.788 232.323 441.558
280.788 237.374 448.052
280.788 242.424 448.052
280.788 247.475 448.052
280.788 252.525 448.052
280.788 257.576 448.052
280.788 308.081 448.052
280.788 313.131 454.545
280.788 318.182 454.545
280.788 323.232 454.545
280.788 328.283 454.545
280.788 333.333 454.545
280.788 338.384 454.545
280.788 343.434 454.545
280.788 348.485 454.545
280.788 353.535 461.039
280.788 358.586 461.039
280.788 363.636 461.039
280.788 368.687 461.039
280.788 373.737 461.039
280.788 378.788 461.039
280.788 383.838 467.532
280.788 388.889 467.532
280.788 393.939 467.532
280.788 398.99 467.532
280.788 404.04 467.532
280.788 409.091 474.026
280.788 414.141 474.026
280.788 419.192 474.026
280.788 424.242 474.026
280.788 429.293 474.026
280.788 434.343 474.026
280.788 439.394 487.013
280.788 444.444 487.013
280.788 449.495 480.519
280.788 484.848 448.052
280.788 489.899 448.052
280.788 494.949 448.052
280.788 580.808 487.013
280.788 585.859 487.013
280.788 590.909 636.364
280.788 595.96 493.506
280.788 601.01 493.506
280.788 606.061 493.506
280.788 611.111 480.519
280.788 616.162 480.519
280.788 621.212 727.273
280.788 631.313 727.273
280.788 636.364 266.234
280.788 641.414 785.714
280.788 646.465 818.182
280.788 651.515 240.26
280.788 656.566 824.675
280.788 666.667 857.143
280.788 671.717 240.26
280.788 676.768 863.636
280.788 681.818 857.143
280.788 686.869 149.351
280.788 691.919 857.143
280.788 702.02 883.117
280.788 707.071 58.4416
280.788 712.121 876.623
280.788 722.222 863.636
280.788 727.273 12.987
280.788 732.323 850.649
280.788 737.374 857.143
280.788 747.475 850.649
280.788 757.576 876.623
280.788 762.626 38.961
280.788 767.677 870.13
280.788 777.778 883.117
280.788 787.879 883.117
280.788 797.98 876.623
280.788 808.081 876.623
280.788 818.182 883.117
280.788 823.232 116.883
280.788 828.283 883.117
280.788 838.384 876.623
280.788 843.434 97.4026
280.788 848.485 870.13
280.788 858.586 889.61
280.788 863.636 201.299
280.788 868.687 889.61
280.788 878.788 909.091
280.788 883.838 305.195
280.788 888.889 909.091
280.788 898.99 668.831
280.788 904.04 668.831
280.788 909.091 668.831
280.788 919.192 493.506
280.788 924.242 493.506
280.788 929.293 493.506
285.714 186.869 428.571
285.714 191.919 428.571
285.714 196.97 428.571
285.714 202.02 435.065
285.714 207.071 435.065
285.714 212.121 435.065
285.714 217.172 435.065
285.714 222.222 441.558
285.714 227.273 441.558
285.714 232.323 441.558
285.714 237.374 448.052
285.714 242.424 448.052
285.714 247.475 448.052
285.714 252.525 448.052
285.714 257.576 448.052
285.714 313.131 454.545
285.714 318.182 454.545
285.714 323.232 454.545
285.714 338.384 454.545
285.714 343.434 454.545
285.714 348.485 454.545
285.714 353.535 454.545
285.714 358.586 454.545
285.714 363.636 454.545
285.714 368.687 461.039
285.714 373.737 461.039
285.714 378.788 461.039
285.714 383.838 461.039
285.714 388.889 461.039
285.714 393.939 467.532
285.714 398.99 467.532
285.714 404.04 467.532
285.714 409.091 474.026
285.714 414.141 474.026
285.714 419.192 474.026
285.714 424.242 474.026
285.714 429.293 474.026
285.714 434.343 474.026
285.714 439.394 487.013
285.714 444.444 487.013
285.714 449.495 487.013
285.714 494.949 448.052
285.714 545.455 487.013
285.714 550.505 487.013
285.714 555.556 487.013
285.714 565.657 500
285.714 570.707 500
285.714 575.758 500
285.714 580.808 493.506
285.714 585.859 493.506
285.714 590.909 493.506
285.714 595.96 493.506
285.714 601.01 493.506
285.714 606.061 493.506
285.714 611.111 467.532
285.714 616.162 467.532
285.714 621.212 480.519
285.714 631.313 727.273
285.714 636.364 331.169
285.714 641.414 727.273
285.714 646.465 798.701
285.714 651.515 84.4156
285.714 656.566 818.182
285.714 666.667 831.169
285.714 671.717 201.299
285.714 676.768 857.143
285.714 681.818 876.623
285.714 686.869 246.753
285.714 691.919 876.623
285.714 702.02 876.623
285.714 707.071 58.4416
285.714 712.121 883.117
285.714 722.222 876.623
285.714 727.273 6.49351
285.714 732.323 863.636
285.714 737.374 857.143
285.714 747.475 857.143
285.714 757.576 870.13
285.714 762.626 12.987
285.714 767.677 870.13
285.714 777.778 883.117
285.714 787.879 883.117
285.714 797.98 876.623
285.714 808.081 876.623
285.714 818.182 883.117
285.714 823.232 58.4416
285.714 828.283 883.117
285.714 838.384 876.623
285.714 843.434 188.312
285.714 848.485 870.13
285.714 858.586 889.61
285.714 863.636 123.377
285.714 868.687 883.117
285.714 878.788 889.61
285.714 883.838 214.286
285.714 888.889 896.104
285.714 898.99 668.831
285.714 904.04 305.195
285.714 909.091 668.831
285.714 919.192 493.506
285.714 924.242 493.506
285.714 929.293 493.506
290.64 196.97 428.571
290.64 202.02 435.065
290.64 207.071 435.065
290.64 212.121 435.065
290.64 217.172 435.065
290.64 222.222 435.065
290.64 227.273 441.558
290.64 232.323 441.558
290.64 237.374 448.052
290.64 242.424 448.052
290.64 247.475 448.052
290.64 252.525 448.052
290.64 257.576 448.052
290.64 313.131 454.545
290.64 318.182 454.545
290.64 323.232 454.545
290.64 338.384 454.545
290.64 343.434 454.545
290.64 348.485 454.545
290.64 353.535 454.545
290.64 358.586 454.545
290.64 363.636 454.545
290.64 368.687 454.545
290.64 373.737 454.545
290.64 378.788 461.039
290.64 383.838 461.039
290.64 388.889 461.039
290.64 393.939 467.532
290.64 398.99 467.532
290.64 404.04 467.532
290.64 409.091 474.026
290.64 414.141 474.026
290.64 419.192 474.026
290.64 424.242 474.026
290.64 429.293 474.026
290.64 434.343 474.026
290.64 439.394 487.013
290.64 444.444 487.013
290.64 449.495 487.013
290.64 515.152 480.519
290.64 520.202 480.519
290.64 525.253 480.519
290.64 530.303 487.013
290.64 535.354 487.013
290.64 540.404 487.013
290.64 545.455 493.506
290.64 550.505 493.506
290.64 555.556 493.506
290.64 565.657 500
290.64 570.707 500
290.64 575.758 500
290.64 580.808 480.519
290.64 585.859 480.519
290.64 590.909 480.519
290.64 595.96 493.506
290.64 601.01 493.506
290.64 606.061 493.506
290.64 611.111 461.039
290.64 616.162 461.039
290.64 621.212 467.532
290.64 631.313 727.273
290.64 636.364 331.169
290.64 641.414 727.273
290.64 646.465 798.701
290.64 651.515 84.4156
290.64 656.566 798.701
290.64 666.667 831.169
290.64 671.717 240.26
290.64 676.768 831.169
290.64 681.818 870.13
290.64 686.869 207.792
290.64 691.919 870.13
290.64 702.02 876.623
290.64 707.071 64.9351
290.64 712.121 883.117
290.64 722.222 883.117
290.64 732.323 876.623
290.64 737.374 857.143
290.64 747.475 850.649
290.64 757.576 870.13
290.64 762.626 6.49351
290.64 767.677 870.13
290.64 777.778 883.117
290.64 787.879 883.117
290.64 797.98 876.623
290.64 808.081 876.623
290.64 818.182 883.117
290.64 823.232 103.896
290.64 828.283 870.13
290.64 838.384 883.117
290.64 843.434 116.883
290.64 848.485 876.623
290.64 858.586 883.117
290.64 863.636 77.9221
290.64 868.687 876.623
290.64 878.788 883.117
290.64 883.838 227.273
290.64 888.889 889.61
290.64 898.99 668.831
290.64 904.04 311.688
290.64 909.091 668.831
290.64 919.192 493.506
290.64 924.242 493.506
290.64 929.293 493.506
295.567 212.121 435.065
295.567 217.172 435.065
295.567 222.222 435.065
295.567 227.273 435.065
295.567 232.323 441.558
295.567 237.374 441.558
295.567 242.424 441.558
295.567 247.475 448.052
295.567 252.525 448.052
295.567 257.576 448.052
295.567 323.232 454.545
295.567 338.384 448.052
295.567 343.434 448.052
295.567 348.485 448.052
295.567 363.636 454.545
295.567 368.687 454.545
295.567 373.737 454.545
295.567 378.788 454.545
295.567 383.838 454.545
295.567 388.889 461.039
295.567 393.939 467.532
295.567 398.99 467.532
295.567 404.04 467.532
295.567 409.091 467.532
295.567 414.141 467.532
295.567 419.192 467.532
295.567 424.242 474.026
295.567 429.293 474.026
295.567 434.343 474.026
295.567 439.394 480.519
295.567 444.444 480.519
295.567 449.495 480.519
295.567 515.152 493.506
295.567 520.202 493.506
295.567 525.253 493.506
295.567 530.303 493.506
295.567 535.354 493.506
295.567 540.404 493.506
295.567 545.455 487.013
295.567 550.505 487.013
295.567 555.556 487.013
295.567 565.657 480.519
295.567 570.707 480.519
295.567 575.758 493.506
295.567 580.808 467.532
295.567 585.859 467.532
295.567 590.909 487.013
295.567 595.96 461.039
295.567 601.01 461.039
295.567 606.061 487.013
295.567 611.111 461.039
295.567 616.162 461.039
295.567 621.212 461.039
295.567 631.313 727.273
295.567 636.364 331.169
295.567 641.414 727.273
295.567 646.465 798.701
295.567 651.515 64.9351
295.567 656.566 798.701
295.567 666.667 850.649
295.567 671.717 188.312
295.567 676.768 850.649
295.567 681.818 837.662
295.567 686.869 253.247
295.567 691.919 870.13
295.567 702.02 876.623
295.567 707.071 90.9091
295.567 712.121 876.623
295.567 722.222 889.61
295.567 727.273 25.974
295.567 732.323 883.117
295.567 737.374 850.649
295.567 747.475 850.649
295.567 757.576 870.13
295.567 762.626 84.4156
295.567 767.677 863.636
295.567 777.778 883.117
295.567 787.879 883.117
295.567 797.98 883.117
295.567 808.081 876.623
295.567 818.182 889.61
295.567 823.232 77.9221
295.567 828.283 876.623
295.567 838.384 889.61
295.567 843.434 168.831
295.567 848.485 883.117
295.567 858.586 883.117
295.567 863.636 25.974
295.567 868.687 883.117
295.567 878.788 831.169
295.567 883.838 337.662
295.567 888.889 844.156
295.567 898.99 662.338
295.567 904.04 311.688
295.567 909.091 662.338
295.567 919.192 493.506
295.567 924.242 493.506
295.567 929.293 493.506
300.493 222.222 435.065
300.493 227.273 435.065
300.493 232.323 435.065
300.493 237.374 441.558
300.493 242.424 441.558
300.493 247.475 441.558
300.493 252.525 448.052
300.493 257.576 448.052
300.493 338.384 448.052
300.493 343.434 448.052
300.493 348.485 448.052
300.493 353.535 441.558
300.493 358.586 441.558
300.493 363.636 441.558
300.493 378.788 454.545
300.493 383.838 448.052
300.493 388.889 454.545
300.493 393.939 461.039
300.493 398.99 461.039
300.493 404.04 461.039
300.493 409.091 467.532
300.493 414.141 467.532
300.493 419.192 467.532
300.493 424.242 467.532
300.493 429.293 467.532
300.493 434.343 474.026
300.493 439.394 480.519
300.493 444.444 480.519
300.493 449.495 480.519
300.493 500 500
300.493 505.051 500
300.493 510.101 500
300.493 515.152 500
300.493 520.202 500
300.493 525.253 487.013
300.493 530.303 500
300.493 535.354 500
300.493 540.404 487.013
300.493 545.455 467.532
300.493 550.505 467.532
300.493 555.556 487.013
300.493 565.657 467.532
300.493 570.707 467.532
300.493 575.758 487.013
300.493 580.808 461.039
300.493 585.859 461.039
300.493 590.909 461.039
300.493 595.96 461.039
300.493 601.01 461.039
300.493 606.061 461.039
300.493 611.111 461.039
300.493 616.162 461.039
300.493 621.212 461.039
300.493 631.313 727.273
300.493 636.364 331.169
300.493 641.414 727.273
300.493 646.465 805.195
300.493 651.515 64.9351
300.493 656.566 798.701
300.493 666.667 850.649
300.493 671.717 214.286
300.493 676.768 850.649
300.493 681.818 844.156
300.493 686.869 259.74
300.493 691.919 844.156
300.493 702.02 876.623
300.493 707.071 142.857
300.493 712.121 876.623
300.493 722.222 889.61
300.493 727.273 25.974
300.493 732.323 889.61
300.493 737.374 857.143
300.493 747.475 850.649
300.493 757.576 863.636
300.493 762.626 6.49351
300.493 767.677 863.636
300.493 777.778 883.117
300.493 787.879 883.117
300.493 797.98 883.117
300.493 808.081 883.117
300.493 818.182 883.117
300.493 823.232 162.338
300.493 828.283 883.117
300.493 838.384 889.61
300.493 843.434 110.39
300.493 848.485 883.117
300.493 858.586 883.117
300.493 863.636 32.4675
300.493 868.687 883.117
300.493 878.788 805.195
300.493 883.838 110.39
300.493 888.889 831.169
300.493 898.99 662.338
300.493 904.04 311.688
300.493 909.091 662.338
300.493 919.192 493.506
300.493 924.242 493.506
300.493 929.293 493.506
305.419 232.323 435.065
305.419 247.475 441.558
305.419 257.576 448.052
305.419 348.485 448.052
305.419 353.535 441.558
305.419 358.586 441.558
305.419 363.636 441.558
305.419 378.788 448.052
305.419 383.838 448.052
305.419 388.889 454.545
305.419 393.939 454.545
305.419 398.99 454.545
305.419 404.04 461.039
305.419 409.091 461.039
305.419 414.141 461.039
305.419 419.192 467.532
305.419 424.242 467.532
305.419 429.293 467.532
305.419 434.343 467.532
305.419 439.394 480.519
305.419 444.444 480.519
305.419 449.495 480.519
305.419 454.545 448.052
305.419 459.596 448.052
305.419 464.646 448.052
305.419 500 500
305.419 505.051 500
305.419 510.101 500
305.419 515.152 480.519
305.419 520.202 480.519
305.419 525.253 493.506
305.419 540.404 500
305.419 545.455 467.532
305.419 550.505 467.532
305.419 555.556 467.532
305.419 565.657 461.039
305.419 570.707 461.039
305.419 575.758 461.039
305.419 580.808 461.039
305.419 585.859 461.039
305.419 590.909 461.039
305.419 606.061 461.039
305.419 611.111 461.039
305.419 616.162 461.039
305.419 621.212 461.039
305.419 631.313 779.221
305.419 636.364 350.649
305.419 641.414 779.221
305.419 646.465 818.182
305.419 651.515 168.831
305.419 656.566 824.675
305.419 666.667 844.156
305.419 671.717 194.805
305.419 676.768 850.649
305.419 681.818 857.143
305.419 686.869 259.74
305.419 691.919 850.649
305.419 702.02 870.13
305.419 707.071 116.883
305.419 712.121 876.623
305.419 722.222 896.104
305.419 727.273 25.974
305.419 732.323 889.61
305.419 737.374 863.636
305.419 742.424 19.4805
305.419 747.475 857.143
305.419 757.576 863.636
305.419 767.677 863.636
305.419 777.778 883.117
305.419 787.879 883.117
305.419 797.98 883.117
305.419 808.081 883.117
305.419 818.182 889.61
305.419 823.232 188.312
305.419 828.283 883.117
305.419 838.384 889.61
305.419 843.434 77.9221
305.419 848.485 883.117
305.419 858.586 883.117
305.419 863.636 58.4416
305.419 868.687 883.117
305.419 878.788 805.195
305.419 883.838 97.4026
305.419 888.889 805.195
305.419 898.99 662.338
305.419 904.04 318.182
305.419 909.091 662.338
305.419 919.192 668.831
305.419 924.242 668.831
305.419 929.293 668.831
305.419 944.444 474.026
305.419 949.495 474.026
305.419 954.545 474.026
310.345 363.636 441.558
310.345 388.889 448.052
310.345 404.04 454.545
310.345 419.192 461.039
310.345 424.242 461.039
310.345 429.293 461.039
310.345 434.343 467.532
310.345 439.394 474.026
310.345 444.444 474.026
310.345 449.495 480.519
310.345 454.545 454.545
310.345 459.596 454.545
310.345 464.646 454.545
310.345 484.848 480.519
310.345 489.899 480.519
310.345 494.949 480.519
310.345 500 500
310.345 505.051 500
310.345 510.101 500
310.345 515.152 467.532
310.345 520.202 467.532
310.345 525.253 487.013
310.345 530.303 461.039
310.345 535.354 461.039
310.345 540.404 461.039
310.345 555.556 467.532
310.345 565.657 461.039
310.345 570.707 461.039
310.345 575.758 461.039
310.345 590.909 461.039
310.345 621.212 461.039
310.345 631.313 779.221
310.345 636.364 279.221
310.345 641.414 779.221
310.345 646.465 818.182
310.345 651.515 201.299
310.345 656.566 818.182
310.345 666.667 824.675
310.345 671.717 51.9481
310.345 676.768 844.156
310.345 681.818 850.649
310.345 686.869 136.364
310.345 691.919 857.143
310.345 702.02 870.13
310.345 707.071 77.9221
310.345 712.121 870.13
310.345 722.222 889.61
310.345 727.273 45.4545
310.345 732.323 889.61
310.345 737.374 876.623
310.345 742.424 6.49351
310.345 747.475 863.636
310.345 757.576 863.636
310.345 767.677 863.636
310.345 777.778 883.117
310.345 787.879 883.117
310.345 797.98 889.61
310.345 808.081 883.117
310.345 818.182 883.117
310.345 823.232 175.325
310.345 828.283 883.117
310.345 838.384 889.61
310.345 843.434 103.896
310.345 848.485 889.61
310.345 858.586 909.091
310.345 863.636 123.377
310.345 868.687 883.117
310.345 878.788 837.662
310.345 883.838 188.312
310.345 888.889 831.169
310.345 898.99 662.338
310.345 904.04 409.091
310.345 909.091 662.338
310.345 919.192 668.831
310.345 924.242 305.195
310.345 929.293 668.831
310.345 944.444 655.844
310.345 949.495 655.844
310.345 954.545 655.844
315.271 434.343 461.039
315.271 439.394 474.026
315.271 444.444 474.026
315.271 449.495 474.026
315.271 454.545 642.857
315.271 459.596 292.208
315.271 464.646 636.364
315.271 469.697 480.519
315.271 474.747 480.519
315.271 479.798 480.519
315.271 484.848 487.013
315.271 489.899 487.013
315.271 494.949 487.013
315.271 500 500
315.271 505.051 500
315.271 510.101 500
315.271 525.253 467.532
315.271 530.303 461.039
315.271 535.354 461.039
315.271 540.404 461.039
315.271 575.758 461.039
315.271 631.313 727.273
315.271 636.364 331.169
315.271 641.414 779.221
315.271 646.465 818.182
315.271 651.515 240.26
315.271 656.566 818.182
315.271 666.667 811.688
315.271 671.717 227.273
315.271 676.768 824.675
315.271 681.818 831.169
315.271 686.869 149.351
315.271 691.919 850.649
315.271 702.02 876.623
315.271 707.071 77.9221
315.271 712.121 870.13
315.271 722.222 889.61
315.271 732.323 889.61
315.271 737.374 883.117
315.271 747.475 876.623
315.271 757.576 863.636
315.271 767.677 863.636
315.271 777.778 883.117
315.271 787.879 883.117
315.271 797.98 889.61
315.271 808.081 889.61
315.271 818.182 876.623
315.271 823.232 207.792
315.271 828.283 883.117
315.271 838.384 889.61
315.271 843.434 188.312
315.271 848.485 883.117
315.271 858.586 902.597
315.271 863.636 162.338
315.271 868.687 902.597
315.271 878.788 831.169
315.271 883.838 188.312
315.271 888.889 837.662
315.271 898.99 662.338
315.271 904.04 409.091
315.271 909.091 662.338
315.271 919.192 675.325
315.271 924.242 305.195
315.271 929.293 668.831
315.271 944.444 662.338
315.271 949.495 298.701
315.271 954.545 655.844
320.197 439.394 649.351
320.197 444.444 292.208
320.197 449.495 649.351
320.197 454.545 649.351
320.197 459.596 292.208
320.197 464.646 642.857
320.197 469.697 480.519
320.197 474.747 480.519
320.197 479.798 480.519
320.197 484.848 487.013
320.197 489.899 487.013
320.197 494.949 480.519
320.197 500 500
320.197 505.051 500
320.197 510.101 500
320.197 515.152 461.039
320.197 520.202 461.039
320.197 525.253 461.039
320.197 540.404 461.039
320.197 631.313 766.234
320.197 636.364 279.221
320.197 641.414 779.221
320.197 646.465 818.182
320.197 651.515 240.26
320.197 656.566 818.182
320.197 666.667 811.688
320.197 671.717 227.273
320.197 676.768 811.688
320.197 681.818 831.169
320.197 686.869 32.4675
320.197 691.919 831.169
320.197 702.02 876.623
320.197 707.071 84.4156
320.197 712.121 876.623
320.197 722.222 889.61
320.197 732.323 889.61
320.197 737.374 896.104
320.197 747.475 883.117
320.197 757.576 870.13
320.197 762.626 19.4805
320.197 767.677 863.636
320.197 777.778 883.117
320.197 787.879 883.117
320.197 797.98 896.104
320.197 803.03 6.49351
320.197 808.081 889.61
320.197 818.182 883.117
320.197 823.232 194.805
320.197 828.283 883.117
320.197 838.384 883.117
320.197 843.434 227.273
320.197 848.485 883.117
320.197 858.586 902.597
320.197 863.636 123.377
320.197 868.687 902.597
320.197 878.788 818.182
320.197 883.838 201.299
320.197 888.889 831.169
320.197 898.99 753.247
320.197 904.04 655.844
320.197 909.091 733.766
320.197 919.192 675.325
320.197 924.242 305.195
320.197 929.293 675.325
320.197 944.444 662.338
320.197 949.495 298.701
320.197 954.545 662.338
325.123 409.091 461.039
325.123 414.141 461.039
325.123 419.192 461.039
325.123 424.242 467.532
325.123 429.293 467.532
325.123 434.343 467.532
325.123 439.394 467.532
325.123 444.444 467.532
325.123 449.495 649.351
325.123 454.545 649.351
325.123 459.596 292.208
325.123 464.646 649.351
325.123 469.697 480.519
325.123 474.747 480.519
325.123 479.798 480.519
325.123 484.848 487.013
325.123 489.899 487.013
325.123 494.949 487.013
325.123 500 500
325.123 505.051 500
325.123 510.101 500
325.123 515.152 461.039
325.123 520.202 461.039
325.123 525.253 461.039
325.123 631.313 720.779
325.123 636.364 350.649
325.123 641.414 766.234
325.123 646.465 818.182
325.123 651.515 233.766
325.123 656.566 818.182
325.123 666.667 811.688
325.123 671.717 227.273
325.123 676.768 811.688
325.123 681.818 818.182
325.123 686.869 142.857
325.123 691.919 831.169
325.123 702.02 870.13
325.123 707.071 71.4286
325.123 712.121 870.13
325.123 722.222 896.104
325.123 732.323 896.104
325.123 737.374 896.104
325.123 747.475 896.104
325.123 757.576 876.623
325.123 762.626 6.49351
325.123 767.677 870.13
325.123 777.778 883.117
325.123 787.879 883.117
325.123 797.98 889.61
325.123 803.03 0
325.123 808.081 889.61
325.123 818.182 863.636
325.123 823.232 149.351
325.123 828.283 857.143
325.123 838.384 876.623
325.123 843.434 246.753
325.123 848.485 883.117
325.123 858.586 909.091
325.123 863.636 103.896
325.123 868.687 909.091
325.123 878.788 896.104
325.123 883.838 389.61
325.123 888.889 870.13
325.123 898.99 805.195
325.123 904.04 590.909
325.123 909.091 811.688
325.123 919.192 675.325
325.123 924.242 305.195
325.123 929.293 675.325
325.123 944.444 655.844
325.123 949.495 298.701
325.123 954.545 662.338
330.049 393.939 461.039
330.049 398.99 461.039
330.049 404.04 461.039
330.049 409.091 467.532
330.049 414.141 467.532
330.049 419.192 467.532
330.049 424.242 467.532
330.049 429.293 467.532
330.049 434.343 467.532
330.049 439.394 474.026
330.049 444.444 474.026
330.049 449.495 467.532
330.049 454.545 649.351
330.049 459.596 298.701
330.049 464.646 649.351
330.049 469.697 487.013
330.049 474.747 487.013
330.049 479.798 480.519
330.049 484.848 493.506
330.049 489.899 493.506
330.049 494.949 487.013
330.049 500 500
330.049 505.051 500
330.049 510.101 500
330.049 525.253 461.039
330.049 611.111 493.506
330.049 616.162 493.506
330.049 621.212 493.506
330.049 631.313 681.818
330.049 636.364 623.377
330.049 641.414 720.779
330.049 646.465 818.182
330.049 651.515 285.714
330.049 656.566 818.182
330.049 666.667 805.195
330.049 671.717 279.221
330.049 676.768 811.688
330.049 681.818 831.169
330.049 686.869 149.351
330.049 691.919 831.169
330.049 702.02 863.636
330.049 707.071 19.4805
330.049 712.121 870.13
330.049 722.222 896.104
330.049 732.323 889.61
330.049 737.374 896.104
330.049 747.475 896.104
330.049 757.576 883.117
330.049 762.626 25.974
330.049 767.677 876.623
330.049 777.778 889.61
330.049 787.879 883.117
330.049 797.98 889.61
330.049 808.081 889.61
330.049 818.182 870.13
330.049 823.232 90.9091
330.049 828.283 870.13
330.049 838.384 889.61
330.049 843.434 240.26
330.049 848.485 876.623
330.049 858.586 909.091
330.049 863.636 220.779
330.049 868.687 902.597
330.049 878.788 915.584
330.049 883.838 240.26
330.049 888.889 902.597
330.049 898.99 805.195
330.049 904.04 597.403
330.049 909.091 805.195
330.049 919.192 675.325
330.049 924.242 311.688
330.049 929.293 675.325
330.049 944.444 480.519
330.049 949.495 480.519
330.049 954.545 655.844
334.975 393.939 461.039
334.975 398.99 461.039
334.975 404.04 461.039
334.975 409.091 467.532
334.975 414.141 467.532
334.975 419.192 461.039
334.975 424.242 474.026
334.975 429.293 474.026
334.975 434.343 467.532
334.975 439.394 649.351
334.975 444.444 649.351
334.975 449.495 642.857
334.975 454.545 649.351
334.975 459.596 298.701
334.975 464.646 649.351
334.975 469.697 487.013
334.975 474.747 487.013
334.975 479.798 487.013
334.975 484.848 493.506
334.975 489.899 493.506
334.975 494.949 493.506
334.975 500 500
334.975 505.051 500
334.975 510.101 500
334.975 595.96 493.506
334.975 601.01 493.506
334.975 606.061 493.506
334.975 611.111 493.506
334.975 616.162 493.506
334.975 621.212 493.506
334.975 631.313 506.494
334.975 636.364 506.494
334.975 641.414 681.818
334.975 646.465 811.688
334.975 651.515 227.273
334.975 656.566 818.182
334.975 666.667 798.701
334.975 671.717 337.662
334.975 676.768 805.195
334.975 681.818 831.169
334.975 686.869 45.4545
334.975 691.919 831.169
