422.886 73.8255 513.158
422.886 80.5369 519.737
422.886 87.2483 519.737
422.886 93.9597 519.737
422.886 100.671 519.737
422.886 107.383 526.316
422.886 114.094 526.316
422.886 120.805 532.895
422.886 127.517 539.474
422.886 134.228 605.263
422.886 140.94 539.474
422.886 147.651 539.474
422.886 154.362 657.895
422.886 161.074 651.316
422.886 167.785 473.684
422.886 174.497 664.474
422.886 181.208 309.211
422.886 187.919 657.895
422.886 194.631 684.211
422.886 201.342 407.895
422.886 208.054 690.789
422.886 214.765 559.211
422.886 221.477 559.211
422.886 228.188 559.211
422.886 255.034 625
422.886 261.745 539.474
422.886 268.456 684.211
422.886 275.168 657.895
422.886 281.879 414.474
422.886 288.591 703.947
422.886 295.302 368.421
422.886 302.013 368.421
422.886 308.725 638.158
422.886 315.436 598.684
422.886 322.148 598.684
422.886 328.859 611.842
422.886 335.57 763.158
422.886 342.282 243.421
422.886 348.993 776.316
422.886 355.705 802.632
422.886 362.416 118.421
422.886 369.128 815.789
422.886 375.839 789.474
422.886 382.55 407.895
422.886 389.262 796.053
422.886 395.973 789.474
422.886 402.685 289.474
422.886 409.396 815.789
422.886 422.819 848.684
422.886 429.53 151.316
422.886 436.242 848.684
422.886 442.953 875
422.886 449.664 32.8947
422.886 456.376 881.579
422.886 463.087 888.158
422.886 469.799 85.5263
422.886 476.51 875
422.886 483.221 901.316
422.886 489.933 59.2105
422.886 496.644 907.895
422.886 510.067 940.789
422.886 516.779 59.2105
422.886 523.49 940.789
422.886 530.201 947.368
422.886 536.913 59.2105
422.886 543.624 940.789
422.886 557.047 914.474
422.886 563.758 171.053
422.886 570.47 914.474
422.886 577.181 914.474
422.886 583.893 223.684
422.886 590.604 914.474
422.886 604.027 980.263
422.886 610.738 144.737
422.886 617.45 980.263
422.886 630.872 953.947
422.886 637.584 19.7368
422.886 644.295 960.526
422.886 651.007 868.421
422.886 657.718 486.842
422.886 664.43 901.316
422.886 677.852 782.895
422.886 684.564 388.158
422.886 691.275 809.211
422.886 704.698 828.947
422.886 711.409 493.421
422.886 718.121 815.789
422.886 731.544 730.263
422.886 738.255 506.579
422.886 744.966 730.263
422.886 758.389 677.632
422.886 765.101 493.421
422.886 771.812 677.632
422.886 785.235 565.789
422.886 791.946 500
422.886 798.658 565.789
422.886 812.081 493.421
422.886 818.792 493.421
422.886 825.503 493.421
422.886 838.926 348.684
422.886 845.638 348.684
422.886 852.349 348.684
427.861 13.4228 506.579
427.861 20.1342 388.158
427.861 26.8456 388.158
427.861 33.557 506.579
427.861 40.2685 223.684
427.861 46.9799 578.947
427.861 53.6913 578.947
427.861 60.4027 157.895
427.861 67.1141 585.526
427.861 73.8255 223.684
427.861 80.5369 592.105
427.861 87.2483 519.737
427.861 93.9597 519.737
427.861 100.671 592.105
427.861 107.383 592.105
427.861 114.094 375
427.861 120.805 605.263
427.861 127.517 381.579
427.861 134.228 611.842
427.861 140.94 618.421
427.861 147.651 388.158
427.861 154.362 618.421
427.861 161.074 539.474
427.861 167.785 539.474
427.861 174.497 651.316
427.861 181.208 546.053
427.861 187.919 664.474
427.861 194.631 657.895
427.861 201.342 138.158
427.861 208.054 703.947
427.861 214.765 552.632
427.861 221.477 552.632
427.861 228.188 638.158
427.861 255.034 375
427.861 261.745 375
427.861 268.456 625
427.861 275.168 552.632
427.861 281.879 552.632
427.861 288.591 690.789
427.861 308.725 368.421
427.861 315.436 598.684
427.861 322.148 598.684
427.861 328.859 598.684
427.861 335.57 756.579
427.861 342.282 203.947
427.861 348.993 769.737
427.861 355.705 789.474
427.861 362.416 131.579
427.861 369.128 802.632
427.861 375.839 782.895
427.861 382.55 250
427.861 389.262 789.474
427.861 395.973 782.895
427.861 402.685 243.421
427.861 409.396 789.474
427.861 422.819 848.684
427.861 429.53 177.632
427.861 436.242 848.684
427.861 442.953 881.579
427.861 449.664 65.7895
427.861 456.376 875
427.861 463.087 901.316
427.861 469.799 105.263
427.861 476.51 888.158
427.861 483.221 894.737
427.861 489.933 65.7895
427.861 496.644 901.316
427.861 510.067 927.632
427.861 516.779 65.7895
427.861 523.49 934.211
427.861 530.201 947.368
427.861 536.913 32.8947
427.861 543.624 947.368
427.861 557.047 934.211
427.861 563.758 184.211
427.861 570.47 927.632
427.861 577.181 894.737
427.861 583.893 171.053
427.861 590.604 914.474
427.861 604.027 973.684
427.861 610.738 59.2105
427.861 617.45 973.684
427.861 630.872 960.526
427.861 637.584 46.0526
427.861 644.295 960.526
427.861 651.007 861.842
427.861 657.718 401.316
427.861 664.43 875
427.861 677.852 789.474
427.861 684.564 342.105
427.861 691.275 782.895
427.861 704.698 809.211
427.861 711.409 263.158
427.861 718.121 828.947
427.861 731.544 769.737
427.861 738.255 381.579
427.861 744.966 789.474
427.861 758.389 684.211
427.861 765.101 118.421
427.861 771.812 677.632
427.861 785.235 677.632
427.861 791.946 256.579
427.861 798.658 677.632
427.861 812.081 605.263
427.861 818.792 565.789
427.861 825.503 605.263
427.861 838.926 348.684
427.861 845.638 348.684
427.861 852.349 348.684
432.836 33.557 375
432.836 40.2685 361.842
432.836 46.9799 500
432.836 53.6913 500
432.836 60.4027 223.684
432.836 67.1141 578.947
432.836 73.8255 223.684
432.836 80.5369 513.158
432.836 87.2483 375
432.836 93.9597 375
432.836 100.671 513.158
432.836 107.383 585.526
432.836 114.094 157.895
432.836 120.805 598.684
432.836 127.517 164.474
432.836 134.228 605.263
432.836 140.94 605.263
432.836 147.651 171.053
432.836 154.362 611.842
432.836 161.074 611.842
432.836 167.785 381.579
432.836 174.497 618.421
432.836 181.208 546.053
432.836 187.919 546.053
432.836 194.631 348.684
432.836 201.342 348.684
432.836 208.054 657.895
432.836 214.765 552.632
432.836 221.477 552.632
432.836 228.188 552.632
432.836 268.456 375
432.836 275.168 381.579
432.836 281.879 381.579
432.836 288.591 552.632
432.836 315.436 493.421
432.836 322.148 493.421
432.836 328.859 598.684
432.836 335.57 750
432.836 342.282 210.526
432.836 348.993 756.579
432.836 355.705 756.579
432.836 362.416 217.105
432.836 369.128 782.895
432.836 375.839 782.895
432.836 382.55 335.526
432.836 389.262 789.474
432.836 395.973 769.737
432.836 402.685 236.842
432.836 409.396 776.316
432.836 422.819 848.684
432.836 429.53 230.263
432.836 436.242 848.684
432.836 442.953 881.579
432.836 449.664 65.7895
432.836 456.376 881.579
432.836 463.087 894.737
432.836 469.799 118.421
432.836 476.51 901.316
432.836 483.221 894.737
432.836 489.933 85.5263
432.836 496.644 894.737
432.836 510.067 927.632
432.836 516.779 52.6316
432.836 523.49 934.211
432.836 530.201 953.947
432.836 536.913 32.8947
432.836 543.624 953.947
432.836 557.047 927.632
432.836 563.758 144.737
432.836 570.47 927.632
432.836 577.181 921.053
432.836 583.893 263.158
432.836 590.604 907.895
432.836 604.027 973.684
432.836 610.738 118.421
432.836 617.45 973.684
432.836 630.872 953.947
432.836 637.584 111.842
432.836 644.295 953.947
432.836 651.007 842.105
432.836 657.718 263.158
432.836 664.43 868.421
432.836 677.852 822.368
432.836 684.564 243.421
432.836 691.275 815.789
432.836 704.698 809.211
432.836 711.409 322.368
432.836 718.121 809.211
432.836 731.544 769.737
432.836 738.255 236.842
432.836 744.966 769.737
432.836 758.389 677.632
432.836 765.101 315.789
432.836 771.812 723.684
432.836 785.235 677.632
432.836 791.946 151.316
432.836 798.658 677.632
432.836 812.081 717.105
432.836 818.792 427.632
432.836 825.503 717.105
432.836 838.926 348.684
432.836 845.638 348.684
432.836 852.349 348.684
432.836 865.772 342.105
432.836 872.483 342.105
432.836 879.195 342.105
432.836 892.617 342.105
432.836 899.329 342.105
432.836 906.04 342.105
437.811 33.557 361.842
437.811 40.2685 361.842
437.811 46.9799 361.842
437.811 53.6913 361.842
437.811 60.4027 361.842
437.811 67.1141 500
437.811 73.8255 361.842
437.811 80.5369 506.579
437.811 87.2483 368.421
437.811 93.9597 368.421
437.811 100.671 368.421
437.811 107.383 368.421
437.811 114.094 368.421
437.811 120.805 585.526
437.811 127.517 381.579
437.811 134.228 598.684
437.811 140.94 598.684
437.811 147.651 171.053
437.811 154.362 605.263
437.811 161.074 605.263
437.811 167.785 171.053
437.811 174.497 611.842
437.811 181.208 539.474
437.811 187.919 618.421
437.811 194.631 526.316
437.811 201.342 526.316
437.811 208.054 519.737
437.811 214.765 394.737
437.811 221.477 394.737
437.811 228.188 552.632
437.811 255.034 394.737
437.811 261.745 394.737
437.811 268.456 394.737
437.811 288.591 381.579
437.811 295.302 309.211
437.811 302.013 309.211
437.811 308.725 309.211
437.811 315.436 328.947
437.811 322.148 328.947
437.811 328.859 493.421
437.811 335.57 690.789
437.811 342.282 388.158
437.811 348.993 750
437.811 355.705 756.579
437.811 362.416 177.632
437.811 369.128 763.158
437.811 375.839 769.737
437.811 382.55 184.211
437.811 389.262 782.895
437.811 395.973 769.737
437.811 402.685 203.947
437.811 409.396 782.895
437.811 422.819 835.526
437.811 429.53 190.789
437.811 436.242 848.684
437.811 442.953 875
437.811 449.664 46.0526
437.811 456.376 881.579
437.811 463.087 888.158
437.811 469.799 125
437.811 476.51 888.158
437.811 483.221 881.579
437.811 489.933 59.2105
437.811 496.644 894.737
437.811 510.067 927.632
437.811 516.779 32.8947
437.811 523.49 927.632
437.811 530.201 967.105
437.811 536.913 26.3158
437.811 543.624 960.526
437.811 557.047 914.474
437.811 563.758 144.737
437.811 570.47 927.632
437.811 577.181 921.053
437.811 583.893 230.263
437.811 590.604 921.053
437.811 604.027 980.263
437.811 610.738 118.421
437.811 617.45 973.684
437.811 630.872 940.789
437.811 637.584 263.158
437.811 644.295 940.789
437.811 651.007 835.526
437.811 657.718 157.895
437.811 664.43 842.105
437.811 677.852 828.947
437.811 684.564 269.737
437.811 691.275 815.789
437.811 704.698 809.211
437.811 711.409 269.737
437.811 718.121 809.211
437.811 731.544 769.737
437.811 738.255 282.895
437.811 744.966 769.737
437.811 758.389 677.632
437.811 765.101 250
437.811 771.812 677.632
437.811 785.235 736.842
437.811 791.946 190.789
437.811 798.658 743.421
437.811 812.081 730.263
437.811 818.792 282.895
437.811 825.503 723.684
437.811 838.926 486.842
437.811 845.638 348.684
437.811 852.349 486.842
437.811 865.772 342.105
437.811 872.483 342.105
437.811 879.195 342.105
437.811 892.617 342.105
437.811 899.329 342.105
437.811 906.04 342.105
442.786 46.9799 361.842
442.786 53.6913 355.263
442.786 60.4027 355.263
442.786 67.1141 361.842
442.786 73.8255 361.842
442.786 80.5369 361.842
442.786 87.2483 361.842
442.786 93.9597 361.842
442.786 100.671 368.421
442.786 107.383 368.421
442.786 114.094 368.421
442.786 120.805 375
442.786 127.517 381.579
442.786 134.228 381.579
442.786 140.94 381.579
442.786 147.651 381.579
442.786 154.362 598.684
442.786 161.074 526.316
442.786 167.785 243.421
442.786 174.497 605.263
442.786 181.208 171.053
442.786 187.919 605.263
442.786 194.631 605.263
442.786 201.342 526.316
442.786 208.054 598.684
442.786 214.765 381.579
442.786 221.477 381.579
442.786 228.188 394.737
442.786 255.034 388.158
442.786 261.745 388.158
442.786 268.456 388.158
442.786 295.302 309.211
442.786 302.013 309.211
442.786 308.725 309.211
442.786 315.436 328.947
442.786 322.148 328.947
442.786 328.859 328.947
442.786 335.57 684.211
442.786 342.282 328.947
442.786 348.993 690.789
442.786 355.705 750
442.786 362.416 309.211
442.786 369.128 750
442.786 375.839 756.579
442.786 382.55 348.684
442.786 389.262 769.737
442.786 395.973 796.053
442.786 402.685 171.053
442.786 409.396 796.053
442.786 422.819 835.526
442.786 429.53 184.211
442.786 436.242 835.526
442.786 442.953 881.579
442.786 449.664 46.0526
442.786 456.376 881.579
442.786 463.087 888.158
442.786 469.799 72.3684
442.786 476.51 888.158
442.786 483.221 875
442.786 489.933 78.9474
442.786 496.644 881.579
442.786 510.067 934.211
442.786 516.779 32.8947
442.786 523.49 927.632
442.786 530.201 967.105
442.786 536.913 13.1579
442.786 543.624 960.526
442.786 557.047 921.053
442.786 563.758 111.842
442.786 570.47 914.474
442.786 577.181 921.053
442.786 583.893 263.158
442.786 590.604 914.474
442.786 604.027 973.684
442.786 610.738 98.6842
442.786 617.45 967.105
442.786 630.872 940.789
442.786 637.584 236.842
442.786 644.295 947.368
442.786 651.007 802.632
442.786 657.718 210.526
442.786 664.43 835.526
442.786 677.852 828.947
442.786 684.564 269.737
442.786 691.275 828.947
442.786 704.698 835.526
442.786 711.409 230.263
442.786 718.121 835.526
442.786 731.544 815.789
442.786 738.255 348.684
442.786 744.966 809.211
442.786 758.389 677.632
442.786 765.101 315.789
442.786 771.812 677.632
442.786 785.235 756.579
442.786 791.946 328.947
442.786 798.658 769.737
442.786 812.081 756.579
442.786 818.792 315.789
442.786 825.503 756.579
442.786 838.926 559.211
442.786 845.638 348.684
442.786 852.349 559.211
442.786 865.772 348.684
442.786 872.483 348.684
442.786 879.195 342.105
442.786 892.617 342.105
442.786 899.329 342.105
442.786 906.04 342.105
447.761 67.1141 355.263
447.761 80.5369 361.842
447.761 100.671 361.842
447.761 120.805 368.421
447.761 134.228 381.579
447.761 140.94 381.579
447.761 147.651 381.579
447.761 154.362 381.579
447.761 161.074 381.579
447.761 167.785 381.579
447.761 174.497 526.316
447.761 181.208 230.263
447.761 187.919 605.263
447.761 194.631 598.684
447.761 201.342 164.474
447.761 208.054 611.842
447.761 214.765 381.579
447.761 221.477 381.579
447.761 228.188 381.579
447.761 255.034 381.579
447.761 261.745 381.579
447.761 268.456 388.158
447.761 275.168 375
447.761 281.879 375
447.761 288.591 375
447.761 308.725 309.211
447.761 315.436 322.368
447.761 322.148 322.368
447.761 328.859 322.368
447.761 335.57 671.053
447.761 342.282 322.368
447.761 348.993 684.211
447.761 355.705 736.842
447.761 362.416 223.684
447.761 369.128 743.421
447.761 375.839 756.579
447.761 382.55 177.632
447.761 389.262 769.737
447.761 395.973 802.632
447.761 402.685 184.211
447.761 409.396 789.474
447.761 422.819 842.105
447.761 429.53 269.737
447.761 436.242 835.526
447.761 442.953 881.579
447.761 449.664 46.0526
447.761 456.376 881.579
447.761 463.087 888.158
447.761 469.799 78.9474
447.761 476.51 881.579
447.761 483.221 881.579
447.761 489.933 111.842
447.761 496.644 875
447.761 510.067 934.211
447.761 516.779 52.6316
447.761 523.49 934.211
447.761 530.201 967.105
447.761 543.624 967.105
447.761 557.047 921.053
447.761 563.758 46.0526
447.761 570.47 914.474
447.761 577.181 927.632
447.761 583.893 171.053
447.761 590.604 927.632
447.761 604.027 973.684
447.761 610.738 131.579
447.761 617.45 967.105
447.761 630.872 940.789
447.761 637.584 197.368
447.761 644.295 940.789
447.761 651.007 809.211
447.761 657.718 289.474
447.761 664.43 802.632
447.761 677.852 828.947
447.761 684.564 236.842
447.761 691.275 828.947
447.761 704.698 828.947
447.761 711.409 197.368
447.761 718.121 828.947
447.761 731.544 815.789
447.761 738.255 289.474
447.761 744.966 815.789
447.761 758.389 664.474
447.761 765.101 151.316
447.761 771.812 723.684
447.761 785.235 756.579
447.761 791.946 171.053
447.761 798.658 750
447.761 812.081 782.895
447.761 818.792 302.632
447.761 825.503 782.895
447.761 838.926 598.684
447.761 845.638 269.737
447.761 852.349 598.684
447.761 865.772 348.684
447.761 872.483 348.684
447.761 879.195 348.684
447.761 892.617 342.105
447.761 899.329 342.105
447.761 906.04 342.105
447.761 926.174 342.105
447.761 932.886 342.105
447.761 939.597 342.105
452.736 154.362 381.579
452.736 161.074 375
452.736 167.785 375
452.736 174.497 381.579
452.736 181.208 381.579
452.736 187.919 506.579
452.736 194.631 381.579
452.736 201.342 381.579
452.736 208.054 598.684
452.736 214.765 368.421
452.736 221.477 368.421
452.736 228.188 519.737
452.736 255.034 375
452.736 261.745 375
452.736 268.456 381.579
452.736 275.168 375
452.736 281.879 375
452.736 288.591 375
452.736 315.436 322.368
452.736 322.148 322.368
452.736 328.859 322.368
452.736 335.57 664.474
452.736 342.282 322.368
452.736 348.993 671.053
452.736 355.705 743.421
452.736 362.416 217.105
452.736 369.128 736.842
452.736 375.839 736.842
452.736 382.55 263.158
452.736 389.262 756.579
452.736 395.973 782.895
452.736 402.685 190.789
452.736 409.396 796.053
452.736 422.819 861.842
452.736 429.53 203.947
452.736 436.242 848.684
452.736 442.953 888.158
452.736 449.664 92.1053
452.736 456.376 881.579
452.736 463.087 875
452.736 469.799 59.2105
452.736 476.51 881.579
452.736 483.221 888.158
452.736 489.933 78.9474
452.736 496.644 881.579
452.736 510.067 940.789
452.736 516.779 39.4737
452.736 523.49 934.211
452.736 530.201 967.105
452.736 536.913 0
452.736 543.624 967.105
452.736 557.047 927.632
452.736 563.758 52.6316
452.736 570.47 921.053
452.736 577.181 927.632
452.736 583.893 164.474
452.736 590.604 921.053
452.736 604.027 980.263
452.736 610.738 26.3158
452.736 617.45 973.684
452.736 630.872 940.789
452.736 637.584 197.368
452.736 644.295 940.789
452.736 651.007 835.526
452.736 657.718 322.368
452.736 664.43 822.368
452.736 677.852 828.947
452.736 684.564 171.053
452.736 691.275 828.947
452.736 704.698 828.947
452.736 711.409 263.158
452.736 718.121 842.105
452.736 731.544 815.789
452.736 738.255 328.947
452.736 744.966 815.789
452.736 758.389 769.737
452.736 765.101 480.263
452.736 771.812 763.158
452.736 785.235 736.842
452.736 791.946 243.421
452.736 798.658 763.158
452.736 812.081 782.895
452.736 818.792 203.947
452.736 825.503 782.895
452.736 838.926 671.053
452.736 845.638 394.737
452.736 852.349 671.053
452.736 865.772 348.684
452.736 872.483 348.684
452.736 879.195 348.684
452.736 892.617 546.053
452.736 899.329 480.263
452.736 906.04 546.053
452.736 926.174 342.105
452.736 932.886 342.105
452.736 939.597 342.105
457.711 174.497 375
457.711 187.919 381.579
457.711 208.054 381.579
457.711 214.765 368.421
457.711 221.477 368.421
457.711 228.188 368.421
457.711 268.456 375
457.711 288.591 375
457.711 315.436 322.368
457.711 322.148 322.368
457.711 328.859 322.368
457.711 335.57 500
457.711 342.282 230.263
457.711 348.993 664.474
457.711 355.705 723.684
457.711 362.416 394.737
457.711 369.128 743.421
457.711 375.839 743.421
457.711 382.55 223.684
457.711 389.262 736.842
457.711 395.973 763.158
457.711 402.685 230.263
457.711 409.396 789.474
457.711 422.819 868.421
457.711 429.53 151.316
457.711 436.242 855.263
457.711 442.953 888.158
457.711 449.664 98.6842
457.711 456.376 881.579
457.711 463.087 868.421
457.711 469.799 39.4737
457.711 476.51 881.579
457.711 483.221 894.737
457.711 489.933 111.842
457.711 496.644 888.158
457.711 510.067 927.632
457.711 516.779 59.2105
457.711 523.49 927.632
457.711 530.201 967.105
457.711 543.624 967.105
457.711 557.047 921.053
457.711 563.758 65.7895
457.711 570.47 927.632
457.711 577.181 940.789
457.711 583.893 138.158
457.711 590.604 934.211
457.711 604.027 980.263
457.711 610.738 6.57895
457.711 617.45 980.263
457.711 630.872 947.368
457.711 637.584 184.211
457.711 644.295 934.211
457.711 651.007 848.684
457.711 657.718 289.474
457.711 664.43 842.105
457.711 677.852 809.211
457.711 684.564 355.263
457.711 691.275 828.947
457.711 704.698 828.947
457.711 711.409 210.526
457.711 718.121 828.947
457.711 731.544 822.368
457.711 738.255 217.105
457.711 744.966 822.368
457.711 758.389 763.158
457.711 765.101 151.316
457.711 771.812 769.737
457.711 785.235 763.158
457.711 791.946 164.474
457.711 798.658 763.158
457.711 812.081 796.053
457.711 818.792 157.895
457.711 825.503 789.474
457.711 838.926 710.526
457.711 845.638 184.211
457.711 852.349 710.526
457.711 865.772 546.053
457.711 872.483 546.053
457.711 879.195 546.053
457.711 892.617 546.053
457.711 899.329 342.105
457.711 906.04 546.053
457.711 926.174 546.053
457.711 932.886 473.684
457.711 939.597 546.053
457.711 953.02 467.105
457.711 959.732 467.105
457.711 966.443 467.105
462.687 228.188 368.421
462.687 315.436 322.368
462.687 322.148 322.368
462.687 328.859 322.368
462.687 335.57 493.421
462.687 342.282 230.263
462.687 348.993 493.421
462.687 355.705 611.842
462.687 362.416 414.474
462.687 369.128 723.684
462.687 375.839 743.421
462.687 382.55 263.158
462.687 389.262 743.421
462.687 395.973 750
462.687 402.685 223.684
462.687 409.396 763.158
462.687 422.819 855.263
462.687 429.53 164.474
462.687 436.242 868.421
462.687 442.953 888.158
462.687 449.664 118.421
462.687 456.376 888.158
462.687 463.087 875
462.687 469.799 46.0526
462.687 476.51 875
462.687 483.221 888.158
462.687 489.933 125
462.687 496.644 888.158
462.687 510.067 921.053
462.687 516.779 59.2105
462.687 523.49 927.632
462.687 530.201 967.105
462.687 536.913 13.1579
462.687 543.624 967.105
462.687 557.047 927.632
462.687 563.758 105.263
462.687 570.47 927.632
462.687 577.181 940.789
462.687 583.893 98.6842
462.687 590.604 940.789
462.687 604.027 973.684
462.687 610.738 13.1579
462.687 617.45 980.263
462.687 630.872 947.368
462.687 637.584 151.316
462.687 644.295 947.368
462.687 651.007 868.421
462.687 657.718 296.053
462.687 664.43 868.421
462.687 677.852 809.211
462.687 684.564 322.368
462.687 691.275 809.211
462.687 704.698 842.105
462.687 711.409 263.158
462.687 718.121 835.526
462.687 731.544 822.368
462.687 738.255 263.158
462.687 744.966 822.368
462.687 758.389 763.158
462.687 765.101 256.579
462.687 771.812 763.158
462.687 785.235 769.737
462.687 791.946 302.632
462.687 798.658 763.158
462.687 812.081 789.474
462.687 818.792 223.684
462.687 825.503 789.474
462.687 838.926 723.684
462.687 845.638 138.158
462.687 852.349 717.105
462.687 865.772 697.368
462.687 872.483 539.474
462.687 879.195 690.789
462.687 892.617 638.158
462.687 899.329 401.316
462.687 906.04 631.579
462.687 926.174 638.158
462.687 932.886 401.316
462.687 939.597 638.158
462.687 953.02 467.105
462.687 959.732 467.105
462.687 966.443 467.105
467.662 315.436 328.947
467.662 322.148 328.947
467.662 328.859 322.368
467.662 335.57 493.421
467.662 342.282 230.263
467.662 348.993 493.421
467.662 355.705 565.789
467.662 362.416 565.789
467.662 369.128 611.842
467.662 375.839 710.526
467.662 382.55 368.421
467.662 389.262 736.842
467.662 395.973 723.684
467.662 402.685 315.789
467.662 409.396 750
467.662 422.819 848.684
467.662 429.53 171.053
467.662 436.242 855.263
467.662 442.953 894.737
467.662 449.664 118.421
467.662 456.376 888.158
467.662 463.087 881.579
467.662 469.799 65.7895
467.662 476.51 875
467.662 483.221 907.895
467.662 489.933 131.579
467.662 496.644 901.316
467.662 510.067 914.474
467.662 516.779 72.3684
467.662 523.49 914.474
467.662 530.201 940.789
467.662 536.913 46.0526
467.662 543.624 947.368
467.662 557.047 934.211
467.662 563.758 26.3158
467.662 570.47 927.632
467.662 577.181 947.368
467.662 583.893 98.6842
467.662 590.604 947.368
467.662 604.027 973.684
467.662 610.738 111.842
467.662 617.45 967.105
467.662 630.872 934.211
467.662 637.584 151.316
467.662 644.295 940.789
467.662 651.007 855.263
467.662 657.718 151.316
467.662 664.43 855.263
467.662 677.852 822.368
467.662 684.564 361.842
467.662 691.275 822.368
467.662 704.698 842.105
467.662 711.409 230.263
467.662 718.121 835.526
467.662 731.544 815.789
467.662 738.255 296.053
467.662 744.966 822.368
467.662 758.389 756.579
467.662 765.101 289.474
467.662 771.812 756.579
467.662 785.235 776.316
467.662 791.946 236.842
467.662 798.658 769.737
467.662 812.081 796.053
467.662 818.792 138.158
467.662 825.503 809.211
467.662 838.926 743.421
467.662 845.638 125
467.662 852.349 743.421
467.662 865.772 710.526
467.662 872.483 388.158
467.662 879.195 697.368
467.662 892.617 638.158
467.662 899.329 309.211
467.662 906.04 638.158
467.662 926.174 684.211
467.662 932.886 684.211
467.662 939.597 697.368
467.662 953.02 467.105
467.662 959.732 467.105
467.662 966.443 467.105
472.637 315.436 328.947
472.637 322.148 328.947
472.637 328.859 328.947
472.637 335.57 381.579
472.637 342.282 381.579
472.637 348.993 493.421
472.637 355.705 388.158
472.637 362.416 388.158
472.637 369.128 565.789
472.637 375.839 671.053
472.637 382.55 309.211
472.637 389.262 710.526
472.637 395.973 684.211
472.637 402.685 493.421
472.637 409.396 723.684
472.637 422.819 842.105
472.637 429.53 164.474
472.637 436.242 848.684
472.637 442.953 901.316
472.637 449.664 125
472.637 456.376 888.158
472.637 463.087 901.316
472.637 469.799 111.842
472.637 476.51 888.158
472.637 483.221 914.474
472.637 489.933 85.5263
472.637 496.644 901.316
472.637 510.067 921.053
472.637 516.779 78.9474
472.637 523.49 914.474
472.637 530.201 940.789
472.637 536.913 39.4737
472.637 543.624 947.368
472.637 557.047 934.211
472.637 563.758 26.3158
472.637 570.47 934.211
472.637 577.181 947.368
472.637 583.893 52.6316
472.637 590.604 940.789
472.637 604.027 967.105
472.637 610.738 85.5263
472.637 617.45 967.105
472.637 630.872 927.632
472.637 637.584 171.053
472.637 644.295 934.211
472.637 651.007 848.684
472.637 657.718 157.895
472.637 664.43 855.263
472.637 677.852 848.684
472.637 684.564 250
472.637 691.275 842.105
472.637 704.698 835.526
472.637 711.409 236.842
472.637 718.121 835.526
472.637 731.544 815.789
472.637 738.255 210.526
472.637 744.966 815.789
472.637 758.389 756.579
472.637 765.101 276.316
472.637 771.812 756.579
472.637 785.235 769.737
472.637 791.946 342.105
472.637 798.658 769.737
472.637 812.081 782.895
472.637 818.792 335.526
472.637 825.503 776.316
472.637 838.926 763.158
472.637 845.638 92.1053
472.637 852.349 763.158
472.637 865.772 710.526
472.637 872.483 460.526
472.637 879.195 710.526
472.637 892.617 664.474
472.637 899.329 335.526
472.637 906.04 644.737
472.637 926.174 736.842
472.637 932.886 407.895
472.637 939.597 736.842
472.637 953.02 467.105
472.637 959.732 467.105
472.637 966.443 467.105
477.612 328.859 328.947
477.612 335.57 381.579
477.612 342.282 381.579
477.612 348.993 381.579
477.612 355.705 381.579
477.612 362.416 381.579
477.612 369.128 388.158
477.612 375.839 572.368
477.612 382.55 269.737
477.612 389.262 671.053
477.612 395.973 618.421
477.612 402.685 618.421
477.612 409.396 684.211
477.612 422.819 848.684
477.612 429.53 230.263
477.612 436.242 842.105
477.612 442.953 907.895
477.612 449.664 118.421
477.612 456.376 907.895
477.612 463.087 901.316
477.612 469.799 65.7895
477.612 476.51 888.158
477.612 483.221 907.895
477.612 489.933 98.6842
477.612 496.644 914.474
477.612 510.067 914.474
477.612 516.779 46.0526
477.612 523.49 921.053
477.612 530.201 953.947
477.612 536.913 39.4737
477.612 543.624 940.789
477.612 557.047 947.368
477.612 563.758 39.4737
477.612 570.47 940.789
477.612 577.181 947.368
477.612 583.893 26.3158
477.612 590.604 947.368
477.612 604.027 960.526
477.612 610.738 92.1053
477.612 617.45 960.526
477.612 630.872 914.474
477.612 637.584 131.579
477.612 644.295 921.053
477.612 651.007 842.105
477.612 657.718 105.263
477.612 664.43 842.105
477.612 677.852 861.842
477.612 684.564 138.158
477.612 691.275 842.105
477.612 704.698 835.526
477.612 711.409 125
477.612 718.121 835.526
477.612 731.544 815.789
477.612 738.255 236.842
477.612 744.966 809.211
477.612 758.389 763.158
477.612 765.101 256.579
477.612 771.812 763.158
477.612 785.235 763.158
477.612 791.946 282.895
477.612 798.658 776.316
477.612 812.081 782.895
477.612 818.792 184.211
477.612 825.503 789.474
477.612 838.926 769.737
477.612 845.638 177.632
477.612 852.349 763.158
477.612 865.772 684.211
477.612 872.483 519.737
477.612 879.195 710.526
477.612 892.617 690.789
477.612 899.329 361.842
477.612 906.04 657.895
477.612 926.174 782.895
477.612 932.886 361.842
477.612 939.597 776.316
477.612 953.02 644.737
477.612 959.732 644.737
477.612 966.443 644.737
482.587 335.57 375
482.587 342.282 375
482.587 348.993 375
482.587 355.705 381.579
482.587 362.416 381.579
482.587 369.128 381.579
482.587 375.839 565.789
482.587 382.55 263.158
482.587 389.262 572.368
482.587 395.973 519.737
482.587 402.685 519.737
482.587 409.396 618.421
482.587 422.819 855.263
482.587 429.53 210.526
482.587 436.242 855.263
482.587 442.953 907.895
482.587 449.664 118.421
482.587 456.376 907.895
482.587 463.087 888.158
482.587 469.799 72.3684
482.587 476.51 907.895
482.587 483.221 914.474
482.587 489.933 125
482.587 496.644 907.895
482.587 510.067 921.053
482.587 516.779 52.6316
482.587 523.49 914.474
482.587 530.201 953.947
482.587 536.913 32.8947
482.587 543.624 953.947
482.587 557.047 960.526
482.587 563.758 13.1579
482.587 570.47 947.368
482.587 577.181 953.947
482.587 583.893 26.3158
482.587 590.604 947.368
482.587 604.027 953.947
482.587 610.738 59.2105
482.587 617.45 960.526
482.587 630.872 907.895
482.587 637.584 151.316
482.587 644.295 921.053
482.587 651.007 842.105
482.587 657.718 118.421
482.587 664.43 842.105
482.587 677.852 855.263
482.587 684.564 184.211
482.587 691.275 855.263
482.587 704.698 835.526
482.587 711.409 78.9474
482.587 718.121 835.526
482.587 731.544 815.789
482.587 738.255 230.263
482.587 744.966 815.789
482.587 758.389 776.316
482.587 765.101 243.421
482.587 771.812 776.316
482.587 785.235 769.737
482.587 791.946 375
482.587 798.658 769.737
482.587 812.081 782.895
482.587 818.792 217.105
482.587 825.503 776.316
482.587 838.926 769.737
482.587 845.638 184.211
482.587 852.349 769.737
482.587 865.772 677.632
482.587 872.483 506.579
482.587 879.195 684.211
482.587 892.617 690.789
482.587 899.329 355.263
482.587 906.04 736.842
482.587 926.174 822.368
482.587 932.886 296.053
482.587 939.597 822.368
482.587 953.02 730.263
482.587 959.732 730.263
482.587 966.443 730.263
487.562 335.57 375
487.562 342.282 375
487.562 348.993 375
487.562 355.705 375
487.562 362.416 375
487.562 369.128 381.579
487.562 375.839 565.789
487.562 382.55 263.158
487.562 389.262 565.789
487.562 395.973 434.211
487.562 402.685 434.211
487.562 409.396 519.737
487.562 422.819 855.263
487.562 429.53 250
487.562 436.242 855.263
487.562 442.953 907.895
487.562 449.664 111.842
487.562 456.376 907.895
487.562 463.087 894.737
487.562 469.799 111.842
487.562 476.51 888.158
487.562 483.221 921.053
487.562 489.933 85.5263
487.562 496.644 914.474
487.562 510.067 927.632
487.562 516.779 46.0526
487.562 523.49 921.053
487.562 530.201 940.789
487.562 536.913 46.0526
487.562 543.624 947.368
487.562 557.047 967.105
487.562 563.758 32.8947
487.562 570.47 960.526
487.562 577.181 960.526
487.562 583.893 85.5263
487.562 590.604 953.947
487.562 604.027 953.947
487.562 610.738 118.421
487.562 617.45 953.947
487.562 630.872 901.316
487.562 637.584 171.053
487.562 644.295 907.895
487.562 651.007 842.105
487.562 657.718 151.316
487.562 664.43 835.526
487.562 677.852 848.684
487.562 684.564 65.7895
487.562 691.275 848.684
487.562 704.698 835.526
487.562 711.409 177.632
487.562 718.121 835.526
487.562 731.544 822.368
487.562 738.255 157.895
487.562 744.966 822.368
487.562 758.389 796.053
487.562 765.101 328.947
487.562 771.812 789.474
487.562 785.235 789.474
487.562 791.946 282.895
487.562 798.658 789.474
487.562 812.081 782.895
487.562 818.792 171.053
487.562 825.503 789.474
487.562 838.926 776.316
487.562 845.638 171.053
487.562 852.349 769.737
487.562 865.772 736.842
487.562 872.483 631.579
487.562 879.195 736.842
487.562 892.617 684.211
487.562 899.329 460.526
487.562 906.04 684.211
487.562 926.174 809.211
487.562 932.886 361.842
487.562 939.597 809.211
487.562 953.02 789.474
487.562 959.732 467.105
487.562 966.443 782.895
487.562 986.577 467.105
487.562 993.289 467.105
487.562 1000 467.105
492.537 348.993 375
492.537 355.705 375
492.537 362.416 375
492.537 369.128 375
492.537 375.839 559.211
492.537 382.55 263.158
492.537 389.262 565.789
492.537 395.973 434.211
492.537 402.685 434.211
492.537 409.396 434.211
492.537 422.819 855.263
492.537 429.53 263.158
492.537 436.242 855.263
492.537 442.953 901.316
492.537 449.664 131.579
492.537 456.376 907.895
492.537 463.087 901.316
492.537 469.799 65.7895
492.537 476.51 894.737
492.537 483.221 927.632
492.537 489.933 230.263
492.537 496.644 927.632
492.537 510.067 921.053
492.537 516.779 65.7895
492.537 523.49 921.053
492.537 530.201 934.211
492.537 536.913 52.6316
492.537 543.624 940.789
492.537 557.047 960.526
492.537 563.758 78.9474
492.537 570.47 960.526
492.537 577.181 967.105
492.537 583.893 26.3158
492.537 590.604 967.105
492.537 604.027 960.526
492.537 610.738 105.263
492.537 617.45 953.947
492.537 630.872 901.316
492.537 637.584 190.789
492.537 644.295 901.316
492.537 651.007 842.105
492.537 657.718 217.105
492.537 664.43 848.684
492.537 677.852 835.526
492.537 684.564 118.421
492.537 691.275 842.105
492.537 704.698 835.526
492.537 711.409 65.7895
492.537 718.121 835.526
492.537 731.544 822.368
492.537 738.255 177.632
492.537 744.966 822.368
492.537 758.389 802.632
492.537 765.101 388.158
492.537 771.812 802.632
492.537 785.235 802.632
492.537 791.946 230.263
492.537 798.658 789.474
492.537 812.081 789.474
492.537 818.792 190.789
492.537 825.503 782.895
492.537 838.926 776.316
492.537 845.638 164.474
492.537 852.349 769.737
492.537 865.772 743.421
492.537 872.483 506.579
492.537 879.195 736.842
492.537 892.617 736.842
492.537 899.329 592.105
492.537 906.04 743.421
492.537 926.174 835.526
492.537 932.886 447.368
492.537 939.597 835.526
492.537 953.02 828.947
492.537 959.732 473.684
492.537 966.443 822.368
492.537 986.577 467.105
492.537 993.289 467.105
492.537 1000 467.105
497.512 369.128 375
497.512 375.839 559.211
497.512 382.55 263.158
497.512 389.262 559.211
497.512 395.973 421.053
497.512 402.685 421.053
497.512 409.396 427.632
497.512 422.819 855.263
497.512 429.53 427.632
497.512 436.242 855.263
497.512 442.953 894.737
497.512 449.664 138.158
497.512 456.376 901.316
497.512 463.087 907.895
497.512 469.799 138.158
497.512 476.51 901.316
497.512 483.221 934.211
497.512 489.933 105.263
497.512 496.644 921.053
497.512 510.067 914.474
497.512 516.779 78.9474
497.512 523.49 921.053
497.512 530.201 927.632
497.512 536.913 46.0526
497.512 543.624 934.211
497.512 557.047 967.105
497.512 563.758 32.8947
497.512 570.47 960.526
497.512 577.181 967.105
497.512 583.893 46.0526
497.512 590.604 967.105
497.512 604.027 953.947
497.512 610.738 118.421
497.512 617.45 960.526
497.512 630.872 888.158
497.512 637.584 243.421
497.512 644.295 901.316
497.512 651.007 848.684
497.512 657.718 210.526
497.512 664.43 848.684
497.512 677.852 828.947
497.512 684.564 111.842
497.512 691.275 842.105
497.512 704.698 848.684
497.512 711.409 92.1053
497.512 718.121 842.105
497.512 731.544 822.368
497.512 738.255 111.842
497.512 744.966 822.368
497.512 758.389 809.211
497.512 765.101 138.158
497.512 771.812 809.211
497.512 785.235 809.211
497.512 791.946 388.158
497.512 798.658 809.211
497.512 812.081 796.053
497.512 818.792 203.947
497.512 825.503 789.474
497.512 838.926 782.895
497.512 845.638 184.211
497.512 852.349 782.895
497.512 865.772 776.316
497.512 872.483 434.211
497.512 879.195 769.737
497.512 892.617 756.579
497.512 899.329 473.684
497.512 906.04 756.579
497.512 926.174 848.684
497.512 932.886 440.789
497.512 939.597 848.684
497.512 953.02 828.947
497.512 959.732 796.053
497.512 966.443 855.263
497.512 986.577 651.316
497.512 993.289 651.316
497.512 1000 651.316
502.488 375.839 434.211
502.488 382.55 434.211
502.488 389.262 559.211
502.488 395.973 625
502.488 402.685 625
502.488 409.396 625
502.488 422.819 809.211
502.488 429.53 440.789
502.488 436.242 855.263
502.488 442.953 894.737
502.488 449.664 138.158
502.488 456.376 901.316
502.488 463.087 914.474
502.488 469.799 92.1053
502.488 476.51 907.895
502.488 483.221 927.632
502.488 489.933 151.316
502.488 496.644 927.632
502.488 510.067 921.053
502.488 516.779 85.5263
502.488 523.49 914.474
502.488 530.201 934.211
502.488 536.913 85.5263
502.488 543.624 934.211
502.488 557.047 960.526
502.488 563.758 39.4737
502.488 570.47 960.526
502.488 577.181 967.105
502.488 583.893 85.5263
502.488 590.604 967.105
502.488 604.027 947.368
502.488 610.738 171.053
502.488 617.45 953.947
502.488 630.872 881.579
502.488 637.584 296.053
502.488 644.295 888.158
502.488 651.007 835.526
502.488 657.718 276.316
502.488 664.43 848.684
502.488 677.852 828.947
502.488 684.564 190.789
502.488 691.275 828.947
502.488 704.698 848.684
502.488 711.409 72.3684
502.488 718.121 842.105
502.488 731.544 842.105
502.488 738.255 151.316
502.488 744.966 835.526
502.488 758.389 815.789
502.488 765.101 236.842
502.488 771.812 809.211
502.488 785.235 815.789
502.488 791.946 230.263
502.488 798.658 815.789
502.488 812.081 809.211
502.488 818.792 282.895
502.488 825.503 809.211
502.488 838.926 796.053
502.488 845.638 243.421
502.488 852.349 776.316
502.488 865.772 796.053
502.488 872.483 493.421
502.488 879.195 815.789
502.488 892.617 736.842
502.488 899.329 421.053
502.488 906.04 776.316
502.488 926.174 855.263
502.488 932.886 493.421
502.488 939.597 855.263
502.488 953.02 789.474
502.488 959.732 736.842
502.488 966.443 828.947
502.488 986.577 473.684
502.488 993.289 473.684
502.488 1000 651.316
507.463 375.839 434.211
507.463 382.55 434.211
507.463 389.262 434.211
507.463 395.973 625
507.463 402.685 625
507.463 409.396 618.421
507.463 422.819 802.632
507.463 429.53 427.632
507.463 436.242 809.211
507.463 442.953 894.737
507.463 449.664 217.105
507.463 456.376 894.737
507.463 463.087 921.053
507.463 469.799 197.368
507.463 476.51 914.474
507.463 483.221 921.053
507.463 489.933 125
507.463 496.644 927.632
507.463 510.067 914.474
507.463 516.779 138.158
507.463 523.49 914.474
507.463 530.201 934.211
507.463 536.913 118.421
507.463 543.624 934.211
507.463 557.047 960.526
507.463 563.758 6.57895
507.463 570.47 960.526
507.463 577.181 967.105
507.463 583.893 52.6316
507.463 590.604 967.105
507.463 604.027 940.789
507.463 610.738 131.579
507.463 617.45 947.368
507.463 630.872 868.421
507.463 637.584 230.263
507.463 644.295 888.158
507.463 651.007 835.526
507.463 657.718 342.105
507.463 664.43 842.105
507.463 677.852 835.526
507.463 684.564 276.316
507.463 691.275 842.105
507.463 704.698 842.105
507.463 711.409 78.9474
507.463 718.121 848.684
507.463 731.544 842.105
507.463 738.255 72.3684
507.463 744.966 842.105
507.463 758.389 822.368
507.463 765.101 197.368
507.463 771.812 822.368
507.463 785.235 822.368
507.463 791.946 118.421
507.463 798.658 815.789
507.463 812.081 822.368
507.463 818.792 190.789
507.463 825.503 815.789
507.463 838.926 789.474
507.463 845.638 197.368
507.463 852.349 796.053
507.463 865.772 776.316
507.463 872.483 467.105
507.463 879.195 782.895
507.463 892.617 763.158
507.463 899.329 421.053
507.463 906.04 769.737
507.463 926.174 861.842
507.463 932.886 394.737
507.463 939.597 855.263
507.463 953.02 789.474
507.463 959.732 736.842
507.463 966.443 789.474
507.463 986.577 473.684
507.463 993.289 473.684
507.463 1000 473.684
512.438 375.839 427.632
512.438 382.55 427.632
512.438 389.262 427.632
512.438 395.973 638.158
512.438 402.685 638.158
512.438 409.396 631.579
512.438 422.819 796.053
512.438 429.53 394.737
512.438 436.242 802.632
512.438 442.953 914.474
512.438 449.664 282.895
512.438 456.376 901.316
512.438 463.087 921.053
512.438 469.799 184.211
512.438 476.51 921.053
512.438 483.221 927.632
512.438 489.933 125
512.438 496.644 921.053
512.438 510.067 907.895
512.438 516.779 111.842
512.438 523.49 907.895
512.438 530.201 914.474
512.438 536.913 65.7895
512.438 543.624 934.211
512.438 557.047 960.526
512.438 563.758 19.7368
512.438 570.47 960.526
512.438 577.181 960.526
512.438 583.893 78.9474
512.438 590.604 967.105
512.438 604.027 940.789
512.438 610.738 125
512.438 617.45 947.368
512.438 630.872 868.421
512.438 637.584 203.947
512.438 644.295 868.421
512.438 651.007 815.789
512.438 657.718 381.579
512.438 664.43 835.526
512.438 677.852 822.368
512.438 684.564 342.105
512.438 691.275 842.105
512.438 704.698 835.526
512.438 711.409 157.895
512.438 718.121 842.105
512.438 731.544 835.526
512.438 738.255 78.9474
512.438 744.966 842.105
512.438 758.389 828.947
512.438 765.101 144.737
512.438 771.812 822.368
512.438 785.235 815.789
512.438 791.946 98.6842
512.438 798.658 815.789
512.438 812.081 828.947
512.438 818.792 131.579
512.438 825.503 822.368
512.438 838.926 809.211
512.438 845.638 256.579
512.438 852.349 802.632
512.438 865.772 769.737
512.438 872.483 401.316
512.438 879.195 796.053
512.438 892.617 776.316
512.438 899.329 381.579
512.438 906.04 763.158
512.438 926.174 881.579
512.438 932.886 375
512.438 939.597 881.579
512.438 953.02 736.842
512.438 959.732 473.684
512.438 966.443 789.474
512.438 1000 473.684
517.413 375.839 427.632
517.413 382.55 427.632
517.413 389.262 427.632
517.413 395.973 638.158
517.413 402.685 638.158
517.413 409.396 625
517.413 422.819 842.105
517.413 429.53 500
517.413 436.242 835.526
517.413 442.953 914.474
517.413 449.664 177.632
517.413 456.376 914.474
517.413 463.087 921.053
517.413 469.799 151.316
517.413 476.51 921.053
517.413 483.221 907.895
517.413 489.933 256.579
517.413 496.644 907.895
517.413 510.067 894.737
517.413 516.779 125
517.413 523.49 907.895
517.413 530.201 914.474
517.413 536.913 65.7895
517.413 543.624 914.474
517.413 557.047 960.526
517.413 563.758 46.0526
517.413 570.47 953.947
517.413 577.181 967.105
517.413 583.893 59.2105
517.413 590.604 960.526
517.413 604.027 934.211
517.413 610.738 78.9474
517.413 617.45 940.789
517.413 630.872 855.263
517.413 637.584 217.105
517.413 644.295 861.842
517.413 651.007 796.053
517.413 657.718 348.684
517.413 664.43 822.368
517.413 677.852 828.947
517.413 684.564 414.474
517.413 691.275 828.947
517.413 704.698 835.526
517.413 711.409 197.368
517.413 718.121 835.526
517.413 731.544 835.526
517.413 738.255 177.632
517.413 744.966 842.105
517.413 758.389 835.526
517.413 765.101 118.421
517.413 771.812 835.526
517.413 785.235 822.368
517.413 791.946 131.579
517.413 798.658 822.368
517.413 812.081 828.947
517.413 818.792 92.1053
517.413 825.503 828.947
517.413 838.926 815.789
517.413 845.638 184.211
517.413 852.349 809.211
517.413 865.772 789.474
517.413 872.483 500
517.413 879.195 776.316
517.413 892.617 802.632
517.413 899.329 559.211
517.413 906.04 809.211
517.413 926.174 888.158
517.413 932.886 322.368
517.413 939.597 888.158
517.413 953.02 736.842
517.413 959.732 473.684
517.413 966.443 736.842
522.388 375.839 421.053
522.388 382.55 421.053
522.388 389.262 427.632
522.388 395.973 625
522.388 402.685 625
522.388 409.396 644.737
522.388 422.819 822.368
522.388 429.53 328.947
522.388 436.242 815.789
522.388 442.953 914.474
522.388 449.664 190.789
522.388 456.376 914.474
522.388 463.087 921.053
522.388 469.799 203.947
522.388 476.51 914.474
522.388 483.221 894.737
522.388 489.933 190.789
522.388 496.644 888.158
522.388 510.067 894.737
522.388 516.779 105.263
522.388 523.49 894.737
522.388 530.201 907.895
522.388 536.913 78.9474
522.388 543.624 914.474
522.388 557.047 967.105
522.388 563.758 32.8947
522.388 570.47 960.526
522.388 577.181 967.105
522.388 583.893 59.2105
522.388 590.604 967.105
522.388 604.027 934.211
522.388 610.738 118.421
522.388 617.45 940.789
522.388 630.872 828.947
522.388 637.584 210.526
522.388 644.295 855.263
522.388 651.007 796.053
522.388 657.718 348.684
522.388 664.43 796.053
522.388 677.852 822.368
522.388 684.564 381.579
522.388 691.275 828.947
522.388 704.698 828.947
522.388 711.409 309.211
522.388 718.121 835.526
522.388 731.544 835.526
522.388 738.255 157.895
522.388 744.966 835.526
522.388 758.389 835.526
522.388 765.101 217.105
522.388 771.812 835.526
522.388 785.235 828.947
522.388 791.946 85.5263
522.388 798.658 822.368
522.388 812.081 842.105
522.388 818.792 98.6842
522.388 825.503 835.526
522.388 838.926 822.368
522.388 845.638 236.842
522.388 852.349 822.368
522.388 865.772 789.474
522.388 872.483 348.684
522.388 879.195 789.474
522.388 892.617 802.632
522.388 899.329 414.474
522.388 906.04 809.211
522.388 926.174 894.737
522.388 932.886 335.526
522.388 939.597 888.158
522.388 953.02 736.842
522.388 959.732 467.105
522.388 966.443 736.842
527.363 375.839 421.053
527.363 382.55 421.053
527.363 389.262 421.053
527.363 395.973 421.053
527.363 402.685 421.053
527.363 409.396 625
527.363 422.819 782.895
527.363 429.53 381.579
527.363 436.242 822.368
527.363 442.953 907.895
527.363 449.664 184.211
527.363 456.376 914.474
527.363 463.087 934.211
527.363 469.799 197.368
527.363 476.51 934.211
527.363 483.221 901.316
527.363 489.933 210.526
527.363 496.644 888.158
527.363 510.067 901.316
527.363 516.779 78.9474
527.363 523.49 888.158
527.363 530.201 914.474
527.363 536.913 52.6316
527.363 543.624 907.895
527.363 557.047 960.526
527.363 563.758 32.8947
527.363 570.47 960.526
527.363 577.181 960.526
527.363 583.893 125
527.363 590.604 967.105
527.363 604.027 927.632
527.363 610.738 92.1053
527.363 617.45 927.632
527.363 630.872 842.105
527.363 637.584 322.368
527.363 644.295 842.105
527.363 651.007 789.474
527.363 657.718 559.211
527.363 664.43 802.632
527.363 677.852 815.789
527.363 684.564 401.316
527.363 691.275 822.368
527.363 704.698 815.789
527.363 711.409 328.947
527.363 718.121 822.368
527.363 731.544 822.368
527.363 738.255 236.842
527.363 744.966 835.526
527.363 758.389 828.947
527.363 765.101 256.579
527.363 771.812 835.526
527.363 785.235 835.526
527.363 791.946 276.316
527.363 798.658 835.526
527.363 812.081 842.105
527.363 818.792 85.5263
527.363 825.503 835.526
527.363 838.926 835.526
527.363 845.638 125
527.363 852.349 828.947
527.363 865.772 802.632
527.363 872.483 348.684
527.363 879.195 802.632
527.363 892.617 822.368
527.363 899.329 342.105
527.363 906.04 802.632
527.363 926.174 901.316
527.363 932.886 296.053
527.363 939.597 888.158
527.363 953.02 730.263
527.363 959.732 644.737
527.363 966.443 736.842
532.338 389.262 421.053
532.338 409.396 421.053
532.338 422.819 796.053
532.338 429.53 539.474
532.338 436.242 789.474
532.338 442.953 894.737
532.338 449.664 197.368
532.338 456.376 907.895
532.338 463.087 921.053
532.338 469.799 217.105
532.338 476.51 921.053
532.338 483.221 914.474
532.338 489.933 157.895
532.338 496.644 901.316
532.338 510.067 901.316
532.338 516.779 52.6316
532.338 523.49 894.737
532.338 530.201 927.632
532.338 536.913 72.3684
532.338 543.624 914.474
532.338 557.047 960.526
532.338 563.758 26.3158
532.338 570.47 960.526
532.338 577.181 953.947
532.338 583.893 118.421
532.338 590.604 960.526
532.338 604.027 921.053
532.338 610.738 105.263
532.338 617.45 934.211
532.338 630.872 842.105
532.338 637.584 335.526
532.338 644.295 835.526
532.338 651.007 789.474
532.338 657.718 256.579
532.338 664.43 789.474
532.338 677.852 802.632
532.338 684.564 480.263
532.338 691.275 815.789
532.338 704.698 815.789
532.338 711.409 361.842
532.338 718.121 815.789
532.338 731.544 809.211
532.338 738.255 269.737
532.338 744.966 822.368
532.338 758.389 815.789
532.338 765.101 309.211
532.338 771.812 828.947
532.338 785.235 835.526
532.338 791.946 236.842
532.338 798.658 842.105
532.338 812.081 848.684
532.338 818.792 125
532.338 825.503 848.684
532.338 838.926 848.684
532.338 845.638 111.842
532.338 852.349 835.526
532.338 865.772 822.368
532.338 872.483 407.895
532.338 879.195 809.211
532.338 892.617 848.684
532.338 899.329 315.789
532.338 906.04 828.947
532.338 926.174 901.316
532.338 932.886 322.368
532.338 939.597 901.316
532.338 953.02 644.737
532.338 959.732 467.105
532.338 966.443 730.263
537.313 422.819 776.316
537.313 429.53 322.368
537.313 436.242 796.053
537.313 442.953 875
537.313 449.664 210.526
537.313 456.376 881.579
537.313 463.087 921.053
537.313 469.799 144.737
537.313 476.51 921.053
537.313 483.221 921.053
537.313 489.933 190.789
537.313 496.644 907.895
537.313 510.067 901.316
537.313 516.779 52.6316
537.313 523.49 901.316
537.313 530.201 960.526
537.313 536.913 138.158
537.313 543.624 953.947
537.313 557.047 960.526
537.313 563.758 19.7368
537.313 570.47 960.526
537.313 577.181 953.947
537.313 583.893 85.5263
537.313 590.604 953.947
537.313 604.027 927.632
537.313 610.738 125
537.313 617.45 927.632
537.313 630.872 835.526
537.313 637.584 256.579
537.313 644.295 848.684
537.313 651.007 809.211
537.313 657.718 532.895
537.313 664.43 809.211
537.313 677.852 763.158
537.313 684.564 500
537.313 691.275 809.211
537.313 704.698 789.474
537.313 711.409 296.053
537.313 718.121 815.789
537.313 731.544 809.211
537.313 738.255 335.526
537.313 744.966 815.789
537.313 758.389 769.737
537.313 765.101 381.579
537.313 771.812 815.789
537.313 785.235 828.947
537.313 791.946 276.316
537.313 798.658 828.947
537.313 812.081 848.684
537.313 818.792 78.9474
537.313 825.503 848.684
537.313 838.926 855.263
537.313 845.638 59.2105
