333.333 101.124 382.022
333.333 106.742 550.562
333.333 112.36 550.562
333.333 117.978 550.562
333.333 123.596 550.562
333.333 129.213 556.18
333.333 134.831 556.18
333.333 140.449 561.798
333.333 146.067 561.798
333.333 151.685 561.798
333.333 157.303 561.798
333.333 162.921 556.18
333.333 168.539 556.18
333.333 174.157 556.18
333.333 179.775 556.18
333.333 185.393 556.18
333.333 191.011 556.18
333.333 196.629 432.584
333.333 202.247 573.034
333.333 207.865 561.798
333.333 213.483 567.416
333.333 219.101 567.416
333.333 224.719 567.416
333.333 230.337 567.416
333.333 235.955 567.416
333.333 241.573 567.416
333.333 247.191 567.416
333.333 252.809 567.416
333.333 258.427 567.416
333.333 264.045 567.416
333.333 269.663 567.416
333.333 275.281 567.416
333.333 280.899 567.416
333.333 286.517 573.034
333.333 292.135 449.438
333.333 297.753 573.034
333.333 303.371 573.034
333.333 308.989 533.708
333.333 314.607 573.034
333.333 320.225 567.416
333.333 325.843 567.416
333.333 331.461 533.708
333.333 337.079 544.944
333.333 342.697 651.685
333.333 348.315 651.685
333.333 353.933 438.202
333.333 359.551 589.888
333.333 365.169 573.034
333.333 370.787 415.73
333.333 376.404 449.438
333.333 382.022 550.562
333.333 387.64 494.382
333.333 393.258 398.876
333.333 398.876 28.0899
333.333 623.596 5.61798
333.333 629.213 151.685
333.333 634.831 191.011
333.333 640.449 117.978
333.333 646.067 258.427
333.333 651.685 117.978
333.333 657.303 230.337
333.333 662.921 393.258
333.333 668.539 494.382
333.333 674.157 567.416
333.333 679.775 561.798
333.333 685.393 320.225
333.333 691.011 337.079
333.333 696.629 528.09
333.333 702.247 561.798
333.333 707.865 561.798
333.333 713.483 561.798
333.333 719.101 567.416
333.333 724.719 443.82
333.333 730.337 466.292
333.333 735.955 567.416
333.333 741.573 567.416
333.333 747.191 438.202
333.333 752.809 494.382
333.333 758.427 528.09
333.333 764.045 561.798
333.333 769.663 561.798
333.333 775.281 561.798
333.333 780.899 561.798
333.333 786.517 522.472
333.333 792.135 500
333.333 797.753 297.753
333.333 803.371 331.461
333.333 808.989 325.843
333.333 814.607 224.719
333.333 820.225 387.64
333.333 825.843 387.64
333.333 831.461 387.64
333.333 837.079 387.64
333.333 853.933 387.64
333.333 859.551 387.64
333.333 865.169 387.64
333.333 870.787 387.64
333.333 876.404 387.64
333.333 882.022 387.64
333.333 887.64 387.64
333.333 915.73 382.022
333.333 921.348 556.18
333.333 926.966 556.18
333.333 932.584 556.18
333.333 938.202 556.18
333.333 943.82 556.18
333.333 949.438 550.562
333.333 955.056 556.18
333.333 960.674 556.18
333.333 966.292 556.18
333.333 971.91 556.18
333.333 977.528 556.18
333.333 983.146 387.64
333.333 988.764 387.64
333.333 994.382 387.64
333.333 1000 387.64
337.607 39.3258 387.64
337.607 44.9438 387.64
337.607 50.5618 387.64
337.607 56.1798 387.64
337.607 61.7978 544.944
337.607 67.4157 544.944
337.607 73.0337 550.562
337.607 78.6517 550.562
337.607 84.2697 550.562
337.607 89.8876 550.562
337.607 95.5056 550.562
337.607 101.124 550.562
337.607 106.742 550.562
337.607 112.36 550.562
337.607 117.978 550.562
337.607 123.596 550.562
337.607 129.213 556.18
337.607 134.831 556.18
337.607 140.449 561.798
337.607 146.067 561.798
337.607 151.685 561.798
337.607 157.303 561.798
337.607 162.921 561.798
337.607 168.539 556.18
337.607 174.157 556.18
337.607 179.775 556.18
337.607 185.393 561.798
337.607 191.011 556.18
337.607 196.629 556.18
337.607 202.247 556.18
337.607 207.865 460.674
337.607 213.483 460.674
337.607 219.101 438.202
337.607 224.719 578.652
337.607 230.337 567.416
337.607 235.955 567.416
337.607 241.573 567.416
337.607 247.191 567.416
337.607 252.809 567.416
337.607 258.427 567.416
337.607 264.045 567.416
337.607 269.663 567.416
337.607 275.281 567.416
337.607 280.899 567.416
337.607 286.517 567.416
337.607 292.135 567.416
337.607 297.753 533.708
337.607 303.371 573.034
337.607 308.989 567.416
337.607 314.607 533.708
337.607 320.225 573.034
337.607 325.843 567.416
337.607 331.461 533.708
337.607 337.079 421.348
337.607 342.697 662.921
337.607 348.315 550.562
337.607 353.933 426.966
337.607 359.551 617.978
337.607 365.169 573.034
337.607 370.787 415.73
337.607 376.404 533.708
337.607 382.022 589.888
337.607 387.64 376.404
337.607 393.258 297.753
337.607 398.876 264.045
337.607 623.596 84.2697
337.607 629.213 123.596
337.607 634.831 235.955
337.607 640.449 134.831
337.607 646.067 146.067
337.607 651.685 174.157
337.607 657.303 393.258
337.607 662.921 393.258
337.607 668.539 404.494
337.607 674.157 528.09
337.607 679.775 567.416
337.607 685.393 191.011
337.607 691.011 528.09
337.607 696.629 460.674
337.607 702.247 528.09
337.607 707.865 561.798
337.607 713.483 573.034
337.607 719.101 443.82
337.607 724.719 466.292
337.607 730.337 561.798
337.607 735.955 567.416
337.607 741.573 567.416
337.607 747.191 567.416
337.607 752.809 573.034
337.607 758.427 443.82
337.607 764.045 471.91
337.607 769.663 297.753
337.607 775.281 331.461
337.607 780.899 331.461
337.607 786.517 292.135
337.607 792.135 483.146
337.607 797.753 471.91
337.607 803.371 561.798
337.607 808.989 561.798
337.607 814.607 561.798
337.607 820.225 387.64
337.607 825.843 387.64
337.607 831.461 387.64
337.607 837.079 387.64
337.607 842.697 387.64
337.607 848.315 387.64
337.607 853.933 387.64
337.607 859.551 387.64
337.607 865.169 556.18
337.607 870.787 556.18
337.607 876.404 556.18
337.607 882.022 387.64
337.607 887.64 387.64
337.607 893.258 387.64
337.607 898.876 387.64
337.607 904.494 382.022
337.607 910.112 382.022
337.607 915.73 556.18
337.607 921.348 556.18
337.607 926.966 556.18
337.607 932.584 556.18
337.607 938.202 556.18
337.607 943.82 556.18
337.607 949.438 556.18
337.607 955.056 556.18
337.607 960.674 556.18
337.607 966.292 556.18
337.607 971.91 556.18
337.607 977.528 556.18
337.607 983.146 556.18
337.607 988.764 556.18
337.607 994.382 387.64
341.88 33.7079 387.64
341.88 39.3258 387.64
341.88 44.9438 387.64
341.88 50.5618 387.64
341.88 56.1798 387.64
341.88 61.7978 387.64
341.88 67.4157 544.944
341.88 73.0337 550.562
341.88 78.6517 550.562
341.88 84.2697 550.562
341.88 89.8876 550.562
341.88 95.5056 550.562
341.88 101.124 550.562
341.88 106.742 550.562
341.88 112.36 550.562
341.88 117.978 550.562
341.88 123.596 556.18
341.88 129.213 556.18
341.88 134.831 556.18
341.88 140.449 561.798
341.88 146.067 561.798
341.88 151.685 561.798
341.88 157.303 561.798
341.88 162.921 556.18
341.88 168.539 556.18
341.88 174.157 556.18
341.88 179.775 556.18
341.88 185.393 561.798
341.88 191.011 556.18
341.88 196.629 556.18
341.88 202.247 556.18
341.88 207.865 561.798
341.88 213.483 561.798
341.88 219.101 561.798
341.88 224.719 561.798
341.88 230.337 432.584
341.88 235.955 578.652
341.88 241.573 567.416
341.88 247.191 567.416
341.88 252.809 567.416
341.88 258.427 567.416
341.88 264.045 567.416
341.88 269.663 567.416
341.88 275.281 573.034
341.88 280.899 567.416
341.88 286.517 567.416
341.88 292.135 567.416
341.88 297.753 567.416
341.88 303.371 528.09
341.88 308.989 573.034
341.88 314.607 567.416
341.88 320.225 533.708
341.88 325.843 533.708
341.88 331.461 466.292
341.88 337.079 578.652
341.88 342.697 629.213
341.88 348.315 494.382
341.88 353.933 629.213
341.88 359.551 500
341.88 365.169 528.09
341.88 370.787 421.348
341.88 376.404 595.506
341.88 382.022 415.73
341.88 387.64 331.461
341.88 393.258 342.697
341.88 398.876 365.169
341.88 617.978 5.61798
341.88 623.596 146.067
341.88 629.213 179.775
341.88 634.831 404.494
341.88 640.449 213.483
341.88 646.067 117.978
341.88 651.685 230.337
341.88 657.303 393.258
341.88 662.921 393.258
341.88 668.539 393.258
341.88 674.157 494.382
341.88 679.775 443.82
341.88 685.393 466.292
341.88 691.011 494.382
341.88 696.629 561.798
341.88 702.247 438.202
341.88 707.865 342.697
341.88 713.483 421.348
341.88 719.101 466.292
341.88 724.719 561.798
341.88 730.337 561.798
341.88 735.955 561.798
341.88 741.573 567.416
341.88 747.191 578.652
341.88 752.809 438.202
341.88 758.427 466.292
341.88 764.045 466.292
341.88 769.663 466.292
341.88 775.281 561.798
341.88 780.899 567.416
341.88 786.517 567.416
341.88 792.135 567.416
341.88 797.753 561.798
341.88 803.371 561.798
341.88 808.989 561.798
341.88 814.607 561.798
341.88 820.225 561.798
341.88 825.843 561.798
341.88 831.461 561.798
341.88 837.079 561.798
341.88 842.697 561.798
341.88 848.315 561.798
341.88 853.933 556.18
341.88 859.551 556.18
341.88 865.169 556.18
341.88 870.787 556.18
341.88 876.404 556.18
341.88 882.022 556.18
341.88 887.64 556.18
341.88 893.258 556.18
341.88 898.876 556.18
341.88 904.494 556.18
341.88 910.112 556.18
341.88 915.73 556.18
341.88 921.348 556.18
341.88 926.966 556.18
341.88 932.584 556.18
341.88 938.202 556.18
341.88 943.82 556.18
341.88 949.438 556.18
341.88 955.056 556.18
341.88 960.674 556.18
341.88 966.292 556.18
341.88 971.91 556.18
341.88 977.528 556.18
341.88 983.146 556.18
341.88 988.764 556.18
341.88 994.382 556.18
346.154 11.236 393.258
346.154 16.8539 398.876
346.154 22.4719 393.258
346.154 28.0899 387.64
346.154 33.7079 387.64
346.154 39.3258 387.64
346.154 44.9438 387.64
346.154 50.5618 387.64
346.154 56.1798 387.64
346.154 61.7978 387.64
346.154 67.4157 387.64
346.154 73.0337 550.562
346.154 78.6517 550.562
346.154 84.2697 550.562
346.154 89.8876 550.562
346.154 95.5056 550.562
346.154 101.124 550.562
346.154 106.742 550.562
346.154 112.36 550.562
346.154 117.978 550.562
346.154 123.596 556.18
346.154 129.213 556.18
346.154 134.831 556.18
346.154 140.449 556.18
346.154 146.067 561.798
346.154 151.685 561.798
346.154 157.303 561.798
346.154 162.921 556.18
346.154 168.539 556.18
346.154 174.157 561.798
346.154 179.775 561.798
346.154 185.393 561.798
346.154 191.011 556.18
346.154 196.629 556.18
346.154 202.247 556.18
346.154 207.865 556.18
346.154 213.483 561.798
346.154 219.101 561.798
346.154 224.719 561.798
346.154 230.337 561.798
346.154 235.955 561.798
346.154 241.573 460.674
346.154 247.191 460.674
346.154 252.809 438.202
346.154 258.427 578.652
346.154 264.045 573.034
346.154 269.663 567.416
346.154 275.281 573.034
346.154 280.899 567.416
346.154 286.517 567.416
346.154 292.135 567.416
346.154 297.753 567.416
346.154 303.371 567.416
346.154 308.989 528.09
346.154 314.607 573.034
346.154 320.225 533.708
346.154 325.843 421.348
346.154 331.461 584.27
346.154 337.079 612.36
346.154 342.697 623.596
346.154 348.315 438.202
346.154 353.933 544.944
346.154 359.551 505.618
346.154 365.169 528.09
346.154 370.787 595.506
346.154 376.404 477.528
346.154 382.022 376.404
346.154 387.64 398.876
346.154 393.258 376.404
346.154 398.876 393.258
346.154 617.978 44.9438
346.154 623.596 117.978
346.154 629.213 247.191
346.154 634.831 140.449
346.154 640.449 157.303
346.154 646.067 174.157
346.154 651.685 393.258
346.154 657.303 393.258
346.154 662.921 393.258
346.154 668.539 410.112
346.154 674.157 224.719
346.154 679.775 466.292
346.154 685.393 567.416
346.154 691.011 404.494
346.154 696.629 539.326
346.154 702.247 443.82
346.154 707.865 483.146
346.154 713.483 432.584
346.154 719.101 488.764
346.154 724.719 528.09
346.154 730.337 573.034
346.154 735.955 438.202
346.154 741.573 466.292
346.154 747.191 466.292
346.154 752.809 466.292
346.154 758.427 561.798
346.154 764.045 561.798
346.154 769.663 561.798
346.154 775.281 561.798
346.154 780.899 561.798
346.154 786.517 561.798
346.154 792.135 561.798
346.154 797.753 561.798
346.154 803.371 561.798
346.154 808.989 561.798
346.154 814.607 561.798
346.154 820.225 561.798
346.154 825.843 561.798
346.154 831.461 561.798
346.154 837.079 561.798
346.154 842.697 561.798
346.154 848.315 561.798
346.154 853.933 561.798
346.154 859.551 556.18
346.154 865.169 556.18
346.154 870.787 556.18
346.154 876.404 556.18
346.154 882.022 556.18
346.154 887.64 556.18
346.154 893.258 556.18
346.154 898.876 556.18
346.154 904.494 556.18
346.154 910.112 556.18
346.154 915.73 556.18
346.154 921.348 556.18
346.154 926.966 556.18
346.154 932.584 556.18
346.154 938.202 556.18
346.154 943.82 556.18
346.154 949.438 556.18
346.154 955.056 556.18
346.154 960.674 556.18
346.154 966.292 556.18
346.154 971.91 556.18
346.154 977.528 556.18
346.154 983.146 556.18
346.154 988.764 556.18
346.154 994.382 556.18
350.427 5.61798 393.258
350.427 11.236 398.876
350.427 16.8539 398.876
350.427 22.4719 398.876
350.427 28.0899 393.258
350.427 33.7079 387.64
350.427 39.3258 387.64
350.427 44.9438 387.64
350.427 50.5618 387.64
350.427 56.1798 387.64
350.427 61.7978 387.64
350.427 67.4157 387.64
350.427 73.0337 550.562
350.427 78.6517 550.562
350.427 84.2697 550.562
350.427 89.8876 550.562
350.427 95.5056 550.562
350.427 101.124 550.562
350.427 106.742 550.562
350.427 112.36 550.562
350.427 117.978 550.562
350.427 123.596 550.562
350.427 129.213 550.562
350.427 134.831 398.876
350.427 140.449 398.876
350.427 146.067 556.18
350.427 151.685 561.798
350.427 157.303 561.798
350.427 162.921 556.18
350.427 168.539 561.798
350.427 174.157 561.798
350.427 179.775 561.798
350.427 185.393 561.798
350.427 191.011 556.18
350.427 196.629 556.18
350.427 202.247 556.18
350.427 207.865 556.18
350.427 213.483 561.798
350.427 219.101 561.798
350.427 224.719 561.798
350.427 230.337 561.798
350.427 235.955 561.798
350.427 241.573 561.798
350.427 247.191 561.798
350.427 252.809 561.798
350.427 258.427 561.798
350.427 264.045 466.292
350.427 269.663 443.82
350.427 275.281 578.652
350.427 280.899 573.034
350.427 286.517 573.034
350.427 292.135 567.416
350.427 297.753 567.416
350.427 303.371 567.416
350.427 308.989 567.416
350.427 314.607 488.764
350.427 320.225 471.91
350.427 325.843 578.652
350.427 331.461 533.708
350.427 337.079 646.067
350.427 342.697 578.652
350.427 348.315 595.506
350.427 353.933 505.618
350.427 359.551 494.382
350.427 365.169 544.944
350.427 370.787 606.742
350.427 376.404 483.146
350.427 382.022 432.584
350.427 387.64 466.292
350.427 393.258 286.517
350.427 398.876 387.64
350.427 404.494 11.236
350.427 617.978 39.3258
350.427 623.596 123.596
350.427 629.213 398.876
350.427 634.831 157.303
350.427 640.449 151.685
350.427 646.067 230.337
350.427 651.685 393.258
350.427 657.303 398.876
350.427 662.921 168.539
350.427 668.539 230.337
350.427 674.157 275.281
350.427 679.775 567.416
350.427 685.393 578.652
350.427 691.011 438.202
350.427 696.629 382.022
350.427 702.247 466.292
350.427 707.865 561.798
350.427 713.483 573.034
350.427 719.101 460.674
350.427 724.719 297.753
350.427 730.337 376.404
350.427 735.955 415.73
350.427 741.573 561.798
350.427 747.191 561.798
350.427 752.809 561.798
350.427 758.427 561.798
350.427 764.045 561.798
350.427 769.663 561.798
350.427 775.281 561.798
350.427 780.899 561.798
350.427 786.517 561.798
350.427 792.135 561.798
350.427 797.753 561.798
350.427 803.371 561.798
350.427 808.989 561.798
350.427 814.607 561.798
350.427 820.225 561.798
350.427 825.843 561.798
350.427 831.461 561.798
350.427 837.079 561.798
350.427 842.697 561.798
350.427 848.315 561.798
350.427 853.933 561.798
350.427 859.551 556.18
350.427 865.169 556.18
350.427 870.787 556.18
350.427 876.404 556.18
350.427 882.022 556.18
350.427 887.64 561.798
350.427 893.258 561.798
350.427 898.876 561.798
350.427 904.494 556.18
350.427 910.112 556.18
350.427 915.73 556.18
350.427 921.348 556.18
350.427 926.966 556.18
350.427 932.584 556.18
350.427 938.202 556.18
350.427 943.82 556.18
350.427 949.438 556.18
350.427 955.056 556.18
350.427 960.674 556.18
350.427 966.292 556.18
350.427 971.91 556.18
350.427 977.528 556.18
350.427 983.146 556.18
350.427 988.764 556.18
350.427 994.382 550.562
354.701 0 387.64
354.701 5.61798 393.258
354.701 11.236 398.876
354.701 16.8539 398.876
354.701 22.4719 398.876
354.701 28.0899 398.876
354.701 33.7079 393.258
354.701 39.3258 387.64
354.701 44.9438 387.64
354.701 50.5618 387.64
354.701 56.1798 387.64
354.701 61.7978 387.64
354.701 67.4157 387.64
354.701 73.0337 387.64
354.701 78.6517 550.562
354.701 84.2697 550.562
354.701 89.8876 550.562
354.701 95.5056 550.562
354.701 101.124 550.562
354.701 106.742 550.562
354.701 112.36 550.562
354.701 117.978 550.562
354.701 123.596 387.64
354.701 129.213 393.258
354.701 134.831 398.876
354.701 140.449 398.876
354.701 146.067 398.876
354.701 151.685 398.876
354.701 157.303 561.798
354.701 162.921 561.798
354.701 168.539 561.798
354.701 174.157 561.798
354.701 179.775 561.798
354.701 185.393 561.798
354.701 191.011 561.798
354.701 196.629 556.18
354.701 202.247 556.18
354.701 207.865 556.18
354.701 213.483 561.798
354.701 219.101 561.798
354.701 224.719 561.798
354.701 230.337 561.798
354.701 235.955 561.798
354.701 241.573 561.798
354.701 247.191 561.798
354.701 252.809 561.798
354.701 258.427 561.798
354.701 264.045 567.416
354.701 269.663 567.416
354.701 275.281 567.416
354.701 280.899 466.292
354.701 286.517 466.292
354.701 292.135 443.82
354.701 297.753 578.652
354.701 303.371 567.416
354.701 308.989 567.416
354.701 314.607 494.382
354.701 320.225 561.798
354.701 325.843 573.034
354.701 331.461 567.416
354.701 337.079 634.831
354.701 342.697 522.472
354.701 348.315 578.652
354.701 353.933 533.708
354.701 359.551 544.944
354.701 365.169 449.438
354.701 370.787 606.742
354.701 376.404 466.292
354.701 382.022 477.528
354.701 387.64 280.899
354.701 393.258 286.517
354.701 398.876 421.348
354.701 404.494 123.596
354.701 617.978 44.9438
354.701 623.596 123.596
354.701 629.213 404.494
354.701 634.831 224.719
354.701 640.449 140.449
354.701 646.067 393.258
354.701 651.685 393.258
354.701 657.303 112.36
354.701 662.921 224.719
354.701 668.539 387.64
354.701 674.157 410.112
354.701 679.775 393.258
354.701 685.393 466.292
354.701 691.011 466.292
354.701 696.629 398.876
354.701 702.247 528.09
354.701 707.865 438.202
354.701 713.483 466.292
354.701 719.101 466.292
354.701 724.719 561.798
354.701 730.337 573.034
354.701 735.955 460.674
354.701 741.573 522.472
354.701 747.191 561.798
354.701 752.809 561.798
354.701 758.427 561.798
354.701 764.045 561.798
354.701 769.663 561.798
354.701 775.281 561.798
354.701 780.899 561.798
354.701 786.517 561.798
354.701 792.135 561.798
354.701 797.753 561.798
354.701 803.371 561.798
354.701 808.989 561.798
354.701 814.607 561.798
354.701 820.225 561.798
354.701 825.843 561.798
354.701 831.461 561.798
354.701 837.079 561.798
354.701 842.697 561.798
354.701 848.315 561.798
354.701 853.933 556.18
354.701 859.551 556.18
354.701 865.169 556.18
354.701 870.787 556.18
354.701 876.404 556.18
354.701 882.022 561.798
354.701 887.64 561.798
354.701 893.258 561.798
354.701 898.876 561.798
354.701 904.494 556.18
354.701 910.112 556.18
354.701 915.73 556.18
354.701 921.348 556.18
354.701 926.966 556.18
354.701 932.584 556.18
354.701 938.202 556.18
354.701 943.82 556.18
354.701 949.438 556.18
354.701 955.056 556.18
354.701 960.674 556.18
354.701 966.292 556.18
354.701 971.91 556.18
354.701 977.528 556.18
354.701 983.146 556.18
354.701 988.764 556.18
354.701 994.382 387.64
358.974 0 387.64
358.974 5.61798 393.258
358.974 11.236 398.876
358.974 16.8539 398.876
358.974 22.4719 398.876
358.974 28.0899 398.876
358.974 33.7079 393.258
358.974 39.3258 393.258
358.974 44.9438 387.64
358.974 50.5618 387.64
358.974 56.1798 387.64
358.974 61.7978 387.64
358.974 67.4157 387.64
358.974 73.0337 393.258
358.974 78.6517 550.562
358.974 84.2697 550.562
358.974 89.8876 550.562
358.974 95.5056 550.562
358.974 101.124 550.562
358.974 106.742 550.562
358.974 112.36 387.64
358.974 117.978 387.64
358.974 123.596 387.64
358.974 129.213 387.64
358.974 134.831 393.258
358.974 140.449 398.876
358.974 146.067 398.876
358.974 151.685 398.876
358.974 157.303 398.876
358.974 162.921 398.876
358.974 168.539 561.798
358.974 174.157 561.798
358.974 179.775 561.798
358.974 185.393 561.798
358.974 191.011 561.798
358.974 196.629 561.798
358.974 202.247 561.798
358.974 207.865 561.798
358.974 213.483 561.798
358.974 219.101 561.798
358.974 224.719 561.798
358.974 230.337 561.798
358.974 235.955 561.798
358.974 241.573 561.798
358.974 247.191 561.798
358.974 252.809 561.798
358.974 258.427 567.416
358.974 264.045 567.416
358.974 269.663 567.416
358.974 275.281 567.416
358.974 280.899 567.416
358.974 286.517 567.416
358.974 292.135 567.416
358.974 297.753 567.416
358.974 303.371 443.82
358.974 308.989 533.708
358.974 314.607 466.292
358.974 320.225 578.652
358.974 325.843 533.708
358.974 331.461 533.708
358.974 337.079 606.742
358.974 342.697 556.18
358.974 348.315 573.034
358.974 353.933 567.416
358.974 359.551 500
358.974 365.169 567.416
358.974 370.787 589.888
358.974 376.404 455.056
358.974 382.022 297.753
358.974 387.64 286.517
358.974 393.258 342.697
358.974 398.876 438.202
358.974 404.494 67.4157
358.974 617.978 39.3258
358.974 623.596 129.213
358.974 629.213 123.596
358.974 634.831 269.663
358.974 640.449 140.449
358.974 646.067 393.258
358.974 651.685 398.876
358.974 657.303 168.539
358.974 662.921 393.258
358.974 668.539 410.112
358.974 674.157 179.775
358.974 679.775 376.404
358.974 685.393 561.798
358.974 691.011 561.798
358.974 696.629 573.034
358.974 702.247 342.697
358.974 707.865 466.292
358.974 713.483 561.798
358.974 719.101 561.798
358.974 724.719 561.798
358.974 730.337 561.798
358.974 735.955 561.798
358.974 741.573 488.764
358.974 747.191 561.798
358.974 752.809 561.798
358.974 758.427 561.798
358.974 764.045 561.798
358.974 769.663 561.798
358.974 775.281 561.798
358.974 780.899 561.798
358.974 786.517 561.798
358.974 792.135 561.798
358.974 797.753 561.798
358.974 803.371 561.798
358.974 808.989 561.798
358.974 814.607 561.798
358.974 820.225 561.798
358.974 825.843 561.798
358.974 831.461 561.798
358.974 837.079 561.798
358.974 842.697 561.798
358.974 848.315 556.18
358.974 853.933 556.18
358.974 859.551 556.18
358.974 865.169 556.18
358.974 870.787 556.18
358.974 876.404 556.18
358.974 882.022 561.798
358.974 887.64 561.798
358.974 893.258 561.798
358.974 898.876 561.798
358.974 904.494 556.18
358.974 910.112 556.18
358.974 915.73 556.18
358.974 921.348 556.18
358.974 926.966 556.18
358.974 932.584 556.18
358.974 938.202 556.18
358.974 943.82 556.18
358.974 949.438 556.18
358.974 955.056 556.18
358.974 960.674 556.18
358.974 966.292 556.18
358.974 971.91 556.18
358.974 977.528 556.18
358.974 983.146 387.64
358.974 988.764 387.64
358.974 994.382 387.64
363.248 0 387.64
363.248 5.61798 393.258
363.248 11.236 398.876
363.248 16.8539 398.876
363.248 22.4719 398.876
363.248 28.0899 398.876
363.248 33.7079 398.876
363.248 39.3258 393.258
363.248 44.9438 393.258
363.248 50.5618 393.258
363.248 56.1798 393.258
363.248 61.7978 393.258
363.248 67.4157 393.258
363.248 73.0337 393.258
363.248 78.6517 393.258
363.248 84.2697 393.258
363.248 89.8876 550.562
363.248 95.5056 550.562
363.248 101.124 387.64
363.248 106.742 387.64
363.248 112.36 387.64
363.248 117.978 387.64
363.248 123.596 387.64
363.248 129.213 387.64
363.248 134.831 387.64
363.248 140.449 393.258
363.248 146.067 398.876
363.248 151.685 398.876
363.248 157.303 398.876
363.248 162.921 398.876
363.248 168.539 398.876
363.248 174.157 561.798
363.248 179.775 561.798
363.248 185.393 561.798
363.248 191.011 561.798
363.248 196.629 561.798
363.248 202.247 561.798
363.248 207.865 561.798
363.248 213.483 561.798
363.248 219.101 561.798
363.248 224.719 561.798
363.248 230.337 567.416
363.248 235.955 567.416
363.248 241.573 567.416
363.248 247.191 561.798
363.248 252.809 567.416
363.248 258.427 567.416
363.248 264.045 567.416
363.248 269.663 567.416
363.248 275.281 567.416
363.248 280.899 567.416
363.248 286.517 567.416
363.248 292.135 567.416
363.248 297.753 567.416
363.248 303.371 533.708
363.248 308.989 421.348
363.248 314.607 578.652
363.248 320.225 573.034
363.248 325.843 567.416
363.248 331.461 455.056
363.248 337.079 651.685
363.248 342.697 573.034
363.248 348.315 494.382
363.248 353.933 567.416
363.248 359.551 528.09
363.248 365.169 567.416
363.248 370.787 640.449
363.248 376.404 443.82
363.248 382.022 280.899
363.248 387.64 297.753
363.248 393.258 359.551
363.248 398.876 415.73
363.248 617.978 39.3258
363.248 623.596 129.213
363.248 629.213 123.596
363.248 634.831 421.348
363.248 640.449 185.393
363.248 646.067 393.258
363.248 651.685 112.36
363.248 657.303 241.573
363.248 662.921 168.539
363.248 668.539 224.719
363.248 674.157 230.337
363.248 679.775 421.348
363.248 685.393 573.034
363.248 691.011 443.82
363.248 696.629 466.292
363.248 702.247 247.191
363.248 707.865 522.472
363.248 713.483 561.798
363.248 719.101 561.798
363.248 724.719 561.798
363.248 730.337 561.798
363.248 735.955 561.798
363.248 741.573 393.258
363.248 747.191 522.472
363.248 752.809 561.798
363.248 758.427 561.798
363.248 764.045 561.798
363.248 769.663 561.798
363.248 775.281 561.798
363.248 780.899 561.798
363.248 786.517 561.798
363.248 792.135 561.798
363.248 797.753 561.798
363.248 803.371 556.18
363.248 808.989 556.18
363.248 814.607 556.18
363.248 820.225 556.18
363.248 825.843 561.798
363.248 831.461 561.798
363.248 837.079 556.18
363.248 842.697 556.18
363.248 848.315 556.18
363.248 853.933 556.18
363.248 859.551 556.18
363.248 865.169 556.18
363.248 870.787 556.18
363.248 876.404 556.18
363.248 882.022 556.18
363.248 887.64 561.798
363.248 893.258 561.798
363.248 898.876 556.18
363.248 904.494 556.18
363.248 910.112 556.18
363.248 915.73 556.18
363.248 921.348 387.64
363.248 926.966 387.64
363.248 932.584 387.64
363.248 938.202 387.64
363.248 943.82 387.64
363.248 949.438 387.64
363.248 955.056 387.64
363.248 960.674 387.64
363.248 966.292 387.64
363.248 971.91 387.64
363.248 977.528 387.64
363.248 983.146 387.64
363.248 988.764 387.64
367.521 0 387.64
367.521 5.61798 393.258
367.521 11.236 393.258
367.521 16.8539 398.876
367.521 22.4719 398.876
367.521 28.0899 398.876
367.521 33.7079 398.876
367.521 39.3258 393.258
367.521 44.9438 393.258
367.521 50.5618 393.258
367.521 56.1798 393.258
367.521 61.7978 393.258
367.521 67.4157 393.258
367.521 73.0337 393.258
367.521 78.6517 393.258
367.521 84.2697 393.258
367.521 89.8876 393.258
367.521 95.5056 393.258
367.521 101.124 393.258
367.521 106.742 387.64
367.521 112.36 387.64
367.521 117.978 387.64
367.521 123.596 387.64
367.521 129.213 387.64
367.521 134.831 387.64
367.521 140.449 393.258
367.521 146.067 393.258
367.521 151.685 398.876
367.521 157.303 398.876
367.521 162.921 398.876
367.521 168.539 398.876
367.521 174.157 398.876
367.521 179.775 398.876
367.521 185.393 561.798
367.521 191.011 561.798
367.521 196.629 561.798
367.521 202.247 567.416
367.521 207.865 561.798
367.521 213.483 561.798
367.521 219.101 567.416
367.521 224.719 567.416
367.521 230.337 567.416
367.521 235.955 567.416
367.521 241.573 567.416
367.521 247.191 567.416
367.521 252.809 567.416
367.521 258.427 567.416
367.521 264.045 567.416
367.521 269.663 567.416
367.521 275.281 567.416
367.521 280.899 567.416
367.521 286.517 533.708
367.521 292.135 494.382
367.521 297.753 466.292
367.521 303.371 438.202
367.521 308.989 578.652
367.521 314.607 533.708
367.521 320.225 573.034
367.521 325.843 533.708
367.521 331.461 584.27
367.521 337.079 601.124
367.521 342.697 567.416
367.521 348.315 528.09
367.521 353.933 606.742
367.521 359.551 561.798
367.521 365.169 505.618
367.521 370.787 561.798
367.521 376.404 393.258
367.521 382.022 230.337
367.521 387.64 359.551
367.521 393.258 415.73
367.521 398.876 398.876
367.521 617.978 44.9438
367.521 623.596 129.213
367.521 629.213 134.831
367.521 634.831 117.978
367.521 640.449 235.955
367.521 646.067 404.494
367.521 651.685 174.157
367.521 657.303 117.978
367.521 662.921 224.719
367.521 668.539 398.876
367.521 674.157 179.775
367.521 679.775 269.663
367.521 685.393 466.292
367.521 691.011 466.292
367.521 696.629 561.798
367.521 702.247 561.798
367.521 707.865 460.674
367.521 713.483 522.472
367.521 719.101 561.798
367.521 724.719 561.798
367.521 730.337 561.798
367.521 735.955 561.798
367.521 741.573 567.416
367.521 747.191 432.584
367.521 752.809 488.764
367.521 758.427 522.472
367.521 764.045 561.798
367.521 769.663 561.798
367.521 775.281 561.798
367.521 780.899 561.798
367.521 786.517 561.798
367.521 792.135 561.798
367.521 797.753 561.798
367.521 803.371 561.798
367.521 808.989 556.18
367.521 814.607 556.18
367.521 820.225 556.18
367.521 825.843 556.18
367.521 831.461 556.18
367.521 837.079 556.18
367.521 842.697 556.18
367.521 848.315 556.18
367.521 853.933 556.18
367.521 859.551 556.18
367.521 865.169 556.18
367.521 870.787 556.18
367.521 876.404 556.18
367.521 882.022 556.18
367.521 887.64 556.18
367.521 893.258 556.18
367.521 898.876 556.18
367.521 904.494 556.18
367.521 910.112 387.64
367.521 915.73 387.64
367.521 921.348 387.64
367.521 926.966 387.64
367.521 932.584 387.64
367.521 938.202 387.64
367.521 943.82 387.64
367.521 949.438 387.64
367.521 955.056 387.64
367.521 960.674 387.64
367.521 966.292 387.64
367.521 971.91 387.64
367.521 977.528 387.64
371.795 0 387.64
371.795 5.61798 393.258
371.795 11.236 393.258
371.795 16.8539 398.876
371.795 22.4719 398.876
371.795 28.0899 398.876
371.795 33.7079 398.876
371.795 39.3258 393.258
371.795 44.9438 393.258
371.795 50.5618 393.258
371.795 56.1798 393.258
371.795 61.7978 393.258
371.795 67.4157 393.258
371.795 73.0337 393.258
371.795 78.6517 393.258
371.795 84.2697 393.258
371.795 89.8876 393.258
371.795 95.5056 393.258
371.795 101.124 393.258
371.795 106.742 393.258
371.795 112.36 393.258
371.795 117.978 387.64
371.795 123.596 387.64
371.795 129.213 387.64
371.795 134.831 387.64
371.795 140.449 393.258
371.795 146.067 393.258
371.795 151.685 393.258
371.795 157.303 398.876
371.795 162.921 398.876
371.795 168.539 398.876
371.795 174.157 398.876
371.795 179.775 398.876
371.795 185.393 398.876
371.795 191.011 561.798
371.795 196.629 561.798
371.795 202.247 567.416
371.795 207.865 567.416
371.795 213.483 567.416
371.795 219.101 567.416
371.795 224.719 567.416
371.795 230.337 567.416
371.795 235.955 567.416
371.795 241.573 567.416
371.795 247.191 533.708
371.795 252.809 494.382
371.795 258.427 471.91
371.795 264.045 471.91
371.795 269.663 471.91
371.795 275.281 466.292
371.795 280.899 466.292
371.795 286.517 438.202
371.795 292.135 578.652
371.795 297.753 573.034
371.795 303.371 573.034
371.795 308.989 573.034
371.795 314.607 567.416
371.795 320.225 533.708
371.795 325.843 500
371.795 331.461 679.775
371.795 337.079 629.213
371.795 342.697 500
371.795 348.315 567.416
371.795 353.933 500
371.795 359.551 561.798
371.795 365.169 556.18
371.795 370.787 567.416
371.795 376.404 387.64
371.795 382.022 337.079
371.795 387.64 348.315
371.795 393.258 421.348
371.795 398.876 426.966
371.795 617.978 28.0899
371.795 623.596 84.2697
371.795 629.213 129.213
371.795 634.831 117.978
371.795 640.449 393.258
371.795 646.067 151.685
371.795 651.685 241.573
371.795 657.303 168.539
371.795 662.921 398.876
371.795 668.539 168.539
371.795 674.157 230.337
371.795 679.775 398.876
371.795 685.393 528.09
371.795 691.011 561.798
371.795 696.629 561.798
371.795 702.247 561.798
371.795 707.865 561.798
371.795 713.483 460.674
371.795 719.101 528.09
371.795 724.719 561.798
371.795 730.337 561.798
371.795 735.955 567.416
371.795 741.573 567.416
371.795 747.191 567.416
371.795 752.809 578.652
371.795 758.427 432.584
371.795 764.045 488.764
371.795 769.663 522.472
371.795 775.281 561.798
371.795 780.899 561.798
371.795 786.517 561.798
371.795 792.135 561.798
371.795 797.753 561.798
371.795 803.371 561.798
371.795 808.989 561.798
371.795 814.607 556.18
371.795 820.225 556.18
371.795 825.843 556.18
371.795 831.461 556.18
371.795 837.079 556.18
371.795 842.697 556.18
371.795 848.315 556.18
371.795 853.933 556.18
371.795 859.551 556.18
371.795 865.169 556.18
371.795 870.787 556.18
371.795 876.404 556.18
371.795 882.022 556.18
371.795 887.64 556.18
371.795 893.258 556.18
371.795 898.876 387.64
371.795 904.494 387.64
371.795 910.112 387.64
371.795 915.73 387.64
371.795 921.348 387.64
371.795 926.966 387.64
371.795 932.584 387.64
371.795 938.202 387.64
371.795 943.82 387.64
371.795 949.438 387.64
371.795 955.056 387.64
371.795 960.674 387.64
376.068 5.61798 387.64
376.068 11.236 393.258
376.068 16.8539 393.258
376.068 22.4719 393.258
376.068 28.0899 387.64
376.068 33.7079 387.64
376.068 39.3258 387.64
376.068 44.9438 387.64
376.068 50.5618 387.64
376.068 56.1798 393.258
376.068 61.7978 393.258
376.068 67.4157 393.258
376.068 73.0337 393.258
376.068 78.6517 398.876
376.068 84.2697 398.876
376.068 89.8876 393.258
376.068 95.5056 393.258
376.068 101.124 393.258
376.068 106.742 393.258
376.068 112.36 393.258
376.068 117.978 393.258
376.068 123.596 393.258
376.068 129.213 387.64
376.068 134.831 387.64
376.068 140.449 393.258
376.068 146.067 393.258
376.068 151.685 393.258
376.068 157.303 398.876
376.068 162.921 398.876
376.068 168.539 398.876
376.068 174.157 398.876
376.068 179.775 398.876
376.068 185.393 398.876
376.068 191.011 398.876
376.068 196.629 398.876
376.068 202.247 561.798
376.068 207.865 567.416
376.068 213.483 567.416
376.068 219.101 567.416
376.068 224.719 567.416
376.068 230.337 567.416
376.068 235.955 533.708
376.068 241.573 500
376.068 247.191 443.82
376.068 252.809 584.27
376.068 258.427 573.034
376.068 264.045 573.034
376.068 269.663 573.034
376.068 275.281 573.034
376.068 280.899 573.034
376.068 286.517 578.652
376.068 292.135 573.034
376.068 297.753 573.034
376.068 303.371 573.034
376.068 308.989 573.034
376.068 314.607 573.034
376.068 320.225 573.034
376.068 325.843 455.056
376.068 331.461 674.157
376.068 337.079 629.213
376.068 342.697 533.708
376.068 348.315 606.742
376.068 353.933 500
376.068 359.551 589.888
376.068 365.169 528.09
376.068 370.787 561.798
376.068 376.404 387.64
376.068 382.022 337.079
376.068 387.64 337.079
376.068 393.258 410.112
376.068 398.876 421.348
376.068 404.494 5.61798
376.068 617.978 28.0899
376.068 623.596 134.831
376.068 629.213 174.157
376.068 634.831 168.539
376.068 640.449 398.876
376.068 646.067 185.393
376.068 651.685 117.978
376.068 657.303 241.573
376.068 662.921 168.539
376.068 668.539 224.719
376.068 674.157 393.258
376.068 679.775 410.112
376.068 685.393 494.382
376.068 691.011 561.798
376.068 696.629 561.798
376.068 702.247 561.798
376.068 707.865 573.034
376.068 713.483 561.798
376.068 719.101 460.674
376.068 724.719 528.09
376.068 730.337 561.798
376.068 735.955 567.416
376.068 741.573 567.416
376.068 747.191 567.416
376.068 752.809 567.416
376.068 758.427 561.798
376.068 764.045 578.652
376.068 769.663 432.584
376.068 775.281 460.674
376.068 780.899 460.674
376.068 786.517 460.674
376.068 792.135 460.674
376.068 797.753 494.382
376.068 803.371 528.09
376.068 808.989 561.798
376.068 814.607 561.798
376.068 820.225 561.798
376.068 825.843 556.18
376.068 831.461 556.18
376.068 837.079 561.798
376.068 842.697 561.798
376.068 848.315 556.18
376.068 853.933 556.18
376.068 859.551 556.18
376.068 865.169 556.18
376.068 870.787 556.18
376.068 876.404 556.18
376.068 882.022 556.18
376.068 887.64 556.18
376.068 893.258 387.64
376.068 898.876 387.64
376.068 904.494 387.64
376.068 910.112 387.64
376.068 915.73 387.64
376.068 921.348 387.64
376.068 926.966 387.64
376.068 932.584 387.64
376.068 938.202 387.64
376.068 943.82 387.64
376.068 949.438 387.64
380.342 44.9438 387.64
380.342 50.5618 387.64
380.342 56.1798 387.64
380.342 61.7978 387.64
380.342 67.4157 393.258
380.342 73.0337 393.258
380.342 78.6517 398.876
380.342 84.2697 398.876
380.342 89.8876 398.876
380.342 95.5056 393.258
380.342 101.124 393.258
380.342 106.742 393.258
380.342 112.36 393.258
380.342 117.978 393.258
380.342 123.596 393.258
380.342 129.213 393.258
380.342 134.831 393.258
380.342 140.449 393.258
380.342 146.067 393.258
380.342 151.685 393.258
380.342 157.303 393.258
380.342 162.921 398.876
380.342 168.539 398.876
380.342 174.157 398.876
380.342 179.775 398.876
380.342 185.393 398.876
380.342 191.011 398.876
380.342 196.629 398.876
380.342 202.247 398.876
380.342 207.865 398.876
380.342 213.483 398.876
380.342 219.101 398.876
380.342 224.719 567.416
380.342 230.337 533.708
380.342 235.955 466.292
380.342 241.573 578.652
380.342 247.191 573.034
380.342 252.809 573.034
380.342 258.427 573.034
380.342 264.045 573.034
380.342 269.663 573.034
380.342 275.281 573.034
380.342 280.899 573.034
380.342 286.517 573.034
380.342 292.135 573.034
380.342 297.753 573.034
380.342 303.371 573.034
380.342 308.989 573.034
380.342 314.607 573.034
380.342 320.225 533.708
380.342 325.843 471.91
380.342 331.461 629.213
380.342 337.079 629.213
380.342 342.697 567.416
380.342 348.315 500
380.342 353.933 494.382
380.342 359.551 550.562
380.342 365.169 500
380.342 370.787 528.09
380.342 376.404 359.551
380.342 382.022 337.079
380.342 387.64 382.022
380.342 393.258 376.404
380.342 398.876 443.82
380.342 404.494 168.539
380.342 617.978 44.9438
380.342 623.596 140.449
380.342 629.213 179.775
380.342 634.831 230.337
380.342 640.449 123.596
380.342 646.067 247.191
380.342 651.685 191.011
380.342 657.303 168.539
380.342 662.921 224.719
380.342 668.539 387.64
380.342 674.157 393.258
380.342 679.775 410.112
380.342 685.393 398.876
380.342 691.011 528.09
380.342 696.629 561.798
380.342 702.247 561.798
380.342 707.865 567.416
380.342 713.483 561.798
380.342 719.101 561.798
380.342 724.719 494.382
380.342 730.337 561.798
380.342 735.955 567.416
380.342 741.573 567.416
380.342 747.191 567.416
380.342 752.809 567.416
380.342 758.427 561.798
380.342 764.045 561.798
380.342 769.663 561.798
380.342 775.281 567.416
380.342 780.899 567.416
380.342 786.517 567.416
380.342 792.135 567.416
380.342 797.753 578.652
380.342 803.371 432.584
380.342 808.989 494.382
380.342 814.607 522.472
380.342 820.225 561.798
380.342 825.843 561.798
380.342 831.461 561.798
380.342 837.079 561.798
380.342 842.697 561.798
380.342 848.315 561.798
380.342 853.933 556.18
380.342 859.551 556.18
380.342 865.169 556.18
380.342 870.787 556.18
380.342 876.404 556.18
380.342 882.022 387.64
380.342 887.64 387.64
380.342 893.258 387.64
380.342 898.876 387.64
380.342 904.494 387.64
380.342 910.112 387.64
380.342 915.73 387.64
380.342 921.348 387.64
380.342 926.966 387.64
380.342 932.584 387.64
380.342 938.202 387.64
380.342 943.82 387.64
384.615 67.4157 387.64
384.615 73.0337 393.258
384.615 78.6517 398.876
384.615 84.2697 398.876
384.615 89.8876 398.876
384.615 95.5056 393.258
384.615 101.124 393.258
384.615 106.742 393.258
384.615 112.36 393.258
384.615 117.978 393.258
384.615 123.596 393.258
384.615 129.213 393.258
384.615 134.831 393.258
384.615 140.449 393.258
384.615 146.067 393.258
384.615 151.685 393.258
384.615 157.303 393.258
384.615 162.921 398.876
384.615 168.539 398.876
384.615 174.157 398.876
384.615 179.775 398.876
384.615 185.393 398.876
384.615 191.011 398.876
384.615 196.629 398.876
384.615 202.247 398.876
384.615 207.865 398.876
384.615 213.483 398.876
384.615 219.101 398.876
384.615 224.719 398.876
384.615 230.337 398.876
384.615 235.955 567.416
384.615 241.573 573.034
384.615 247.191 573.034
384.615 252.809 573.034
384.615 258.427 573.034
384.615 264.045 573.034
384.615 269.663 573.034
384.615 275.281 573.034
384.615 280.899 573.034
384.615 286.517 573.034
384.615 292.135 573.034
384.615 297.753 573.034
384.615 303.371 573.034
384.615 308.989 578.652
384.615 314.607 578.652
384.615 320.225 505.618
384.615 325.843 595.506
384.615 331.461 651.685
384.615 337.079 601.124
384.615 342.697 573.034
384.615 348.315 533.708
384.615 353.933 550.562
384.615 359.551 606.742
384.615 365.169 567.416
384.615 370.787 528.09
384.615 376.404 348.315
384.615 382.022 337.079
384.615 387.64 432.584
384.615 393.258 280.899
384.615 398.876 505.618
384.615 404.494 168.539
384.615 617.978 106.742
384.615 623.596 213.483
384.615 629.213 117.978
384.615 634.831 398.876
384.615 640.449 179.775
384.615 646.067 157.303
384.615 651.685 191.011
384.615 657.303 224.719
384.615 662.921 387.64
384.615 668.539 387.64
384.615 674.157 393.258
384.615 679.775 415.73
384.615 685.393 556.18
384.615 691.011 494.382
384.615 696.629 561.798
384.615 702.247 561.798
384.615 707.865 561.798
384.615 713.483 561.798
384.615 719.101 561.798
384.615 724.719 398.876
384.615 730.337 528.09
384.615 735.955 561.798
384.615 741.573 567.416
384.615 747.191 567.416
384.615 752.809 567.416
384.615 758.427 561.798
384.615 764.045 561.798
384.615 769.663 561.798
384.615 775.281 561.798
384.615 780.899 561.798
384.615 786.517 561.798
384.615 792.135 561.798
384.615 797.753 561.798
384.615 803.371 561.798
384.615 808.989 578.652
384.615 814.607 460.674
384.615 820.225 522.472
384.615 825.843 561.798
384.615 831.461 561.798
384.615 837.079 561.798
384.615 842.697 561.798
384.615 848.315 556.18
384.615 853.933 556.18
384.615 859.551 387.64
384.615 865.169 387.64
384.615 870.787 387.64
384.615 876.404 387.64
384.615 882.022 387.64
384.615 887.64 387.64
384.615 893.258 387.64
384.615 898.876 387.64
384.615 904.494 387.64
384.615 910.112 387.64
384.615 915.73 387.64
384.615 921.348 387.64
384.615 926.966 387.64
384.615 932.584 387.64
388.889 84.2697 393.258
388.889 89.8876 393.258
388.889 95.5056 393.258
388.889 101.124 393.258
388.889 106.742 393.258
388.889 112.36 393.258
388.889 117.978 393.258
388.889 123.596 393.258
388.889 129.213 393.258
388.889 134.831 393.258
388.889 140.449 393.258
388.889 146.067 393.258
388.889 151.685 393.258
388.889 157.303 393.258
388.889 162.921 393.258
388.889 168.539 398.876
388.889 174.157 398.876
388.889 179.775 398.876
388.889 185.393 398.876
388.889 191.011 398.876
388.889 196.629 398.876
388.889 202.247 398.876
388.889 207.865 398.876
388.889 213.483 398.876
388.889 219.101 398.876
388.889 224.719 398.876
388.889 230.337 567.416
388.889 235.955 567.416
388.889 241.573 573.034
388.889 247.191 573.034
388.889 252.809 573.034
388.889 258.427 573.034
388.889 264.045 567.416
388.889 269.663 573.034
388.889 275.281 573.034
388.889 280.899 573.034
388.889 286.517 573.034
388.889 292.135 573.034
388.889 297.753 584.27
388.889 303.371 443.82
388.889 308.989 471.91
388.889 314.607 471.91
388.889 320.225 382.022
388.889 325.843 483.146
388.889 331.461 640.449
388.889 337.079 612.36
388.889 342.697 533.708
388.889 348.315 567.416
388.889 353.933 455.056
388.889 359.551 561.798
388.889 365.169 573.034
388.889 370.787 544.944
388.889 376.404 387.64
388.889 382.022 337.079
388.889 387.64 432.584
388.889 393.258 280.899
388.889 398.876 601.124
388.889 404.494 174.157
388.889 612.36 28.0899
388.889 617.978 134.831
388.889 623.596 185.393
388.889 629.213 123.596
388.889 634.831 117.978
388.889 640.449 241.573
388.889 646.067 134.831
388.889 651.685 230.337
388.889 657.303 387.64
388.889 662.921 387.64
388.889 668.539 393.258
388.889 674.157 398.876
388.889 679.775 421.348
388.889 685.393 561.798
388.889 691.011 421.348
388.889 696.629 573.034
388.889 702.247 438.202
388.889 707.865 460.674
388.889 713.483 438.202
388.889 719.101 573.034
388.889 724.719 567.416
388.889 730.337 460.674
388.889 735.955 528.09
388.889 741.573 567.416
388.889 747.191 567.416
388.889 752.809 567.416
388.889 758.427 561.798
388.889 764.045 561.798
388.889 769.663 561.798
388.889 775.281 561.798
388.889 780.899 561.798
388.889 786.517 561.798
388.889 792.135 561.798
388.889 797.753 561.798
388.889 803.371 561.798
388.889 808.989 561.798
388.889 814.607 561.798
388.889 820.225 432.584
388.889 825.843 488.764
388.889 831.461 522.472
388.889 837.079 561.798
388.889 842.697 387.64
388.889 848.315 387.64
388.889 853.933 387.64
388.889 859.551 387.64
388.889 865.169 387.64
388.889 870.787 387.64
388.889 876.404 387.64
388.889 882.022 387.64
388.889 887.64 387.64
388.889 893.258 387.64
388.889 898.876 387.64
388.889 904.494 387.64
388.889 910.112 387.64
388.889 915.73 387.64
388.889 921.348 387.64
393.162 129.213 387.64
393.162 134.831 410.112
393.162 140.449 168.539
393.162 146.067 224.719
393.162 151.685 168.539
393.162 157.303 410.112
393.162 162.921 393.258
393.162 168.539 398.876
393.162 174.157 398.876
393.162 179.775 398.876
393.162 185.393 398.876
393.162 191.011 398.876
393.162 196.629 398.876
393.162 202.247 398.876
393.162 207.865 398.876
393.162 213.483 398.876
393.162 219.101 398.876
393.162 224.719 567.416
393.162 230.337 567.416
393.162 235.955 567.416
393.162 241.573 573.034
393.162 247.191 573.034
393.162 252.809 567.416
393.162 258.427 578.652
393.162 264.045 443.82
393.162 269.663 466.292
393.162 275.281 466.292
393.162 280.899 466.292
393.162 286.517 471.91
393.162 292.135 471.91
393.162 297.753 471.91
393.162 303.371 471.91
393.162 308.989 573.034
393.162 314.607 533.708
393.162 320.225 471.91
393.162 325.843 584.27
393.162 331.461 651.685
393.162 337.079 494.382
393.162 342.697 443.82
393.162 348.315 516.854
393.162 353.933 415.73
393.162 359.551 668.539
393.162 365.169 578.652
393.162 370.787 500
393.162 376.404 387.64
393.162 382.022 337.079
393.162 387.64 387.64
393.162 393.258 224.719
393.162 398.876 539.326
393.162 404.494 224.719
393.162 612.36 28.0899
393.162 617.978 134.831
393.162 623.596 151.685
393.162 629.213 123.596
393.162 634.831 123.596
393.162 640.449 157.303
393.162 646.067 241.573
393.162 651.685 393.258
393.162 657.303 393.258
393.162 662.921 410.112
393.162 668.539 168.539
393.162 674.157 224.719
393.162 679.775 264.045
393.162 685.393 460.674
393.162 691.011 264.045
393.162 696.629 466.292
393.162 702.247 466.292
393.162 707.865 561.798
393.162 713.483 567.416
393.162 719.101 561.798
393.162 724.719 466.292
393.162 730.337 438.202
393.162 735.955 505.618
393.162 741.573 567.416
393.162 747.191 567.416
393.162 752.809 567.416
393.162 758.427 567.416
393.162 764.045 567.416
393.162 769.663 567.416
393.162 775.281 567.416
393.162 780.899 561.798
393.162 786.517 561.798
393.162 792.135 561.798
393.162 797.753 561.798
393.162 803.371 561.798
393.162 808.989 561.798
393.162 814.607 561.798
393.162 820.225 561.798
393.162 825.843 561.798
393.162 831.461 387.64
393.162 837.079 387.64
393.162 842.697 387.64
393.162 848.315 387.64
393.162 853.933 387.64
393.162 859.551 387.64
393.162 865.169 387.64
393.162 870.787 387.64
393.162 876.404 387.64
393.162 882.022 387.64
393.162 887.64 387.64
393.162 893.258 387.64
393.162 898.876 387.64
393.162 904.494 387.64
393.162 910.112 387.64
397.436 123.596 393.258
397.436 129.213 393.258
397.436 134.831 230.337
397.436 140.449 224.719
397.436 146.067 387.64
397.436 151.685 393.258
397.436 157.303 393.258
397.436 162.921 432.584
397.436 168.539 567.416
397.436 174.157 561.798
397.436 179.775 561.798
397.436 185.393 561.798
397.436 191.011 561.798
397.436 196.629 561.798
397.436 202.247 561.798
397.436 207.865 567.416
397.436 213.483 567.416
397.436 219.101 567.416
397.436 224.719 573.034
397.436 230.337 573.034
397.436 235.955 573.034
397.436 241.573 573.034
397.436 247.191 578.652
397.436 252.809 443.82
397.436 258.427 466.292
397.436 264.045 466.292
397.436 269.663 567.416
397.436 275.281 567.416
397.436 280.899 567.416
397.436 286.517 573.034
397.436 292.135 573.034
397.436 297.753 573.034
397.436 303.371 573.034
397.436 308.989 533.708
397.436 314.607 471.91
397.436 320.225 584.27
397.436 325.843 578.652
397.436 331.461 623.596
397.436 337.079 578.652
397.436 342.697 573.034
397.436 348.315 533.708
397.436 353.933 500
397.436 359.551 707.865
397.436 365.169 533.708
397.436 370.787 471.91
397.436 376.404 404.494
397.436 382.022 337.079
397.436 387.64 337.079
397.436 393.258 337.079
397.436 398.876 488.764
397.436 404.494 320.225
397.436 612.36 28.0899
397.436 617.978 140.449
397.436 623.596 129.213
397.436 629.213 123.596
397.436 634.831 157.303
397.436 640.449 207.865
397.436 646.067 179.775
397.436 651.685 410.112
397.436 657.303 168.539
397.436 662.921 224.719
397.436 668.539 224.719
397.436 674.157 387.64
397.436 679.775 393.258
397.436 685.393 522.472
397.436 691.011 398.876
397.436 696.629 522.472
397.436 702.247 561.798
397.436 707.865 561.798
397.436 713.483 561.798
397.436 719.101 561.798
397.436 724.719 561.798
397.436 730.337 561.798
397.436 735.955 393.258
397.436 741.573 415.73
397.436 747.191 466.292
397.436 752.809 466.292
397.436 758.427 466.292
397.436 764.045 466.292
397.436 769.663 466.292
397.436 775.281 466.292
397.436 780.899 443.82
397.436 786.517 573.034
397.436 792.135 567.416
397.436 797.753 567.416
397.436 803.371 567.416
397.436 808.989 567.416
397.436 814.607 567.416
397.436 820.225 567.416
397.436 825.843 567.416
397.436 831.461 561.798
397.436 837.079 561.798
