73.0594 341.176 358.289
73.0594 352.941 358.289
73.0594 364.706 358.289
73.0594 376.471 358.289
73.0594 388.235 358.289
73.0594 400 358.289
73.0594 411.765 358.289
73.0594 423.529 358.289
73.0594 541.176 352.941
73.0594 552.941 352.941
73.0594 564.706 352.941
73.0594 576.471 352.941
73.0594 588.235 352.941
73.0594 600 352.941
73.0594 611.765 352.941
73.0594 623.529 352.941
73.0594 635.294 352.941
73.0594 647.059 262.032
73.0594 658.824 336.898
73.0594 670.588 336.898
73.0594 682.353 336.898
73.0594 694.118 336.898
73.0594 705.882 336.898
73.0594 717.647 336.898
73.0594 729.412 481.283
73.0594 741.176 486.631
73.0594 752.941 481.283
73.0594 764.706 481.283
73.0594 776.471 352.941
73.0594 788.235 352.941
73.0594 800 352.941
73.0594 811.765 352.941
77.6256 294.118 352.941
77.6256 305.882 358.289
77.6256 317.647 358.289
77.6256 329.412 358.289
77.6256 341.176 358.289
77.6256 352.941 358.289
77.6256 364.706 358.289
77.6256 376.471 358.289
77.6256 388.235 358.289
77.6256 400 358.289
77.6256 411.765 358.289
77.6256 423.529 358.289
77.6256 435.294 358.289
77.6256 541.176 352.941
77.6256 552.941 352.941
77.6256 564.706 352.941
77.6256 576.471 352.941
77.6256 588.235 352.941
77.6256 600 352.941
77.6256 611.765 352.941
77.6256 623.529 352.941
77.6256 635.294 310.16
77.6256 647.059 219.251
77.6256 658.824 336.898
77.6256 670.588 336.898
77.6256 682.353 336.898
77.6256 694.118 336.898
77.6256 705.882 336.898
77.6256 717.647 481.283
77.6256 729.412 486.631
77.6256 741.176 486.631
77.6256 752.941 454.545
77.6256 764.706 422.46
77.6256 776.471 219.251
77.6256 788.235 219.251
77.6256 800 219.251
77.6256 811.765 262.032
77.6256 823.529 310.16
82.1918 305.882 352.941
82.1918 317.647 358.289
82.1918 329.412 358.289
82.1918 341.176 358.289
82.1918 352.941 358.289
82.1918 364.706 358.289
82.1918 376.471 358.289
82.1918 388.235 358.289
82.1918 400 358.289
82.1918 411.765 358.289
82.1918 423.529 358.289
82.1918 435.294 358.289
82.1918 447.059 358.289
82.1918 541.176 358.289
82.1918 552.941 358.289
82.1918 564.706 358.289
82.1918 576.471 352.941
82.1918 588.235 352.941
82.1918 600 352.941
82.1918 611.765 352.941
82.1918 623.529 352.941
82.1918 635.294 262.032
82.1918 647.059 379.679
82.1918 658.824 347.594
82.1918 670.588 336.898
82.1918 682.353 336.898
82.1918 694.118 336.898
82.1918 705.882 336.898
82.1918 717.647 481.283
82.1918 729.412 486.631
82.1918 741.176 454.545
82.1918 752.941 401.07
82.1918 764.706 486.631
82.1918 776.471 352.941
82.1918 788.235 352.941
82.1918 800 352.941
82.1918 811.765 363.636
82.1918 823.529 219.251
82.1918 835.294 304.813
86.758 117.647 352.941
86.758 129.412 352.941
86.758 141.176 352.941
86.758 152.941 352.941
86.758 164.706 352.941
86.758 176.471 352.941
86.758 317.647 358.289
86.758 329.412 358.289
86.758 341.176 358.289
86.758 352.941 358.289
86.758 364.706 358.289
86.758 376.471 358.289
86.758 388.235 358.289
86.758 400 358.289
86.758 411.765 358.289
86.758 423.529 358.289
86.758 435.294 358.289
86.758 447.059 358.289
86.758 458.824 358.289
86.758 541.176 358.289
86.758 552.941 358.289
86.758 564.706 358.289
86.758 576.471 352.941
86.758 588.235 352.941
86.758 600 352.941
86.758 611.765 352.941
86.758 623.529 352.941
86.758 635.294 262.032
86.758 647.059 379.679
86.758 658.824 342.246
86.758 670.588 342.246
86.758 682.353 342.246
86.758 694.118 342.246
86.758 705.882 336.898
86.758 717.647 508.021
86.758 729.412 454.545
86.758 741.176 401.07
86.758 752.941 491.979
86.758 764.706 481.283
86.758 776.471 347.594
86.758 788.235 342.246
86.758 800 342.246
86.758 811.765 342.246
86.758 823.529 342.246
86.758 835.294 213.904
91.3242 94.1176 352.941
91.3242 105.882 352.941
91.3242 117.647 352.941
91.3242 129.412 352.941
91.3242 141.176 352.941
91.3242 152.941 352.941
91.3242 164.706 352.941
91.3242 176.471 352.941
91.3242 188.235 352.941
91.3242 329.412 358.289
91.3242 341.176 358.289
91.3242 352.941 358.289
91.3242 364.706 358.289
91.3242 376.471 358.289
91.3242 388.235 358.289
91.3242 400 358.289
91.3242 411.765 358.289
91.3242 423.529 358.289
91.3242 435.294 358.289
91.3242 447.059 358.289
91.3242 458.824 358.289
91.3242 470.588 358.289
91.3242 541.176 358.289
91.3242 552.941 358.289
91.3242 564.706 358.289
91.3242 576.471 358.289
91.3242 588.235 352.941
91.3242 600 352.941
91.3242 611.765 352.941
91.3242 623.529 352.941
91.3242 635.294 310.16
91.3242 647.059 401.07
91.3242 658.824 342.246
91.3242 670.588 342.246
91.3242 682.353 342.246
91.3242 694.118 342.246
91.3242 705.882 342.246
91.3242 717.647 481.283
91.3242 729.412 401.07
91.3242 741.176 491.979
91.3242 752.941 481.283
91.3242 764.706 481.283
91.3242 776.471 347.594
91.3242 788.235 347.594
91.3242 800 342.246
91.3242 811.765 342.246
91.3242 823.529 342.246
91.3242 835.294 342.246
91.3242 847.059 213.904
95.8904 94.1176 352.941
95.8904 105.882 352.941
95.8904 117.647 352.941
95.8904 129.412 358.289
95.8904 141.176 358.289
95.8904 152.941 358.289
95.8904 164.706 358.289
95.8904 176.471 358.289
95.8904 188.235 352.941
95.8904 200 352.941
95.8904 211.765 352.941
95.8904 329.412 358.289
95.8904 341.176 358.289
95.8904 352.941 358.289
95.8904 364.706 358.289
95.8904 376.471 358.289
95.8904 388.235 358.289
95.8904 400 358.289
95.8904 411.765 358.289
95.8904 423.529 358.289
95.8904 435.294 363.636
95.8904 447.059 363.636
95.8904 458.824 358.289
95.8904 470.588 358.289
95.8904 552.941 358.289
95.8904 564.706 358.289
95.8904 576.471 358.289
95.8904 588.235 358.289
95.8904 600 352.941
95.8904 611.765 352.941
95.8904 623.529 358.289
95.8904 635.294 358.289
95.8904 647.059 267.38
95.8904 658.824 347.594
95.8904 670.588 347.594
95.8904 682.353 347.594
95.8904 694.118 347.594
95.8904 705.882 342.246
95.8904 717.647 459.893
95.8904 729.412 508.021
95.8904 741.176 486.631
95.8904 752.941 481.283
95.8904 764.706 481.283
95.8904 776.471 347.594
95.8904 788.235 347.594
95.8904 800 347.594
95.8904 811.765 342.246
95.8904 823.529 342.246
95.8904 835.294 342.246
95.8904 847.059 347.594
100.457 82.3529 352.941
100.457 94.1176 352.941
100.457 105.882 352.941
100.457 117.647 358.289
100.457 129.412 358.289
100.457 141.176 358.289
100.457 152.941 358.289
100.457 164.706 358.289
100.457 176.471 358.289
100.457 188.235 358.289
100.457 200 358.289
100.457 211.765 358.289
100.457 223.529 352.941
100.457 329.412 358.289
100.457 341.176 358.289
100.457 352.941 358.289
100.457 364.706 363.636
100.457 376.471 363.636
100.457 388.235 363.636
100.457 400 310.16
100.457 411.765 256.684
100.457 423.529 197.861
100.457 435.294 256.684
100.457 447.059 310.16
100.457 458.824 550.802
100.457 470.588 508.021
100.457 482.353 454.545
100.457 494.118 481.283
100.457 505.882 443.85
100.457 517.647 406.417
100.457 529.412 187.166
100.457 552.941 465.241
100.457 564.706 497.326
100.457 576.471 358.289
100.457 588.235 358.289
100.457 600 358.289
100.457 611.765 358.289
100.457 623.529 358.289
100.457 635.294 358.289
100.457 647.059 267.38
100.457 658.824 385.027
100.457 670.588 347.594
100.457 682.353 347.594
100.457 694.118 347.594
100.457 705.882 347.594
100.457 717.647 475.936
100.457 729.412 508.021
100.457 741.176 481.283
100.457 752.941 481.283
100.457 764.706 481.283
100.457 776.471 347.594
100.457 788.235 347.594
100.457 800 347.594
100.457 811.765 347.594
100.457 823.529 347.594
100.457 835.294 342.246
100.457 847.059 347.594
105.023 82.3529 352.941
105.023 94.1176 352.941
105.023 105.882 358.289
105.023 117.647 358.289
105.023 129.412 358.289
105.023 141.176 358.289
105.023 152.941 358.289
105.023 164.706 358.289
105.023 176.471 358.289
105.023 188.235 358.289
105.023 200 358.289
105.023 211.765 358.289
105.023 223.529 358.289
105.023 235.294 358.289
105.023 341.176 358.289
105.023 352.941 358.289
105.023 364.706 363.636
105.023 376.471 310.16
105.023 388.235 256.684
105.023 400 336.898
105.023 411.765 368.984
105.023 423.529 438.503
105.023 435.294 475.936
105.023 447.059 502.674
105.023 458.824 534.759
105.023 470.588 524.064
105.023 482.353 529.412
105.023 494.118 534.759
105.023 505.882 459.893
105.023 517.647 352.941
105.023 529.412 358.289
105.023 541.176 331.551
105.023 552.941 459.893
105.023 564.706 433.155
105.023 576.471 497.326
105.023 588.235 358.289
105.023 600 358.289
105.023 611.765 358.289
105.023 623.529 358.289
105.023 635.294 358.289
105.023 647.059 267.38
105.023 658.824 385.027
105.023 670.588 347.594
105.023 682.353 347.594
105.023 694.118 347.594
105.023 705.882 347.594
105.023 717.647 347.594
105.023 729.412 508.021
105.023 741.176 486.631
105.023 752.941 486.631
105.023 764.706 481.283
105.023 776.471 481.283
105.023 788.235 347.594
105.023 800 347.594
105.023 811.765 347.594
105.023 823.529 347.594
105.023 835.294 347.594
105.023 847.059 347.594
105.023 858.824 342.246
109.589 82.3529 352.941
109.589 94.1176 352.941
109.589 105.882 352.941
109.589 117.647 358.289
109.589 129.412 358.289
109.589 141.176 352.941
109.589 152.941 352.941
109.589 164.706 358.289
109.589 176.471 358.289
109.589 188.235 358.289
109.589 200 358.289
109.589 211.765 358.289
109.589 223.529 358.289
109.589 235.294 358.289
109.589 247.059 358.289
109.589 341.176 358.289
109.589 352.941 363.636
109.589 364.706 310.16
109.589 376.471 406.417
109.589 388.235 352.941
109.589 400 491.979
109.589 411.765 347.594
109.589 423.529 352.941
109.589 435.294 475.936
109.589 447.059 566.845
109.589 458.824 465.241
109.589 470.588 459.893
109.589 482.353 540.107
109.589 494.118 459.893
109.589 505.882 518.717
109.589 517.647 566.845
109.589 529.412 374.332
109.589 541.176 433.155
109.589 552.941 524.064
109.589 564.706 497.326
109.589 576.471 465.241
109.589 588.235 534.759
109.589 600 358.289
109.589 611.765 358.289
109.589 623.529 358.289
109.589 635.294 358.289
109.589 647.059 267.38
109.589 658.824 385.027
109.589 670.588 347.594
109.589 682.353 352.941
109.589 694.118 352.941
109.589 705.882 347.594
109.589 717.647 347.594
109.589 729.412 529.412
109.589 741.176 486.631
109.589 752.941 486.631
109.589 764.706 486.631
109.589 776.471 486.631
109.589 788.235 347.594
109.589 800 347.594
109.589 811.765 347.594
109.589 823.529 347.594
109.589 835.294 347.594
109.589 847.059 347.594
109.589 858.824 368.984
114.155 94.1176 352.941
114.155 105.882 352.941
114.155 117.647 352.941
114.155 129.412 352.941
114.155 141.176 352.941
114.155 152.941 352.941
114.155 164.706 358.289
114.155 176.471 358.289
114.155 188.235 358.289
114.155 200 358.289
114.155 211.765 358.289
114.155 223.529 358.289
114.155 235.294 358.289
114.155 247.059 358.289
114.155 258.824 358.289
114.155 270.588 358.289
114.155 352.941 310.16
114.155 364.706 363.636
114.155 376.471 459.893
114.155 388.235 524.064
114.155 400 406.417
114.155 411.765 427.807
114.155 423.529 358.289
114.155 435.294 518.717
114.155 447.059 470.588
114.155 458.824 320.856
114.155 470.588 491.979
114.155 482.353 459.893
114.155 494.118 443.85
114.155 505.882 433.155
114.155 517.647 545.455
114.155 529.412 374.332
114.155 541.176 347.594
114.155 552.941 245.989
114.155 564.706 368.984
114.155 576.471 486.631
114.155 588.235 497.326
114.155 600 358.289
114.155 611.765 358.289
114.155 623.529 363.636
114.155 635.294 363.636
114.155 647.059 267.38
114.155 658.824 385.027
114.155 670.588 352.941
114.155 682.353 352.941
114.155 694.118 352.941
114.155 705.882 352.941
114.155 717.647 352.941
114.155 729.412 545.455
114.155 741.176 491.979
114.155 752.941 491.979
114.155 764.706 491.979
114.155 776.471 486.631
114.155 788.235 481.283
114.155 800 347.594
114.155 811.765 347.594
114.155 823.529 347.594
114.155 835.294 347.594
114.155 847.059 347.594
114.155 858.824 363.636
114.155 870.588 342.246
118.721 105.882 352.941
118.721 117.647 352.941
118.721 129.412 352.941
118.721 141.176 352.941
118.721 152.941 352.941
118.721 164.706 358.289
118.721 176.471 358.289
118.721 188.235 358.289
118.721 200 358.289
118.721 211.765 358.289
118.721 223.529 358.289
118.721 235.294 358.289
118.721 247.059 358.289
118.721 258.824 358.289
118.721 270.588 358.289
118.721 282.353 358.289
118.721 294.118 358.289
118.721 352.941 481.283
118.721 364.706 465.241
118.721 376.471 417.112
118.721 388.235 427.807
118.721 400 363.636
118.721 411.765 326.203
118.721 423.529 363.636
118.721 435.294 540.107
118.721 447.059 336.898
118.721 458.824 438.503
118.721 470.588 438.503
118.721 482.353 245.989
118.721 494.118 374.332
118.721 505.882 272.727
118.721 517.647 502.674
118.721 529.412 540.107
118.721 541.176 470.588
118.721 552.941 390.374
118.721 564.706 433.155
118.721 576.471 465.241
118.721 588.235 465.241
118.721 600 363.636
118.721 611.765 363.636
118.721 623.529 363.636
118.721 635.294 363.636
118.721 647.059 267.38
118.721 658.824 390.374
118.721 670.588 352.941
118.721 682.353 352.941
118.721 694.118 352.941
118.721 705.882 352.941
118.721 717.647 352.941
118.721 729.412 491.979
118.721 741.176 491.979
118.721 752.941 491.979
118.721 764.706 491.979
118.721 776.471 491.979
118.721 788.235 486.631
118.721 800 352.941
118.721 811.765 352.941
118.721 823.529 352.941
118.721 835.294 352.941
118.721 847.059 352.941
118.721 858.824 374.332
118.721 870.588 363.636
123.288 129.412 352.941
123.288 141.176 352.941
123.288 152.941 352.941
123.288 164.706 358.289
123.288 176.471 358.289
123.288 188.235 358.289
123.288 200 358.289
123.288 211.765 358.289
123.288 223.529 363.636
123.288 235.294 363.636
123.288 247.059 363.636
123.288 258.824 363.636
123.288 270.588 363.636
123.288 282.353 363.636
123.288 294.118 363.636
123.288 305.882 363.636
123.288 317.647 358.289
123.288 352.941 513.369
123.288 364.706 454.545
123.288 376.471 470.588
123.288 388.235 294.118
123.288 400 363.636
123.288 411.765 470.588
123.288 423.529 443.85
123.288 435.294 475.936
123.288 447.059 449.198
123.288 458.824 363.636
123.288 470.588 358.289
123.288 482.353 139.037
123.288 494.118 139.037
123.288 505.882 304.813
123.288 517.647 427.807
123.288 529.412 540.107
123.288 541.176 395.722
123.288 552.941 283.422
123.288 564.706 502.674
123.288 576.471 385.027
123.288 588.235 534.759
123.288 600 497.326
123.288 611.765 363.636
123.288 623.529 363.636
123.288 635.294 363.636
123.288 647.059 267.38
123.288 658.824 395.722
123.288 670.588 352.941
123.288 682.353 352.941
123.288 694.118 352.941
123.288 705.882 352.941
123.288 717.647 352.941
123.288 729.412 491.979
123.288 741.176 513.369
123.288 752.941 491.979
123.288 764.706 491.979
123.288 776.471 491.979
123.288 788.235 491.979
123.288 800 352.941
123.288 811.765 352.941
123.288 823.529 352.941
123.288 835.294 352.941
123.288 847.059 352.941
123.288 858.824 368.984
123.288 870.588 363.636
123.288 882.353 363.636
127.854 141.176 352.941
127.854 152.941 352.941
127.854 164.706 358.289
127.854 176.471 358.289
127.854 188.235 363.636
127.854 200 363.636
127.854 211.765 363.636
127.854 223.529 363.636
127.854 235.294 363.636
127.854 247.059 363.636
127.854 258.824 363.636
127.854 270.588 363.636
127.854 282.353 363.636
127.854 294.118 363.636
127.854 305.882 363.636
127.854 317.647 363.636
127.854 329.412 363.636
127.854 341.176 593.583
127.854 352.941 470.588
127.854 364.706 443.85
127.854 376.471 401.07
127.854 388.235 347.594
127.854 400 352.941
127.854 411.765 374.332
127.854 423.529 454.545
127.854 435.294 540.107
127.854 447.059 374.332
127.854 458.824 251.337
127.854 470.588 299.465
127.854 482.353 85.5615
127.854 494.118 26.738
127.854 505.882 133.69
127.854 517.647 272.727
127.854 529.412 502.674
127.854 541.176 390.374
127.854 552.941 486.631
127.854 564.706 491.979
127.854 576.471 368.984
127.854 588.235 497.326
127.854 600 465.241
127.854 611.765 363.636
127.854 623.529 363.636
127.854 635.294 363.636
127.854 647.059 267.38
127.854 658.824 395.722
127.854 670.588 352.941
127.854 682.353 352.941
127.854 694.118 352.941
127.854 705.882 352.941
127.854 717.647 352.941
127.854 729.412 491.979
127.854 741.176 497.326
127.854 752.941 491.979
127.854 764.706 497.326
127.854 776.471 491.979
127.854 788.235 491.979
127.854 800 352.941
127.854 811.765 352.941
127.854 823.529 352.941
127.854 835.294 352.941
127.854 847.059 352.941
127.854 858.824 374.332
127.854 870.588 117.647
127.854 882.353 363.636
132.42 152.941 352.941
132.42 164.706 358.289
132.42 176.471 363.636
132.42 188.235 363.636
132.42 200 363.636
132.42 211.765 363.636
132.42 223.529 363.636
132.42 235.294 363.636
132.42 247.059 363.636
132.42 258.824 363.636
132.42 270.588 363.636
132.42 282.353 363.636
132.42 294.118 363.636
132.42 305.882 363.636
132.42 317.647 363.636
132.42 329.412 363.636
132.42 341.176 572.193
132.42 352.941 459.893
132.42 364.706 352.941
132.42 376.471 379.679
132.42 388.235 326.203
132.42 400 427.807
132.42 411.765 470.588
132.42 423.529 459.893
132.42 435.294 491.979
132.42 447.059 251.337
132.42 458.824 283.422
132.42 470.588 203.209
132.42 505.882 112.299
132.42 517.647 304.813
132.42 529.412 427.807
132.42 541.176 390.374
132.42 552.941 486.631
132.42 564.706 406.417
132.42 576.471 374.332
132.42 588.235 465.241
132.42 600 379.679
132.42 611.765 497.326
132.42 623.529 363.636
132.42 635.294 363.636
132.42 647.059 267.38
132.42 658.824 395.722
132.42 670.588 352.941
132.42 682.353 352.941
132.42 694.118 352.941
132.42 705.882 352.941
132.42 717.647 352.941
132.42 729.412 352.941
132.42 741.176 497.326
132.42 752.941 513.369
132.42 764.706 497.326
132.42 776.471 497.326
132.42 788.235 491.979
132.42 800 352.941
132.42 811.765 352.941
132.42 823.529 352.941
132.42 835.294 352.941
132.42 847.059 352.941
132.42 858.824 374.332
132.42 870.588 74.8663
132.42 882.353 315.508
132.42 894.118 363.636
136.986 176.471 363.636
136.986 188.235 363.636
136.986 200 363.636
136.986 211.765 363.636
136.986 223.529 363.636
136.986 235.294 363.636
136.986 247.059 363.636
136.986 258.824 363.636
136.986 270.588 363.636
136.986 282.353 363.636
136.986 294.118 363.636
136.986 305.882 363.636
136.986 317.647 363.636
136.986 329.412 310.16
136.986 341.176 529.412
136.986 352.941 481.283
136.986 364.706 411.765
136.986 376.471 433.155
136.986 388.235 411.765
136.986 400 508.021
136.986 411.765 390.374
136.986 423.529 427.807
136.986 435.294 433.155
136.986 447.059 192.513
136.986 458.824 283.422
136.986 470.588 85.5615
136.986 505.882 90.9091
136.986 517.647 203.209
136.986 529.412 294.118
136.986 541.176 390.374
136.986 552.941 486.631
136.986 564.706 561.497
136.986 576.471 470.588
136.986 588.235 374.332
136.986 600 491.979
136.986 611.765 470.588
136.986 623.529 363.636
136.986 635.294 363.636
136.986 647.059 267.38
136.986 658.824 395.722
136.986 670.588 352.941
136.986 682.353 352.941
136.986 694.118 352.941
136.986 705.882 352.941
136.986 717.647 352.941
136.986 729.412 352.941
136.986 741.176 497.326
136.986 752.941 518.717
136.986 764.706 497.326
136.986 776.471 497.326
136.986 788.235 497.326
136.986 800 352.941
136.986 811.765 352.941
136.986 823.529 352.941
136.986 835.294 352.941
136.986 847.059 352.941
136.986 858.824 122.995
136.986 870.588 363.636
136.986 882.353 267.38
136.986 894.118 363.636
141.553 188.235 363.636
141.553 200 363.636
141.553 211.765 363.636
141.553 223.529 363.636
141.553 235.294 363.636
141.553 247.059 363.636
141.553 258.824 363.636
141.553 270.588 363.636
141.553 282.353 363.636
141.553 294.118 363.636
141.553 305.882 363.636
141.553 317.647 363.636
141.553 329.412 454.545
141.553 341.176 524.064
141.553 352.941 422.46
141.553 364.706 443.85
141.553 376.471 331.551
141.553 388.235 422.46
141.553 400 470.588
141.553 411.765 315.508
141.553 423.529 486.631
141.553 435.294 352.941
141.553 447.059 315.508
141.553 458.824 187.166
141.553 505.882 85.5615
141.553 517.647 176.471
141.553 529.412 176.471
141.553 541.176 390.374
141.553 552.941 486.631
141.553 564.706 556.15
141.553 576.471 395.722
141.553 588.235 411.765
141.553 600 459.893
141.553 611.765 390.374
141.553 623.529 363.636
141.553 635.294 363.636
141.553 647.059 315.508
141.553 658.824 417.112
141.553 670.588 352.941
141.553 682.353 352.941
141.553 694.118 352.941
141.553 705.882 352.941
141.553 717.647 352.941
141.553 729.412 352.941
141.553 741.176 352.941
141.553 752.941 502.674
141.553 764.706 497.326
141.553 776.471 497.326
141.553 788.235 497.326
141.553 800 497.326
141.553 811.765 352.941
141.553 823.529 352.941
141.553 835.294 352.941
141.553 847.059 352.941
141.553 858.824 74.8663
141.553 870.588 320.856
141.553 882.353 74.8663
141.553 894.118 315.508
146.119 200 363.636
146.119 211.765 363.636
146.119 223.529 363.636
146.119 235.294 363.636
146.119 247.059 363.636
146.119 258.824 363.636
146.119 270.588 363.636
146.119 282.353 363.636
146.119 294.118 363.636
146.119 305.882 363.636
146.119 317.647 363.636
146.119 329.412 593.583
146.119 341.176 561.497
146.119 352.941 331.551
146.119 364.706 443.85
146.119 376.471 411.765
146.119 388.235 508.021
146.119 400 438.503
146.119 411.765 358.289
146.119 423.529 486.631
146.119 435.294 368.984
146.119 447.059 229.947
146.119 458.824 85.5615
146.119 505.882 74.8663
146.119 517.647 203.209
146.119 529.412 181.818
146.119 541.176 390.374
146.119 552.941 486.631
146.119 564.706 556.15
146.119 576.471 390.374
146.119 588.235 438.503
146.119 600 395.722
146.119 611.765 374.332
146.119 623.529 502.674
146.119 635.294 363.636
146.119 647.059 363.636
146.119 658.824 267.38
146.119 670.588 358.289
146.119 682.353 358.289
146.119 694.118 358.289
146.119 705.882 358.289
146.119 717.647 358.289
146.119 729.412 358.289
146.119 741.176 443.85
146.119 752.941 518.717
146.119 764.706 497.326
146.119 776.471 470.588
146.119 788.235 443.85
146.119 800 443.85
146.119 811.765 352.941
146.119 823.529 352.941
146.119 835.294 352.941
146.119 847.059 352.941
146.119 858.824 133.69
146.119 870.588 272.727
146.119 882.353 368.984
146.119 894.118 213.904
150.685 200 358.289
150.685 211.765 363.636
150.685 223.529 363.636
150.685 235.294 363.636
150.685 247.059 363.636
150.685 258.824 363.636
150.685 270.588 363.636
150.685 282.353 363.636
150.685 294.118 363.636
150.685 305.882 363.636
150.685 317.647 363.636
150.685 329.412 588.235
150.685 341.176 491.979
150.685 352.941 465.241
150.685 364.706 395.722
150.685 376.471 401.07
150.685 388.235 486.631
150.685 400 417.112
150.685 411.765 358.289
150.685 423.529 459.893
150.685 435.294 390.374
150.685 447.059 128.342
150.685 505.882 74.8663
150.685 517.647 203.209
150.685 529.412 122.995
150.685 541.176 342.246
150.685 552.941 486.631
150.685 564.706 561.497
150.685 576.471 390.374
150.685 588.235 540.107
150.685 600 411.765
150.685 611.765 395.722
150.685 623.529 465.241
150.685 635.294 363.636
150.685 647.059 363.636
150.685 658.824 267.38
150.685 670.588 395.722
150.685 682.353 358.289
150.685 694.118 358.289
150.685 705.882 358.289
150.685 717.647 358.289
150.685 729.412 358.289
150.685 741.176 443.85
150.685 752.941 518.717
150.685 764.706 470.588
150.685 776.471 422.46
150.685 788.235 497.326
150.685 800 497.326
150.685 811.765 395.722
150.685 823.529 358.289
150.685 835.294 358.289
150.685 847.059 358.289
150.685 858.824 133.69
150.685 870.588 122.995
150.685 882.353 368.984
150.685 894.118 368.984
155.251 211.765 363.636
155.251 223.529 363.636
155.251 235.294 363.636
155.251 247.059 363.636
155.251 258.824 363.636
155.251 270.588 363.636
155.251 282.353 363.636
155.251 294.118 363.636
155.251 305.882 363.636
155.251 317.647 363.636
155.251 329.412 679.144
155.251 341.176 459.893
155.251 352.941 582.888
155.251 364.706 368.984
155.251 376.471 427.807
155.251 388.235 486.631
155.251 400 358.289
155.251 411.765 315.508
155.251 423.529 411.765
155.251 435.294 358.289
155.251 505.882 32.0856
155.251 517.647 128.342
155.251 529.412 497.326
155.251 541.176 304.813
155.251 552.941 475.936
155.251 564.706 572.193
155.251 576.471 390.374
155.251 588.235 545.455
155.251 600 401.07
155.251 611.765 518.717
155.251 623.529 390.374
155.251 635.294 363.636
155.251 647.059 363.636
155.251 658.824 267.38
155.251 670.588 401.07
155.251 682.353 358.289
155.251 694.118 358.289
155.251 705.882 358.289
155.251 717.647 358.289
155.251 729.412 358.289
155.251 741.176 449.198
155.251 752.941 497.326
155.251 764.706 422.46
155.251 776.471 497.326
155.251 788.235 491.979
155.251 800 454.545
155.251 811.765 427.807
155.251 823.529 427.807
155.251 835.294 454.545
155.251 847.059 358.289
155.251 858.824 80.2139
155.251 870.588 74.8663
155.251 882.353 320.856
155.251 894.118 368.984
159.817 223.529 363.636
159.817 235.294 363.636
159.817 247.059 363.636
159.817 258.824 363.636
159.817 270.588 363.636
159.817 282.353 363.636
159.817 294.118 363.636
159.817 305.882 363.636
159.817 317.647 363.636
159.817 329.412 700.535
159.817 341.176 449.198
159.817 352.941 614.973
159.817 364.706 363.636
159.817 376.471 363.636
159.817 388.235 481.283
159.817 400 304.813
159.817 411.765 401.07
159.817 423.529 374.332
159.817 435.294 336.898
159.817 505.882 32.0856
159.817 517.647 155.08
159.817 529.412 427.807
159.817 541.176 240.642
159.817 552.941 475.936
159.817 564.706 486.631
159.817 576.471 395.722
159.817 588.235 545.455
159.817 600 395.722
159.817 611.765 486.631
159.817 623.529 374.332
159.817 635.294 390.374
159.817 647.059 363.636
159.817 658.824 267.38
159.817 670.588 401.07
159.817 682.353 358.289
159.817 694.118 358.289
159.817 705.882 358.289
159.817 717.647 358.289
159.817 729.412 358.289
159.817 741.176 385.027
159.817 752.941 438.503
159.817 764.706 497.326
159.817 776.471 491.979
159.817 788.235 454.545
159.817 800 401.07
159.817 811.765 481.283
159.817 823.529 481.283
159.817 835.294 379.679
159.817 847.059 406.417
159.817 858.824 272.727
159.817 870.588 267.38
159.817 882.353 224.599
159.817 894.118 326.203
159.817 905.882 368.984
164.384 223.529 363.636
164.384 235.294 363.636
164.384 247.059 363.636
164.384 258.824 363.636
164.384 270.588 363.636
164.384 282.353 363.636
164.384 294.118 363.636
164.384 305.882 363.636
164.384 317.647 363.636
164.384 329.412 588.235
164.384 341.176 465.241
164.384 352.941 518.717
164.384 364.706 411.765
164.384 376.471 433.155
164.384 388.235 529.412
164.384 400 304.813
164.384 411.765 395.722
164.384 423.529 331.551
164.384 435.294 331.551
164.384 505.882 32.0856
164.384 517.647 160.428
164.384 529.412 219.251
164.384 541.176 208.556
164.384 552.941 395.722
164.384 564.706 486.631
164.384 576.471 427.807
164.384 588.235 550.802
164.384 600 417.112
164.384 611.765 433.155
164.384 623.529 395.722
164.384 635.294 390.374
164.384 647.059 363.636
164.384 658.824 267.38
164.384 670.588 395.722
164.384 682.353 363.636
164.384 694.118 363.636
164.384 705.882 363.636
164.384 717.647 363.636
164.384 729.412 358.289
164.384 741.176 470.588
164.384 752.941 513.369
164.384 764.706 491.979
164.384 776.471 454.545
164.384 788.235 401.07
164.384 800 481.283
164.384 811.765 470.588
164.384 823.529 465.241
164.384 835.294 465.241
164.384 847.059 470.588
164.384 858.824 481.283
164.384 870.588 80.2139
164.384 882.353 315.508
164.384 894.118 224.599
164.384 905.882 326.203
164.384 917.647 368.984
168.95 235.294 363.636
168.95 247.059 363.636
168.95 258.824 363.636
168.95 270.588 363.636
168.95 282.353 363.636
168.95 294.118 363.636
168.95 305.882 363.636
168.95 317.647 363.636
168.95 329.412 529.412
168.95 341.176 529.412
168.95 352.941 481.283
168.95 364.706 529.412
168.95 376.471 304.813
168.95 388.235 529.412
168.95 400 304.813
168.95 411.765 491.979
168.95 423.529 331.551
168.95 435.294 326.203
168.95 505.882 32.0856
168.95 517.647 160.428
168.95 529.412 192.513
168.95 541.176 262.032
168.95 552.941 395.722
168.95 564.706 513.369
168.95 576.471 443.85
168.95 588.235 395.722
168.95 600 411.765
168.95 611.765 401.07
168.95 623.529 401.07
168.95 635.294 368.984
168.95 647.059 368.984
168.95 658.824 267.38
168.95 670.588 401.07
168.95 682.353 363.636
168.95 694.118 363.636
168.95 705.882 363.636
168.95 717.647 363.636
168.95 729.412 320.856
168.95 741.176 427.807
168.95 752.941 502.674
168.95 764.706 459.893
168.95 776.471 406.417
168.95 788.235 481.283
168.95 800 470.588
168.95 811.765 465.241
168.95 823.529 465.241
168.95 835.294 465.241
168.95 847.059 465.241
168.95 858.824 465.241
168.95 870.588 331.551
168.95 882.353 427.807
168.95 894.118 368.984
168.95 905.882 229.947
168.95 917.647 326.203
173.516 247.059 363.636
173.516 258.824 363.636
173.516 270.588 363.636
173.516 282.353 363.636
173.516 294.118 363.636
173.516 305.882 363.636
173.516 317.647 363.636
173.516 329.412 577.54
173.516 341.176 609.626
173.516 352.941 502.674
173.516 364.706 433.155
173.516 376.471 310.16
173.516 388.235 556.15
173.516 400 406.417
173.516 411.765 545.455
173.516 423.529 358.289
173.516 435.294 326.203
173.516 505.882 32.0856
173.516 517.647 160.428
173.516 529.412 197.861
173.516 541.176 422.46
173.516 552.941 417.112
173.516 564.706 550.802
173.516 576.471 310.16
173.516 588.235 401.07
173.516 600 401.07
173.516 611.765 395.722
173.516 623.529 395.722
173.516 635.294 368.984
173.516 647.059 320.856
173.516 658.824 224.599
173.516 670.588 385.027
173.516 682.353 363.636
173.516 694.118 363.636
173.516 705.882 363.636
173.516 717.647 363.636
173.516 729.412 272.727
173.516 741.176 513.369
173.516 752.941 491.979
173.516 764.706 427.807
173.516 776.471 491.979
173.516 788.235 470.588
173.516 800 465.241
173.516 811.765 465.241
173.516 823.529 465.241
173.516 835.294 465.241
173.516 847.059 465.241
173.516 858.824 465.241
173.516 870.588 331.551
173.516 882.353 342.246
173.516 894.118 326.203
173.516 905.882 368.984
173.516 917.647 278.075
173.516 929.412 374.332
178.082 258.824 363.636
178.082 270.588 363.636
178.082 282.353 363.636
178.082 294.118 363.636
178.082 305.882 363.636
178.082 317.647 363.636
178.082 329.412 470.588
178.082 341.176 508.021
178.082 352.941 518.717
178.082 364.706 368.984
178.082 376.471 459.893
178.082 388.235 358.289
178.082 400 449.198
178.082 411.765 475.936
178.082 423.529 406.417
178.082 435.294 390.374
178.082 505.882 53.4759
178.082 517.647 197.861
178.082 529.412 235.294
178.082 541.176 395.722
178.082 552.941 443.85
178.082 564.706 545.455
178.082 576.471 315.508
178.082 588.235 433.155
178.082 600 401.07
178.082 611.765 427.807
178.082 623.529 374.332
178.082 635.294 368.984
178.082 647.059 272.727
178.082 658.824 401.07
178.082 670.588 374.332
178.082 682.353 363.636
178.082 694.118 363.636
178.082 705.882 363.636
178.082 717.647 363.636
178.082 729.412 272.727
178.082 741.176 513.369
178.082 752.941 459.893
178.082 764.706 406.417
178.082 776.471 486.631
178.082 788.235 470.588
178.082 800 470.588
178.082 811.765 470.588
178.082 823.529 465.241
178.082 835.294 465.241
178.082 847.059 470.588
178.082 858.824 470.588
178.082 870.588 331.551
178.082 882.353 331.551
178.082 894.118 401.07
178.082 905.882 326.203
178.082 917.647 80.2139
178.082 929.412 326.203
182.648 282.353 363.636
182.648 294.118 363.636
182.648 305.882 363.636
182.648 317.647 363.636
182.648 329.412 363.636
182.648 341.176 614.973
182.648 352.941 647.059
182.648 364.706 422.46
182.648 376.471 363.636
182.648 388.235 374.332
182.648 400 508.021
182.648 411.765 422.46
182.648 423.529 449.198
182.648 435.294 422.46
182.648 447.059 64.1711
182.648 505.882 80.2139
182.648 517.647 224.599
182.648 529.412 251.337
182.648 541.176 395.722
182.648 552.941 550.802
182.648 564.706 550.802
182.648 576.471 310.16
182.648 588.235 427.807
182.648 600 395.722
182.648 611.765 401.07
182.648 623.529 374.332
182.648 635.294 374.332
182.648 647.059 272.727
182.648 658.824 406.417
182.648 670.588 363.636
182.648 682.353 363.636
182.648 694.118 363.636
182.648 705.882 363.636
182.648 717.647 315.508
182.648 729.412 224.599
182.648 741.176 502.674
182.648 752.941 438.503
182.648 764.706 502.674
182.648 776.471 481.283
182.648 788.235 470.588
182.648 800 470.588
182.648 811.765 470.588
182.648 823.529 470.588
182.648 835.294 470.588
182.648 847.059 470.588
182.648 858.824 470.588
182.648 870.588 331.551
182.648 882.353 331.551
182.648 894.118 336.898
182.648 905.882 229.947
182.648 917.647 326.203
182.648 929.412 278.075
182.648 941.176 374.332
187.215 47.0588 358.289
187.215 58.8235 358.289
187.215 70.5882 358.289
187.215 294.118 363.636
187.215 305.882 363.636
187.215 317.647 363.636
187.215 329.412 363.636
187.215 341.176 475.936
187.215 352.941 561.497
187.215 364.706 470.588
187.215 376.471 427.807
187.215 388.235 550.802
187.215 400 390.374
187.215 411.765 304.813
187.215 423.529 508.021
187.215 435.294 304.813
187.215 447.059 331.551
187.215 505.882 122.995
187.215 517.647 213.904
187.215 529.412 224.599
187.215 541.176 401.07
187.215 552.941 550.802
187.215 564.706 395.722
187.215 576.471 320.856
187.215 588.235 427.807
187.215 600 395.722
187.215 611.765 374.332
187.215 623.529 374.332
187.215 635.294 374.332
187.215 647.059 278.075
187.215 658.824 406.417
187.215 670.588 368.984
187.215 682.353 363.636
187.215 694.118 363.636
187.215 705.882 363.636
187.215 717.647 272.727
187.215 729.412 385.027
187.215 741.176 358.289
187.215 752.941 417.112
187.215 764.706 491.979
187.215 776.471 481.283
187.215 788.235 481.283
187.215 800 502.674
187.215 811.765 481.283
187.215 823.529 475.936
187.215 835.294 481.283
187.215 847.059 475.936
187.215 858.824 470.588
187.215 870.588 331.551
187.215 882.353 331.551
187.215 894.118 347.594
187.215 905.882 192.513
187.215 917.647 278.075
187.215 929.412 74.8663
187.215 941.176 326.203
191.781 35.2941 358.289
191.781 47.0588 358.289
191.781 58.8235 358.289
191.781 70.5882 358.289
191.781 82.3529 358.289
191.781 94.1176 358.289
191.781 105.882 358.289
191.781 117.647 358.289
191.781 129.412 358.289
191.781 188.235 363.636
191.781 200 363.636
191.781 211.765 363.636
191.781 317.647 363.636
191.781 329.412 363.636
191.781 341.176 363.636
191.781 352.941 470.588
191.781 364.706 572.193
191.781 376.471 427.807
191.781 388.235 320.856
191.781 400 406.417
191.781 411.765 427.807
191.781 423.529 529.412
191.781 435.294 358.289
191.781 447.059 390.374
191.781 494.118 32.0856
191.781 505.882 160.428
191.781 517.647 187.166
191.781 529.412 229.947
191.781 541.176 417.112
191.781 552.941 550.802
191.781 564.706 401.07
191.781 576.471 310.16
191.781 588.235 427.807
191.781 600 395.722
191.781 611.765 374.332
191.781 623.529 374.332
191.781 635.294 374.332
191.781 647.059 272.727
191.781 658.824 406.417
191.781 670.588 368.984
191.781 682.353 368.984
191.781 694.118 363.636
191.781 705.882 363.636
191.781 717.647 272.727
191.781 729.412 390.374
191.781 741.176 352.941
191.781 752.941 508.021
191.781 764.706 486.631
191.781 776.471 481.283
191.781 788.235 481.283
191.781 800 518.717
191.781 811.765 481.283
191.781 823.529 481.283
191.781 835.294 481.283
191.781 847.059 481.283
191.781 858.824 481.283
191.781 870.588 331.551
191.781 882.353 336.898
191.781 894.118 144.385
191.781 905.882 235.294
191.781 917.647 80.2139
191.781 929.412 326.203
191.781 941.176 278.075
196.347 23.5294 358.289
196.347 35.2941 363.636
196.347 47.0588 363.636
196.347 58.8235 363.636
196.347 70.5882 363.636
196.347 82.3529 363.636
196.347 94.1176 363.636
196.347 105.882 363.636
196.347 117.647 363.636
196.347 129.412 363.636
196.347 141.176 363.636
196.347 152.941 363.636
196.347 164.706 363.636
196.347 176.471 363.636
196.347 188.235 363.636
196.347 200 363.636
196.347 211.765 363.636
196.347 223.529 363.636
196.347 235.294 363.636
196.347 329.412 363.636
196.347 341.176 363.636
196.347 352.941 529.412
196.347 364.706 566.845
196.347 376.471 556.15
196.347 388.235 310.16
196.347 400 417.112
196.347 411.765 475.936
196.347 423.529 470.588
196.347 435.294 251.337
196.347 447.059 144.385
196.347 458.824 64.1711
196.347 494.118 53.4759
196.347 505.882 155.08
196.347 517.647 203.209
196.347 529.412 550.802
196.347 541.176 395.722
196.347 552.941 545.455
196.347 564.706 395.722
196.347 576.471 352.941
196.347 588.235 449.198
196.347 600 401.07
196.347 611.765 385.027
196.347 623.529 379.679
196.347 635.294 326.203
196.347 647.059 229.947
196.347 658.824 390.374
196.347 670.588 368.984
196.347 682.353 368.984
196.347 694.118 368.984
196.347 705.882 363.636
196.347 717.647 272.727
196.347 729.412 390.374
196.347 741.176 352.941
196.347 752.941 497.326
196.347 764.706 481.283
196.347 776.471 481.283
196.347 788.235 481.283
196.347 800 540.107
196.347 811.765 481.283
196.347 823.529 481.283
196.347 835.294 481.283
196.347 847.059 481.283
196.347 858.824 481.283
196.347 870.588 475.936
196.347 882.353 347.594
196.347 894.118 192.513
196.347 905.882 368.984
196.347 917.647 368.984
196.347 929.412 278.075
196.347 941.176 133.69
196.347 952.941 128.342
200.913 23.5294 358.289
200.913 35.2941 363.636
200.913 47.0588 363.636
200.913 58.8235 363.636
200.913 70.5882 363.636
200.913 82.3529 363.636
200.913 94.1176 363.636
200.913 105.882 363.636
200.913 117.647 363.636
200.913 129.412 363.636
200.913 141.176 363.636
200.913 152.941 363.636
200.913 164.706 363.636
200.913 176.471 363.636
200.913 188.235 363.636
200.913 200 363.636
200.913 211.765 363.636
200.913 223.529 363.636
200.913 235.294 363.636
200.913 247.059 363.636
200.913 258.824 363.636
200.913 270.588 363.636
200.913 329.412 363.636
200.913 341.176 363.636
200.913 352.941 368.984
200.913 364.706 502.674
200.913 376.471 577.54
200.913 388.235 395.722
200.913 400 465.241
200.913 411.765 417.112
200.913 423.529 449.198
200.913 435.294 245.989
200.913 447.059 90.9091
200.913 458.824 331.551
200.913 505.882 106.952
200.913 517.647 139.037
200.913 529.412 524.064
200.913 541.176 385.027
200.913 552.941 508.021
200.913 564.706 395.722
200.913 576.471 395.722
200.913 588.235 310.16
200.913 600 401.07
200.913 611.765 390.374
200.913 623.529 379.679
200.913 635.294 278.075
200.913 647.059 411.765
200.913 658.824 379.679
200.913 670.588 374.332
200.913 682.353 368.984
200.913 694.118 368.984
200.913 705.882 368.984
200.913 717.647 272.727
200.913 729.412 390.374
200.913 741.176 486.631
200.913 752.941 497.326
200.913 764.706 497.326
200.913 776.471 497.326
200.913 788.235 486.631
200.913 800 540.107
200.913 811.765 502.674
200.913 823.529 486.631
200.913 835.294 486.631
200.913 847.059 481.283
200.913 858.824 481.283
200.913 870.588 481.283
200.913 882.353 149.733
200.913 894.118 235.294
200.913 905.882 368.984
200.913 917.647 368.984
200.913 929.412 133.69
200.913 941.176 133.69
200.913 952.941 128.342
205.479 11.7647 358.289
205.479 23.5294 363.636
205.479 35.2941 363.636
205.479 47.0588 363.636
205.479 58.8235 363.636
205.479 70.5882 363.636
205.479 82.3529 363.636
205.479 94.1176 363.636
205.479 105.882 363.636
205.479 117.647 363.636
205.479 129.412 363.636
205.479 141.176 363.636
205.479 152.941 363.636
205.479 164.706 363.636
205.479 176.471 363.636
205.479 188.235 363.636
205.479 200 363.636
205.479 211.765 363.636
205.479 223.529 363.636
205.479 235.294 363.636
205.479 247.059 363.636
205.479 258.824 363.636
205.479 270.588 363.636
205.479 282.353 363.636
205.479 294.118 363.636
205.479 305.882 363.636
205.479 317.647 363.636
205.479 329.412 315.508
205.479 341.176 374.332
205.479 352.941 368.984
205.479 364.706 513.369
205.479 376.471 540.107
205.479 388.235 486.631
205.479 400 513.369
205.479 411.765 379.679
205.479 423.529 363.636
205.479 435.294 171.123
205.479 458.824 272.727
205.479 505.882 80.2139
205.479 517.647 42.7807
205.479 529.412 406.417
205.479 541.176 513.369
205.479 552.941 443.85
205.479 564.706 385.027
205.479 576.471 401.07
205.479 588.235 288.77
205.479 600 422.46
205.479 611.765 518.717
205.479 623.529 342.246
205.479 635.294 229.947
205.479 647.059 395.722
205.479 658.824 374.332
205.479 670.588 374.332
205.479 682.353 374.332
205.479 694.118 368.984
205.479 705.882 368.984
205.479 717.647 272.727
205.479 729.412 395.722
205.479 741.176 497.326
205.479 752.941 497.326
205.479 764.706 497.326
205.479 776.471 497.326
205.479 788.235 497.326
205.479 800 491.979
205.479 811.765 508.021
205.479 823.529 486.631
205.479 835.294 491.979
205.479 847.059 486.631
205.479 858.824 486.631
205.479 870.588 486.631
205.479 882.353 385.027
205.479 894.118 374.332
205.479 905.882 374.332
205.479 917.647 374.332
205.479 929.412 133.69
205.479 941.176 128.342
205.479 952.941 80.2139
205.479 964.706 326.203
210.046 11.7647 358.289
210.046 23.5294 363.636
210.046 35.2941 363.636
210.046 47.0588 363.636
210.046 58.8235 363.636
210.046 70.5882 363.636
210.046 82.3529 363.636
210.046 94.1176 363.636
210.046 105.882 363.636
210.046 117.647 363.636
210.046 129.412 363.636
210.046 141.176 363.636
210.046 152.941 363.636
210.046 164.706 363.636
210.046 176.471 363.636
210.046 188.235 363.636
210.046 200 363.636
210.046 211.765 363.636
210.046 223.529 363.636
210.046 235.294 363.636
210.046 247.059 363.636
210.046 258.824 363.636
210.046 270.588 363.636
210.046 282.353 363.636
210.046 294.118 363.636
210.046 305.882 363.636
210.046 317.647 363.636
210.046 329.412 363.636
210.046 341.176 267.38
210.046 352.941 443.85
210.046 364.706 513.369
210.046 376.471 497.326
210.046 388.235 534.759
210.046 400 433.155
210.046 411.765 438.503
210.046 423.529 256.684
210.046 435.294 122.995
210.046 447.059 358.289
210.046 458.824 192.513
210.046 517.647 85.5615
210.046 529.412 213.904
210.046 541.176 379.679
210.046 552.941 433.155
210.046 564.706 385.027
210.046 576.471 449.198
210.046 588.235 240.642
210.046 600 491.979
210.046 611.765 486.631
210.046 623.529 299.465
210.046 635.294 411.765
210.046 647.059 379.679
210.046 658.824 374.332
210.046 670.588 374.332
210.046 682.353 374.332
210.046 694.118 374.332
210.046 705.882 326.203
210.046 717.647 224.599
210.046 729.412 508.021
210.046 741.176 497.326
210.046 752.941 497.326
210.046 764.706 497.326
210.046 776.471 497.326
210.046 788.235 497.326
210.046 800 497.326
210.046 811.765 518.717
210.046 823.529 497.326
210.046 835.294 497.326
210.046 847.059 491.979
210.046 858.824 491.979
210.046 870.588 486.631
210.046 882.353 385.027
210.046 894.118 374.332
210.046 905.882 374.332
210.046 917.647 374.332
210.046 929.412 133.69
210.046 941.176 128.342
210.046 952.941 374.332
210.046 964.706 278.075
214.612 11.7647 358.289
214.612 23.5294 363.636
214.612 35.2941 363.636
214.612 47.0588 363.636
214.612 58.8235 363.636
214.612 70.5882 363.636
214.612 82.3529 363.636
214.612 94.1176 363.636
214.612 105.882 363.636
214.612 117.647 363.636
214.612 129.412 363.636
214.612 141.176 363.636
214.612 152.941 363.636
214.612 164.706 363.636
214.612 176.471 363.636
214.612 188.235 363.636
214.612 200 363.636
214.612 211.765 363.636
214.612 223.529 363.636
214.612 235.294 363.636
214.612 247.059 363.636
214.612 258.824 363.636
214.612 270.588 363.636
214.612 282.353 363.636
214.612 294.118 363.636
214.612 305.882 363.636
214.612 317.647 363.636
214.612 329.412 363.636
214.612 341.176 267.38
214.612 352.941 481.283
214.612 364.706 540.107
214.612 376.471 438.503
214.612 388.235 545.455
214.612 400 491.979
214.612 411.765 374.332
214.612 423.529 133.69
214.612 447.059 251.337
214.612 458.824 90.9091
214.612 517.647 53.4759
214.612 529.412 251.337
214.612 541.176 219.251
214.612 552.941 352.941
214.612 564.706 363.636
214.612 576.471 310.16
214.612 588.235 465.241
214.612 600 352.941
214.612 611.765 299.465
214.612 623.529 406.417
214.612 635.294 406.417
214.612 647.059 374.332
214.612 658.824 374.332
214.612 670.588 374.332
214.612 682.353 374.332
214.612 694.118 326.203
214.612 705.882 229.947
214.612 717.647 385.027
214.612 729.412 502.674
214.612 741.176 497.326
214.612 752.941 497.326
214.612 764.706 497.326
214.612 776.471 497.326
214.612 788.235 497.326
214.612 800 497.326
214.612 811.765 518.717
214.612 823.529 497.326
214.612 835.294 497.326
214.612 847.059 497.326
214.612 858.824 497.326
214.612 870.588 491.979
214.612 882.353 390.374
214.612 894.118 374.332
214.612 905.882 374.332
214.612 917.647 374.332
214.612 929.412 133.69
214.612 941.176 128.342
214.612 952.941 379.679
214.612 964.706 128.342
219.178 0 358.289
219.178 11.7647 363.636
219.178 23.5294 363.636
219.178 35.2941 363.636
219.178 47.0588 363.636
219.178 58.8235 358.289
219.178 70.5882 358.289
219.178 82.3529 358.289
219.178 94.1176 363.636
219.178 105.882 363.636
219.178 117.647 363.636
219.178 129.412 363.636
219.178 141.176 363.636
219.178 152.941 363.636
219.178 164.706 363.636
219.178 176.471 363.636
219.178 188.235 363.636
219.178 200 363.636
219.178 211.765 363.636
219.178 223.529 363.636
219.178 235.294 363.636
219.178 247.059 363.636
219.178 258.824 363.636
219.178 270.588 363.636
219.178 282.353 363.636
219.178 294.118 363.636
219.178 305.882 363.636
219.178 317.647 363.636
219.178 329.412 363.636
219.178 341.176 363.636
219.178 352.941 491.979
219.178 364.706 401.07
219.178 376.471 593.583
219.178 388.235 475.936
219.178 400 433.155
219.178 411.765 267.38
219.178 423.529 85.5615
219.178 435.294 262.032
219.178 447.059 160.428
219.178 529.412 32.0856
219.178 541.176 197.861
219.178 552.941 160.428
219.178 564.706 299.465
219.178 576.471 315.508
219.178 588.235 352.941
219.178 600 245.989
219.178 611.765 422.46
219.178 623.529 374.332
219.178 635.294 427.807
219.178 647.059 368.984
219.178 658.824 326.203
219.178 670.588 326.203
219.178 682.353 278.075
219.178 694.118 181.818
219.178 705.882 379.679
219.178 717.647 502.674
219.178 729.412 502.674
219.178 741.176 502.674
219.178 752.941 502.674
219.178 764.706 497.326
219.178 776.471 502.674
219.178 788.235 497.326
219.178 800 497.326
219.178 811.765 518.717
219.178 823.529 497.326
219.178 835.294 502.674
219.178 847.059 502.674
219.178 858.824 502.674
219.178 870.588 502.674
219.178 882.353 374.332
219.178 894.118 326.203
219.178 905.882 374.332
219.178 917.647 374.332
219.178 929.412 139.037
219.178 941.176 133.69
219.178 952.941 379.679
219.178 964.706 128.342
223.744 0 358.289
223.744 11.7647 363.636
223.744 23.5294 363.636
223.744 35.2941 363.636
223.744 47.0588 358.289
223.744 58.8235 358.289
223.744 70.5882 358.289
223.744 82.3529 358.289
223.744 94.1176 358.289
223.744 105.882 358.289
223.744 117.647 363.636
223.744 129.412 363.636
223.744 141.176 363.636
223.744 152.941 363.636
223.744 164.706 363.636
223.744 176.471 363.636
223.744 188.235 363.636
223.744 200 363.636
223.744 211.765 363.636
223.744 223.529 363.636
223.744 235.294 363.636
223.744 247.059 363.636
223.744 258.824 363.636
223.744 270.588 363.636
223.744 282.353 363.636
223.744 294.118 363.636
223.744 305.882 363.636
223.744 317.647 363.636
223.744 329.412 315.508
223.744 341.176 417.112
223.744 352.941 422.46
223.744 364.706 320.856
223.744 376.471 513.369
223.744 388.235 401.07
223.744 400 294.118
223.744 411.765 256.684
223.744 423.529 240.642
223.744 435.294 160.428
223.744 541.176 251.337
223.744 552.941 256.684
223.744 564.706 224.599
223.744 576.471 352.941
223.744 588.235 427.807
223.744 600 486.631
223.744 611.765 336.898
223.744 623.529 433.155
223.744 635.294 438.503
223.744 647.059 524.064
223.744 658.824 299.465
223.744 670.588 171.123
223.744 682.353 385.027
223.744 694.118 379.679
223.744 705.882 470.588
223.744 717.647 508.021
223.744 729.412 502.674
223.744 741.176 502.674
223.744 752.941 502.674
223.744 764.706 502.674
223.744 776.471 502.674
223.744 788.235 502.674
223.744 800 502.674
223.744 811.765 524.064
223.744 823.529 502.674
223.744 835.294 502.674
223.744 847.059 502.674
223.744 858.824 502.674
223.744 870.588 502.674
223.744 882.353 502.674
223.744 894.118 235.294
223.744 905.882 326.203
223.744 917.647 374.332
223.744 929.412 133.69
223.744 941.176 133.69
223.744 952.941 385.027
223.744 964.706 122.995
228.311 0 358.289
228.311 11.7647 363.636
228.311 23.5294 363.636
228.311 35.2941 358.289
228.311 47.0588 358.289
228.311 58.8235 358.289
228.311 70.5882 358.289
228.311 82.3529 358.289
228.311 94.1176 358.289
228.311 105.882 358.289
228.311 117.647 358.289
228.311 129.412 363.636
228.311 141.176 363.636
228.311 152.941 363.636
228.311 164.706 363.636
228.311 176.471 363.636
228.311 188.235 363.636
228.311 200 363.636
228.311 211.765 363.636
228.311 223.529 363.636
228.311 235.294 363.636
228.311 247.059 363.636
228.311 258.824 363.636
228.311 270.588 363.636
228.311 282.353 363.636
228.311 294.118 363.636
228.311 305.882 363.636
228.311 317.647 315.508
228.311 329.412 401.07
228.311 341.176 443.85
228.311 352.941 470.588
228.311 364.706 395.722
228.311 376.471 331.551
228.311 388.235 262.032
228.311 400 272.727
228.311 411.765 160.428
228.311 423.529 128.342
