456.522 891.026 732.026
456.522 903.846 588.235
456.522 910.256 562.092
456.522 916.667 653.595
456.522 929.487 450.98
456.522 935.897 196.078
456.522 942.308 450.98
456.522 974.359 320.261
460.87 320.513 542.484
460.87 326.923 542.484
460.87 333.333 542.484
460.87 339.744 732.026
460.87 346.154 732.026
460.87 352.564 732.026
460.87 358.974 718.954
460.87 365.385 718.954
460.87 371.795 732.026
460.87 378.205 718.954
460.87 384.615 718.954
460.87 391.026 732.026
460.87 397.436 732.026
460.87 403.846 732.026
460.87 410.256 745.098
460.87 416.667 509.804
460.87 423.077 509.804
460.87 429.487 705.882
460.87 448.718 503.268
460.87 455.128 509.804
460.87 461.538 509.804
460.87 467.949 509.804
460.87 512.821 509.804
460.87 532.051 509.804
460.87 564.103 732.026
460.87 570.513 732.026
460.87 576.923 732.026
460.87 583.333 699.346
460.87 589.744 699.346
460.87 596.154 705.882
460.87 608.974 686.275
460.87 615.385 686.275
460.87 621.795 686.275
460.87 628.205 758.17
460.87 634.615 758.17
460.87 641.026 758.17
460.87 653.846 882.353
460.87 666.667 882.353
460.87 679.487 915.033
460.87 692.308 915.033
460.87 698.718 915.033
460.87 711.538 915.033
460.87 724.359 934.641
460.87 737.179 934.641
460.87 750 967.32
460.87 762.821 960.784
460.87 775.641 986.928
460.87 788.462 980.392
460.87 801.282 921.569
460.87 807.692 111.111
460.87 814.103 921.569
460.87 826.923 836.601
460.87 833.333 444.444
460.87 839.744 856.209
460.87 852.564 764.706
460.87 858.974 78.4314
460.87 865.385 771.242
460.87 878.205 718.954
460.87 884.615 228.758
460.87 891.026 732.026
460.87 903.846 562.092
460.87 910.256 326.797
460.87 916.667 588.235
460.87 929.487 450.98
460.87 935.897 320.261
460.87 942.308 450.98
465.217 282.051 542.484
465.217 288.462 542.484
465.217 294.872 542.484
465.217 320.513 542.484
465.217 326.923 542.484
465.217 333.333 542.484
465.217 339.744 725.49
465.217 346.154 725.49
465.217 352.564 732.026
465.217 358.974 529.412
465.217 365.385 529.412
465.217 371.795 718.954
465.217 378.205 535.948
465.217 384.615 535.948
465.217 391.026 718.954
465.217 397.436 542.484
465.217 403.846 542.484
465.217 410.256 725.49
465.217 416.667 549.02
465.217 423.077 549.02
465.217 429.487 516.34
465.217 467.949 509.804
465.217 564.103 732.026
465.217 570.513 732.026
465.217 576.923 732.026
465.217 583.333 699.346
465.217 589.744 699.346
465.217 596.154 699.346
465.217 608.974 679.739
465.217 615.385 679.739
465.217 621.795 686.275
465.217 628.205 725.49
465.217 634.615 725.49
465.217 641.026 771.242
465.217 653.846 875.817
465.217 666.667 875.817
465.217 679.487 915.033
465.217 692.308 915.033
465.217 698.718 915.033
465.217 711.538 915.033
465.217 724.359 934.641
465.217 737.179 934.641
465.217 750 973.856
465.217 762.821 967.32
465.217 775.641 986.928
465.217 788.462 986.928
465.217 801.282 928.105
465.217 807.692 228.758
465.217 814.103 915.033
465.217 826.923 803.922
465.217 833.333 222.222
465.217 839.744 843.137
465.217 852.564 764.706
465.217 858.974 130.719
465.217 865.385 764.706
465.217 878.205 712.418
465.217 884.615 183.007
465.217 891.026 718.954
465.217 903.846 555.556
465.217 910.256 196.078
465.217 916.667 555.556
465.217 929.487 450.98
465.217 935.897 320.261
465.217 942.308 450.98
469.565 282.051 542.484
469.565 288.462 542.484
469.565 294.872 542.484
469.565 301.282 535.948
469.565 307.692 535.948
469.565 314.103 535.948
469.565 320.513 718.954
469.565 326.923 718.954
469.565 333.333 725.49
469.565 339.744 718.954
469.565 346.154 718.954
469.565 352.564 732.026
469.565 358.974 535.948
469.565 365.385 535.948
469.565 371.795 529.412
469.565 378.205 535.948
469.565 384.615 535.948
469.565 391.026 535.948
469.565 397.436 542.484
469.565 403.846 542.484
469.565 410.256 549.02
469.565 416.667 549.02
469.565 423.077 549.02
469.565 429.487 549.02
469.565 564.103 732.026
469.565 570.513 732.026
469.565 576.923 732.026
469.565 583.333 692.81
469.565 589.744 692.81
469.565 596.154 692.81
469.565 608.974 679.739
469.565 615.385 679.739
469.565 621.795 679.739
469.565 628.205 738.562
469.565 634.615 614.379
469.565 641.026 738.562
469.565 653.846 882.353
469.565 666.667 882.353
469.565 679.487 915.033
469.565 692.308 915.033
469.565 698.718 921.569
469.565 711.538 915.033
469.565 724.359 928.105
469.565 737.179 934.641
469.565 750 973.856
469.565 762.821 973.856
469.565 775.641 1000
469.565 788.462 986.928
469.565 801.282 908.497
469.565 807.692 189.542
469.565 814.103 928.105
469.565 826.923 784.314
469.565 833.333 137.255
469.565 839.744 797.386
469.565 852.564 764.706
469.565 858.974 52.2876
469.565 865.385 771.242
469.565 878.205 712.418
469.565 884.615 117.647
469.565 891.026 712.418
469.565 903.846 450.98
469.565 910.256 450.98
469.565 916.667 555.556
469.565 929.487 450.98
469.565 935.897 320.261
469.565 942.308 450.98
473.913 282.051 542.484
473.913 288.462 542.484
473.913 294.872 542.484
473.913 301.282 529.412
473.913 307.692 529.412
473.913 314.103 529.412
473.913 320.513 712.418
473.913 326.923 712.418
473.913 333.333 725.49
473.913 339.744 535.948
473.913 346.154 535.948
473.913 352.564 718.954
473.913 358.974 542.484
473.913 365.385 542.484
473.913 371.795 535.948
473.913 378.205 542.484
473.913 384.615 542.484
473.913 391.026 535.948
473.913 397.436 549.02
473.913 403.846 549.02
473.913 410.256 542.484
473.913 429.487 549.02
473.913 538.462 725.49
473.913 544.872 725.49
473.913 551.282 725.49
473.913 564.103 738.562
473.913 570.513 738.562
473.913 576.923 732.026
473.913 583.333 686.275
473.913 589.744 686.275
473.913 596.154 692.81
473.913 608.974 496.732
473.913 615.385 496.732
473.913 621.795 679.739
473.913 628.205 745.098
473.913 634.615 483.66
473.913 641.026 758.17
473.913 653.846 882.353
473.913 666.667 882.353
473.913 679.487 915.033
473.913 692.308 915.033
473.913 698.718 921.569
473.913 711.538 921.569
473.913 724.359 934.641
473.913 737.179 928.105
473.913 750 973.856
473.913 762.821 973.856
473.913 775.641 1000
473.913 788.462 993.464
473.913 801.282 843.137
473.913 807.692 248.366
473.913 814.103 908.497
473.913 826.923 745.098
473.913 833.333 313.725
473.913 839.744 764.706
473.913 852.564 777.778
473.913 858.974 137.255
473.913 865.385 771.242
473.913 878.205 705.882
473.913 884.615 84.9673
473.913 891.026 712.418
473.913 903.846 575.163
473.913 910.256 450.98
473.913 916.667 575.163
473.913 929.487 516.34
473.913 935.897 196.078
473.913 942.308 516.34
478.261 243.59 516.34
478.261 250 516.34
478.261 256.41 516.34
478.261 262.821 522.876
478.261 269.231 522.876
478.261 275.641 522.876
478.261 282.051 542.484
478.261 288.462 542.484
478.261 294.872 542.484
478.261 301.282 522.876
478.261 307.692 522.876
478.261 314.103 535.948
478.261 320.513 529.412
478.261 326.923 529.412
478.261 333.333 712.418
478.261 339.744 535.948
478.261 346.154 535.948
478.261 352.564 535.948
478.261 358.974 549.02
478.261 365.385 549.02
478.261 371.795 542.484
478.261 378.205 542.484
478.261 384.615 542.484
478.261 391.026 542.484
478.261 397.436 549.02
478.261 403.846 549.02
478.261 410.256 549.02
478.261 519.231 516.34
478.261 525.641 516.34
478.261 532.051 516.34
478.261 538.462 725.49
478.261 544.872 725.49
478.261 551.282 725.49
478.261 564.103 738.562
478.261 570.513 738.562
478.261 576.923 738.562
478.261 583.333 679.739
478.261 589.744 679.739
478.261 596.154 686.275
478.261 608.974 496.732
478.261 615.385 496.732
478.261 621.795 496.732
478.261 628.205 738.562
478.261 634.615 503.268
478.261 641.026 777.778
478.261 653.846 882.353
478.261 666.667 882.353
478.261 679.487 915.033
478.261 692.308 915.033
478.261 698.718 921.569
478.261 711.538 921.569
478.261 724.359 934.641
478.261 737.179 934.641
478.261 750 973.856
478.261 762.821 973.856
478.261 775.641 1000
478.261 788.462 1000
478.261 801.282 810.458
478.261 807.692 215.686
478.261 814.103 836.601
478.261 826.923 732.026
478.261 833.333 189.542
478.261 839.744 751.634
478.261 852.564 797.386
478.261 858.974 58.8235
478.261 865.385 784.314
478.261 878.205 686.275
478.261 884.615 169.935
478.261 891.026 705.882
478.261 903.846 575.163
478.261 910.256 196.078
478.261 916.667 575.163
478.261 929.487 549.02
478.261 935.897 320.261
478.261 942.308 549.02
478.261 961.538 313.725
478.261 967.949 313.725
478.261 974.359 313.725
482.609 243.59 516.34
482.609 250 516.34
482.609 256.41 516.34
482.609 262.821 522.876
482.609 269.231 522.876
482.609 275.641 522.876
482.609 282.051 542.484
482.609 288.462 542.484
482.609 294.872 542.484
482.609 301.282 509.804
482.609 307.692 509.804
482.609 314.103 712.418
482.609 320.513 542.484
482.609 326.923 542.484
482.609 333.333 529.412
482.609 339.744 542.484
482.609 346.154 542.484
482.609 352.564 535.948
482.609 358.974 549.02
482.609 365.385 549.02
482.609 371.795 549.02
482.609 391.026 542.484
482.609 410.256 549.02
482.609 500 496.732
482.609 506.41 496.732
482.609 512.821 496.732
482.609 519.231 718.954
482.609 525.641 718.954
482.609 532.051 718.954
482.609 538.462 732.026
482.609 544.872 732.026
482.609 551.282 732.026
482.609 564.103 725.49
482.609 570.513 725.49
482.609 576.923 732.026
482.609 583.333 503.268
482.609 589.744 503.268
482.609 596.154 679.739
482.609 608.974 496.732
482.609 615.385 496.732
482.609 621.795 496.732
482.609 628.205 725.49
482.609 634.615 385.621
482.609 641.026 738.562
482.609 653.846 882.353
482.609 666.667 882.353
482.609 679.487 915.033
482.609 692.308 915.033
482.609 698.718 921.569
482.609 711.538 921.569
482.609 724.359 934.641
482.609 737.179 934.641
482.609 750 980.392
482.609 762.821 973.856
482.609 775.641 1000
482.609 788.462 1000
482.609 801.282 784.314
482.609 807.692 235.294
482.609 814.103 797.386
482.609 826.923 751.634
482.609 833.333 202.614
482.609 839.744 738.562
482.609 852.564 803.922
482.609 858.974 169.935
482.609 865.385 790.85
482.609 878.205 673.203
482.609 884.615 52.2876
482.609 891.026 692.81
482.609 903.846 555.556
482.609 910.256 320.261
482.609 916.667 575.163
482.609 929.487 575.163
482.609 935.897 241.83
482.609 942.308 575.163
482.609 961.538 444.444
482.609 967.949 444.444
482.609 974.359 444.444
486.957 243.59 522.876
486.957 250 522.876
486.957 256.41 516.34
486.957 262.821 535.948
486.957 269.231 535.948
486.957 275.641 529.412
486.957 282.051 725.49
486.957 288.462 725.49
486.957 294.872 725.49
486.957 301.282 529.412
486.957 307.692 529.412
486.957 314.103 529.412
486.957 320.513 542.484
486.957 326.923 542.484
486.957 333.333 535.948
486.957 339.744 542.484
486.957 346.154 542.484
486.957 352.564 542.484
486.957 371.795 549.02
486.957 500 516.34
486.957 506.41 516.34
486.957 512.821 516.34
486.957 519.231 725.49
486.957 525.641 725.49
486.957 532.051 725.49
486.957 538.462 738.562
486.957 544.872 738.562
486.957 551.282 732.026
486.957 564.103 712.418
486.957 570.513 712.418
486.957 576.923 732.026
486.957 596.154 503.268
486.957 621.795 496.732
486.957 628.205 725.49
486.957 634.615 450.98
486.957 641.026 725.49
486.957 653.846 882.353
486.957 666.667 882.353
486.957 679.487 915.033
486.957 692.308 915.033
486.957 698.718 928.105
486.957 711.538 921.569
486.957 724.359 934.641
486.957 737.179 934.641
486.957 750 980.392
486.957 762.821 980.392
486.957 775.641 1000
486.957 788.462 1000
486.957 801.282 790.85
486.957 807.692 150.327
486.957 814.103 797.386
486.957 826.923 764.706
486.957 833.333 130.719
486.957 839.744 758.17
486.957 852.564 797.386
486.957 858.974 104.575
486.957 865.385 797.386
486.957 878.205 686.275
486.957 884.615 163.399
486.957 891.026 673.203
486.957 903.846 594.771
486.957 910.256 398.693
486.957 916.667 594.771
486.957 929.487 575.163
486.957 935.897 65.3595
486.957 942.308 575.163
486.957 961.538 444.444
486.957 967.949 189.542
486.957 974.359 444.444
491.304 243.59 522.876
491.304 250 522.876
491.304 256.41 522.876
491.304 262.821 718.954
491.304 269.231 718.954
491.304 275.641 718.954
491.304 282.051 522.876
491.304 288.462 522.876
491.304 294.872 732.026
491.304 301.282 542.484
491.304 307.692 542.484
491.304 314.103 516.34
491.304 320.513 542.484
491.304 326.923 542.484
491.304 333.333 542.484
491.304 352.564 542.484
491.304 480.769 509.804
491.304 487.179 509.804
491.304 493.59 509.804
491.304 500 725.49
491.304 506.41 725.49
491.304 512.821 712.418
491.304 519.231 738.562
491.304 525.641 738.562
491.304 532.051 725.49
491.304 538.462 522.876
491.304 544.872 522.876
491.304 551.282 732.026
491.304 576.923 712.418
491.304 628.205 614.379
491.304 634.615 385.621
491.304 641.026 725.49
491.304 653.846 888.889
491.304 660.256 0
491.304 666.667 882.353
491.304 679.487 915.033
491.304 692.308 915.033
491.304 698.718 928.105
491.304 711.538 928.105
491.304 724.359 928.105
491.304 737.179 934.641
491.304 750 980.392
491.304 762.821 980.392
491.304 775.641 993.464
491.304 788.462 1000
491.304 801.282 823.529
491.304 807.692 117.647
491.304 814.103 790.85
491.304 826.923 777.778
491.304 833.333 196.078
491.304 839.744 758.17
491.304 852.564 803.922
491.304 858.974 52.2876
491.304 865.385 797.386
491.304 878.205 686.275
491.304 884.615 130.719
491.304 891.026 686.275
491.304 903.846 594.771
491.304 910.256 124.183
491.304 916.667 594.771
491.304 929.487 549.02
491.304 935.897 320.261
491.304 942.308 575.163
491.304 961.538 444.444
491.304 967.949 313.725
491.304 974.359 444.444
495.652 243.59 522.876
495.652 250 522.876
495.652 256.41 522.876
495.652 262.821 718.954
495.652 269.231 718.954
495.652 275.641 718.954
495.652 282.051 542.484
495.652 288.462 542.484
495.652 294.872 522.876
495.652 314.103 542.484
495.652 333.333 542.484
495.652 416.667 496.732
495.652 423.077 496.732
495.652 429.487 496.732
495.652 480.769 699.346
495.652 487.179 699.346
495.652 493.59 699.346
495.652 500 725.49
495.652 506.41 725.49
495.652 512.821 725.49
495.652 519.231 542.484
495.652 525.641 542.484
495.652 532.051 738.562
495.652 538.462 509.804
495.652 544.872 509.804
495.652 551.282 529.412
495.652 628.205 385.621
495.652 634.615 385.621
495.652 641.026 614.379
495.652 653.846 888.889
495.652 660.256 0
495.652 666.667 888.889
495.652 679.487 915.033
495.652 692.308 915.033
495.652 698.718 915.033
495.652 711.538 921.569
495.652 724.359 928.105
495.652 737.179 928.105
495.652 750 973.856
495.652 762.821 973.856
495.652 775.641 993.464
495.652 788.462 993.464
495.652 801.282 869.281
495.652 807.692 209.15
495.652 814.103 830.065
495.652 826.923 771.242
495.652 833.333 137.255
495.652 839.744 784.314
495.652 852.564 790.85
495.652 858.974 91.5033
495.652 865.385 797.386
495.652 878.205 692.81
495.652 884.615 222.222
495.652 891.026 699.346
495.652 903.846 594.771
495.652 910.256 124.183
495.652 916.667 594.771
495.652 929.487 549.02
495.652 935.897 320.261
495.652 942.308 549.02
495.652 961.538 444.444
495.652 967.949 313.725
495.652 974.359 444.444
500 243.59 529.412
500 250 529.412
500 256.41 522.876
500 262.821 725.49
500 269.231 725.49
500 275.641 718.954
500 282.051 542.484
500 288.462 542.484
500 294.872 542.484
500 416.667 496.732
500 423.077 496.732
500 429.487 496.732
500 455.128 503.268
500 461.538 503.268
500 467.949 503.268
500 480.769 705.882
500 487.179 705.882
500 493.59 699.346
500 500 732.026
500 506.41 732.026
500 512.821 725.49
500 519.231 535.948
500 525.641 535.948
500 532.051 535.948
500 551.282 509.804
500 641.026 385.621
500 653.846 895.425
500 660.256 39.2157
500 666.667 888.889
500 679.487 915.033
500 692.308 915.033
500 698.718 915.033
500 711.538 921.569
500 724.359 921.569
500 730.769 19.6078
500 737.179 921.569
500 750 973.856
500 762.821 973.856
500 775.641 993.464
500 788.462 986.928
500 801.282 882.353
500 807.692 143.791
500 814.103 862.745
500 826.923 777.778
500 833.333 130.719
500 839.744 771.242
500 852.564 771.242
500 858.974 98.0392
500 865.385 784.314
500 878.205 686.275
500 884.615 202.614
500 891.026 699.346
500 903.846 581.699
500 910.256 189.542
500 916.667 594.771
500 929.487 509.804
500 935.897 320.261
500 942.308 549.02
500 961.538 313.725
500 967.949 313.725
500 974.359 444.444
504.348 243.59 718.954
504.348 250 718.954
504.348 256.41 712.418
504.348 262.821 529.412
504.348 269.231 529.412
504.348 275.641 725.49
504.348 282.051 542.484
504.348 288.462 542.484
504.348 294.872 542.484
504.348 416.667 496.732
504.348 423.077 496.732
504.348 429.487 496.732
504.348 435.897 503.268
504.348 442.308 503.268
504.348 448.718 503.268
504.348 455.128 509.804
504.348 461.538 509.804
504.348 467.949 509.804
504.348 480.769 529.412
504.348 487.179 529.412
504.348 493.59 699.346
504.348 500 732.026
504.348 506.41 732.026
504.348 512.821 732.026
504.348 519.231 535.948
504.348 525.641 535.948
504.348 532.051 535.948
504.348 653.846 895.425
504.348 660.256 65.3595
504.348 666.667 895.425
504.348 679.487 921.569
504.348 692.308 915.033
504.348 698.718 915.033
504.348 711.538 915.033
504.348 724.359 915.033
504.348 730.769 45.7516
504.348 737.179 921.569
504.348 750 973.856
504.348 762.821 973.856
504.348 775.641 993.464
504.348 788.462 993.464
504.348 801.282 869.281
504.348 807.692 130.719
504.348 814.103 882.353
504.348 826.923 790.85
504.348 833.333 248.366
504.348 839.744 790.85
504.348 852.564 745.098
504.348 858.974 91.5033
504.348 865.385 771.242
504.348 878.205 686.275
504.348 884.615 124.183
504.348 891.026 686.275
504.348 903.846 575.163
504.348 910.256 189.542
504.348 916.667 575.163
504.348 929.487 509.804
504.348 935.897 320.261
504.348 942.308 509.804
504.348 961.538 313.725
504.348 967.949 313.725
504.348 974.359 313.725
508.696 243.59 509.804
508.696 250 509.804
508.696 256.41 718.954
508.696 262.821 535.948
508.696 269.231 535.948
508.696 275.641 529.412
508.696 282.051 542.484
508.696 288.462 542.484
508.696 294.872 542.484
508.696 416.667 496.732
508.696 423.077 496.732
508.696 429.487 496.732
508.696 435.897 503.268
508.696 442.308 503.268
508.696 448.718 503.268
508.696 455.128 522.876
508.696 461.538 522.876
508.696 467.949 509.804
508.696 480.769 712.418
508.696 487.179 712.418
508.696 493.59 712.418
508.696 500 535.948
508.696 506.41 535.948
508.696 512.821 732.026
508.696 519.231 535.948
508.696 525.641 535.948
508.696 532.051 535.948
508.696 653.846 895.425
508.696 660.256 58.8235
508.696 666.667 895.425
508.696 679.487 921.569
508.696 692.308 921.569
508.696 698.718 921.569
508.696 711.538 921.569
508.696 724.359 915.033
508.696 730.769 6.53595
508.696 737.179 921.569
508.696 750 980.392
508.696 762.821 973.856
508.696 775.641 993.464
508.696 788.462 993.464
508.696 801.282 843.137
508.696 807.692 104.575
508.696 814.103 856.209
508.696 826.923 771.242
508.696 833.333 228.758
508.696 839.744 790.85
508.696 852.564 732.026
508.696 858.974 111.111
508.696 865.385 745.098
508.696 878.205 686.275
508.696 884.615 71.8954
508.696 891.026 686.275
508.696 903.846 575.163
508.696 910.256 189.542
508.696 916.667 575.163
508.696 929.487 509.804
508.696 935.897 189.542
508.696 942.308 509.804
508.696 961.538 313.725
508.696 967.949 313.725
508.696 974.359 313.725
513.043 243.59 509.804
513.043 250 509.804
513.043 256.41 509.804
513.043 262.821 542.484
513.043 269.231 542.484
513.043 275.641 535.948
513.043 294.872 542.484
513.043 416.667 496.732
513.043 423.077 496.732
513.043 429.487 496.732
513.043 435.897 509.804
513.043 442.308 509.804
513.043 448.718 503.268
513.043 455.128 529.412
513.043 461.538 529.412
513.043 467.949 516.34
513.043 480.769 718.954
513.043 487.179 718.954
513.043 493.59 718.954
513.043 500 529.412
513.043 506.41 529.412
513.043 512.821 535.948
513.043 519.231 542.484
513.043 525.641 542.484
513.043 532.051 535.948
513.043 653.846 888.889
513.043 660.256 65.3595
513.043 666.667 895.425
513.043 679.487 921.569
513.043 692.308 921.569
513.043 698.718 915.033
513.043 711.538 915.033
513.043 724.359 908.497
513.043 730.769 13.0719
513.043 737.179 908.497
513.043 750 980.392
513.043 762.821 980.392
513.043 775.641 1000
513.043 788.462 993.464
513.043 801.282 810.458
513.043 807.692 98.0392
513.043 814.103 843.137
513.043 826.923 764.706
513.043 833.333 222.222
513.043 839.744 764.706
513.043 852.564 725.49
513.043 858.974 65.3595
513.043 865.385 732.026
513.043 878.205 660.131
513.043 884.615 26.1438
513.043 891.026 686.275
513.043 903.846 594.771
513.043 910.256 366.013
513.043 916.667 607.843
513.043 929.487 549.02
513.043 935.897 241.83
513.043 942.308 549.02
513.043 961.538 313.725
513.043 967.949 313.725
513.043 974.359 313.725
517.391 243.59 516.34
517.391 250 516.34
517.391 256.41 509.804
517.391 262.821 535.948
517.391 269.231 535.948
517.391 275.641 535.948
517.391 416.667 503.268
517.391 423.077 503.268
517.391 429.487 496.732
517.391 435.897 509.804
517.391 442.308 509.804
517.391 448.718 509.804
517.391 455.128 529.412
517.391 461.538 529.412
517.391 467.949 529.412
517.391 480.769 516.34
517.391 487.179 516.34
517.391 493.59 718.954
517.391 500 529.412
517.391 506.41 529.412
517.391 512.821 529.412
517.391 519.231 542.484
517.391 525.641 542.484
517.391 532.051 542.484
517.391 608.974 483.66
517.391 615.385 483.66
517.391 621.795 483.66
517.391 628.205 490.196
517.391 634.615 490.196
517.391 641.026 490.196
517.391 653.846 888.889
517.391 660.256 52.2876
517.391 666.667 888.889
517.391 679.487 921.569
517.391 692.308 921.569
517.391 698.718 915.033
517.391 711.538 921.569
517.391 724.359 901.961
517.391 730.769 26.1438
517.391 737.179 915.033
517.391 750 980.392
517.391 762.821 980.392
517.391 775.641 993.464
517.391 782.051 19.6078
517.391 788.462 993.464
517.391 801.282 823.529
517.391 807.692 98.0392
517.391 814.103 816.993
517.391 826.923 745.098
517.391 833.333 228.758
517.391 839.744 764.706
517.391 852.564 699.346
517.391 858.974 183.007
517.391 865.385 718.954
517.391 878.205 666.667
517.391 884.615 91.5033
517.391 891.026 660.131
517.391 903.846 620.915
517.391 910.256 320.261
517.391 916.667 620.915
517.391 929.487 588.235
517.391 935.897 241.83
517.391 942.308 581.699
517.391 961.538 509.804
517.391 967.949 313.725
517.391 974.359 509.804
521.739 243.59 522.876
521.739 250 522.876
521.739 256.41 516.34
521.739 262.821 535.948
521.739 269.231 535.948
521.739 275.641 535.948
521.739 397.436 496.732
521.739 403.846 496.732
521.739 410.256 496.732
521.739 416.667 503.268
521.739 423.077 503.268
521.739 429.487 503.268
521.739 435.897 516.34
521.739 442.308 516.34
521.739 448.718 509.804
521.739 455.128 529.412
521.739 461.538 529.412
521.739 467.949 529.412
521.739 480.769 522.876
521.739 487.179 522.876
521.739 493.59 516.34
521.739 500 529.412
521.739 506.41 529.412
521.739 512.821 529.412
521.739 519.231 542.484
521.739 525.641 542.484
521.739 532.051 542.484
521.739 608.974 483.66
521.739 615.385 483.66
521.739 621.795 483.66
521.739 628.205 490.196
521.739 634.615 490.196
521.739 641.026 490.196
521.739 653.846 882.353
521.739 660.256 84.9673
521.739 666.667 888.889
521.739 679.487 921.569
521.739 692.308 921.569
521.739 698.718 928.105
521.739 711.538 915.033
521.739 724.359 901.961
521.739 730.769 32.6797
521.739 737.179 895.425
521.739 750 986.928
521.739 762.821 980.392
521.739 775.641 986.928
521.739 782.051 58.8235
521.739 788.462 993.464
521.739 801.282 816.993
521.739 807.692 91.5033
521.739 814.103 816.993
521.739 826.923 718.954
521.739 833.333 248.366
521.739 839.744 738.562
521.739 852.564 686.275
521.739 858.974 215.686
521.739 865.385 705.882
521.739 878.205 666.667
521.739 884.615 137.255
521.739 891.026 666.667
521.739 903.846 633.987
521.739 910.256 189.542
521.739 916.667 627.451
521.739 929.487 588.235
521.739 935.897 156.863
521.739 942.308 588.235
521.739 961.538 509.804
521.739 967.949 124.183
521.739 974.359 509.804
526.087 243.59 522.876
526.087 250 522.876
526.087 256.41 522.876
526.087 262.821 535.948
526.087 269.231 535.948
526.087 275.641 535.948
526.087 397.436 496.732
526.087 403.846 496.732
526.087 410.256 496.732
526.087 416.667 509.804
526.087 423.077 509.804
526.087 429.487 503.268
526.087 435.897 516.34
526.087 442.308 516.34
526.087 448.718 516.34
526.087 455.128 522.876
526.087 461.538 522.876
526.087 467.949 522.876
526.087 480.769 522.876
526.087 487.179 522.876
526.087 493.59 522.876
526.087 500 529.412
526.087 506.41 529.412
526.087 512.821 529.412
526.087 519.231 542.484
526.087 525.641 542.484
526.087 532.051 542.484
526.087 583.333 483.66
526.087 589.744 483.66
526.087 596.154 483.66
526.087 608.974 490.196
526.087 615.385 490.196
526.087 621.795 483.66
526.087 628.205 496.732
526.087 634.615 496.732
526.087 641.026 490.196
526.087 653.846 875.817
526.087 660.256 91.5033
526.087 666.667 882.353
526.087 679.487 921.569
526.087 692.308 921.569
526.087 698.718 934.641
526.087 711.538 928.105
526.087 724.359 901.961
526.087 730.769 26.1438
526.087 737.179 901.961
526.087 750 986.928
526.087 762.821 986.928
526.087 775.641 980.392
526.087 782.051 58.8235
526.087 788.462 986.928
526.087 801.282 777.778
526.087 807.692 248.366
526.087 814.103 810.458
526.087 826.923 699.346
526.087 833.333 352.941
526.087 839.744 725.49
526.087 852.564 686.275
526.087 858.974 235.294
526.087 865.385 692.81
526.087 878.205 673.203
526.087 884.615 359.477
526.087 891.026 673.203
526.087 903.846 614.379
526.087 910.256 137.255
526.087 916.667 633.987
526.087 929.487 594.771
526.087 935.897 241.83
526.087 942.308 588.235
526.087 961.538 549.02
526.087 967.949 320.261
526.087 974.359 549.02
530.435 243.59 522.876
530.435 250 522.876
530.435 256.41 522.876
530.435 262.821 535.948
530.435 269.231 535.948
530.435 275.641 535.948
530.435 397.436 503.268
530.435 403.846 503.268
530.435 410.256 496.732
530.435 416.667 509.804
530.435 423.077 509.804
530.435 429.487 509.804
530.435 435.897 522.876
530.435 442.308 522.876
530.435 448.718 516.34
530.435 455.128 522.876
530.435 461.538 522.876
530.435 467.949 522.876
530.435 480.769 522.876
530.435 487.179 522.876
530.435 493.59 522.876
530.435 500 535.948
530.435 506.41 535.948
530.435 512.821 529.412
530.435 519.231 542.484
530.435 525.641 542.484
530.435 532.051 542.484
530.435 583.333 490.196
530.435 589.744 490.196
530.435 596.154 490.196
530.435 608.974 496.732
530.435 615.385 496.732
530.435 621.795 490.196
530.435 628.205 503.268
530.435 634.615 503.268
530.435 641.026 496.732
530.435 653.846 869.281
530.435 660.256 52.2876
530.435 666.667 875.817
530.435 679.487 921.569
530.435 692.308 921.569
530.435 698.718 928.105
530.435 711.538 934.641
530.435 724.359 915.033
530.435 730.769 6.53595
530.435 737.179 901.961
530.435 750 980.392
530.435 762.821 986.928
530.435 775.641 967.32
530.435 782.051 19.6078
530.435 788.462 973.856
530.435 801.282 764.706
530.435 807.692 124.183
530.435 814.103 777.778
530.435 826.923 699.346
530.435 833.333 320.261
530.435 839.744 699.346
530.435 852.564 679.739
530.435 858.974 235.294
530.435 865.385 686.275
530.435 878.205 673.203
530.435 884.615 117.647
530.435 891.026 673.203
530.435 903.846 633.987
530.435 910.256 228.758
530.435 916.667 633.987
530.435 929.487 594.771
530.435 935.897 313.725
530.435 942.308 594.771
530.435 961.538 555.556
530.435 967.949 91.5033
530.435 974.359 555.556
534.783 243.59 522.876
534.783 250 522.876
534.783 256.41 522.876
534.783 262.821 535.948
534.783 269.231 535.948
534.783 275.641 535.948
534.783 378.205 503.268
534.783 384.615 503.268
534.783 391.026 503.268
534.783 397.436 503.268
534.783 403.846 503.268
534.783 410.256 503.268
534.783 416.667 516.34
534.783 423.077 516.34
534.783 429.487 516.34
534.783 435.897 522.876
534.783 442.308 522.876
534.783 448.718 522.876
534.783 467.949 522.876
534.783 480.769 522.876
534.783 487.179 522.876
534.783 493.59 522.876
534.783 500 535.948
534.783 506.41 535.948
534.783 512.821 535.948
534.783 532.051 542.484
534.783 583.333 490.196
534.783 589.744 490.196
534.783 596.154 490.196
534.783 608.974 503.268
534.783 615.385 503.268
534.783 621.795 496.732
534.783 628.205 503.268
534.783 634.615 503.268
534.783 641.026 503.268
534.783 653.846 869.281
534.783 660.256 32.6797
534.783 666.667 869.281
534.783 679.487 915.033
534.783 692.308 921.569
534.783 698.718 928.105
534.783 711.538 928.105
534.783 724.359 921.569
534.783 737.179 915.033
534.783 750 980.392
534.783 762.821 986.928
534.783 775.641 954.248
534.783 782.051 19.6078
534.783 788.462 967.32
534.783 801.282 751.634
534.783 807.692 71.8954
534.783 814.103 764.706
534.783 826.923 705.882
534.783 833.333 241.83
534.783 839.744 705.882
534.783 852.564 679.739
534.783 858.974 215.686
534.783 865.385 686.275
534.783 878.205 666.667
534.783 884.615 156.863
534.783 891.026 673.203
534.783 903.846 627.451
534.783 910.256 326.797
534.783 916.667 633.987
534.783 929.487 509.804
534.783 935.897 333.333
534.783 942.308 594.771
534.783 961.538 555.556
534.783 967.949 196.078
534.783 974.359 555.556
539.13 243.59 522.876
539.13 250 522.876
539.13 256.41 522.876
539.13 262.821 529.412
539.13 269.231 529.412
539.13 275.641 535.948
539.13 282.051 535.948
539.13 288.462 535.948
539.13 294.872 535.948
539.13 378.205 503.268
539.13 384.615 503.268
539.13 391.026 503.268
539.13 397.436 509.804
539.13 403.846 509.804
539.13 410.256 503.268
539.13 416.667 522.876
539.13 423.077 522.876
539.13 429.487 516.34
539.13 448.718 522.876
539.13 480.769 522.876
539.13 487.179 522.876
539.13 493.59 522.876
539.13 500 535.948
539.13 506.41 535.948
539.13 512.821 535.948
539.13 583.333 496.732
539.13 589.744 496.732
539.13 596.154 490.196
539.13 608.974 509.804
539.13 615.385 509.804
539.13 621.795 503.268
539.13 628.205 509.804
539.13 634.615 509.804
539.13 641.026 503.268
539.13 653.846 862.745
539.13 660.256 124.183
539.13 666.667 869.281
539.13 679.487 915.033
539.13 692.308 915.033
539.13 698.718 928.105
539.13 711.538 928.105
539.13 724.359 934.641
539.13 737.179 921.569
539.13 750 986.928
539.13 762.821 980.392
539.13 775.641 947.712
539.13 782.051 19.6078
539.13 788.462 954.248
539.13 801.282 758.17
539.13 807.692 71.8954
539.13 814.103 751.634
539.13 826.923 712.418
539.13 833.333 163.399
539.13 839.744 705.882
539.13 852.564 679.739
539.13 858.974 176.471
539.13 865.385 679.739
539.13 878.205 673.203
539.13 884.615 235.294
539.13 891.026 673.203
539.13 903.846 614.379
539.13 910.256 320.261
539.13 916.667 627.451
539.13 929.487 509.804
539.13 935.897 333.333
539.13 942.308 509.804
539.13 961.538 555.556
539.13 967.949 196.078
539.13 974.359 555.556
539.13 987.179 313.725
539.13 993.59 313.725
539.13 1000 313.725
543.478 243.59 522.876
543.478 250 522.876
543.478 256.41 522.876
543.478 262.821 522.876
543.478 269.231 522.876
543.478 275.641 529.412
543.478 282.051 535.948
543.478 288.462 535.948
543.478 294.872 535.948
543.478 378.205 503.268
543.478 384.615 503.268
543.478 391.026 503.268
543.478 397.436 509.804
543.478 403.846 509.804
543.478 410.256 509.804
543.478 416.667 522.876
543.478 423.077 522.876
543.478 429.487 522.876
543.478 480.769 529.412
543.478 487.179 529.412
543.478 493.59 522.876
543.478 500 529.412
543.478 506.41 529.412
543.478 512.821 535.948
543.478 583.333 503.268
543.478 589.744 503.268
543.478 596.154 496.732
543.478 608.974 509.804
543.478 615.385 509.804
543.478 621.795 509.804
543.478 641.026 509.804
543.478 653.846 856.209
543.478 660.256 98.0392
543.478 666.667 869.281
543.478 679.487 908.497
543.478 685.897 0
543.478 692.308 915.033
543.478 698.718 928.105
543.478 711.538 928.105
543.478 724.359 941.176
543.478 737.179 934.641
543.478 750 986.928
543.478 762.821 986.928
543.478 775.641 947.712
543.478 782.051 65.3595
543.478 788.462 941.176
543.478 801.282 758.17
543.478 807.692 52.2876
543.478 814.103 751.634
543.478 826.923 712.418
543.478 833.333 124.183
543.478 839.744 712.418
543.478 852.564 686.275
543.478 858.974 169.935
543.478 865.385 686.275
543.478 878.205 673.203
543.478 884.615 169.935
543.478 891.026 673.203
543.478 903.846 607.843
543.478 910.256 483.66
543.478 916.667 620.915
543.478 929.487 581.699
543.478 935.897 555.556
543.478 942.308 581.699
543.478 961.538 516.34
543.478 967.949 130.719
543.478 974.359 555.556
543.478 987.179 313.725
543.478 993.59 313.725
543.478 1000 313.725
547.826 256.41 522.876
547.826 262.821 522.876
547.826 269.231 522.876
547.826 275.641 522.876
547.826 282.051 529.412
547.826 288.462 529.412
547.826 294.872 529.412
547.826 378.205 503.268
547.826 384.615 503.268
547.826 391.026 503.268
547.826 397.436 509.804
547.826 403.846 509.804
547.826 410.256 509.804
547.826 416.667 522.876
547.826 423.077 522.876
547.826 429.487 522.876
547.826 455.128 496.732
547.826 461.538 496.732
547.826 467.949 496.732
547.826 480.769 529.412
547.826 487.179 529.412
547.826 493.59 529.412
547.826 500 529.412
547.826 506.41 529.412
547.826 512.821 529.412
547.826 564.103 477.124
547.826 570.513 477.124
547.826 576.923 477.124
547.826 583.333 509.804
547.826 589.744 509.804
547.826 596.154 503.268
547.826 608.974 509.804
547.826 615.385 509.804
547.826 621.795 509.804
547.826 653.846 856.209
547.826 660.256 6.53595
547.826 666.667 856.209
547.826 679.487 908.497
547.826 692.308 908.497
547.826 698.718 928.105
547.826 711.538 928.105
547.826 724.359 954.248
547.826 737.179 941.176
547.826 750 986.928
547.826 762.821 986.928
547.826 775.641 915.033
547.826 782.051 104.575
547.826 788.462 947.712
547.826 801.282 751.634
547.826 807.692 143.791
547.826 814.103 758.17
547.826 826.923 712.418
547.826 833.333 98.0392
547.826 839.744 718.954
547.826 852.564 686.275
547.826 858.974 58.8235
547.826 865.385 686.275
547.826 878.205 660.131
547.826 884.615 241.83
547.826 891.026 673.203
547.826 903.846 575.163
547.826 910.256 320.261
547.826 916.667 607.843
547.826 929.487 555.556
547.826 935.897 196.078
547.826 942.308 581.699
547.826 961.538 516.34
547.826 967.949 320.261
547.826 974.359 516.34
547.826 987.179 313.725
547.826 993.59 313.725
547.826 1000 313.725
552.174 262.821 529.412
552.174 269.231 529.412
552.174 275.641 522.876
552.174 282.051 529.412
552.174 288.462 529.412
552.174 294.872 529.412
552.174 378.205 503.268
552.174 384.615 503.268
552.174 391.026 503.268
552.174 397.436 509.804
552.174 403.846 509.804
552.174 410.256 509.804
552.174 416.667 522.876
552.174 423.077 522.876
552.174 429.487 522.876
552.174 455.128 496.732
552.174 461.538 496.732
552.174 467.949 496.732
552.174 480.769 529.412
552.174 487.179 529.412
552.174 493.59 529.412
552.174 512.821 529.412
552.174 564.103 477.124
552.174 570.513 477.124
552.174 576.923 477.124
552.174 583.333 509.804
552.174 589.744 509.804
552.174 596.154 509.804
552.174 621.795 509.804
552.174 653.846 856.209
552.174 660.256 45.7516
552.174 666.667 862.745
552.174 679.487 908.497
552.174 692.308 908.497
552.174 698.718 928.105
552.174 711.538 928.105
552.174 724.359 967.32
552.174 737.179 954.248
552.174 750 973.856
552.174 762.821 980.392
552.174 775.641 875.817
552.174 782.051 52.2876
552.174 788.462 915.033
552.174 801.282 751.634
552.174 807.692 71.8954
552.174 814.103 751.634
552.174 826.923 712.418
552.174 833.333 117.647
552.174 839.744 712.418
552.174 852.564 679.739
552.174 858.974 222.222
552.174 865.385 686.275
552.174 878.205 660.131
552.174 884.615 196.078
552.174 891.026 660.131
552.174 903.846 575.163
552.174 910.256 450.98
552.174 916.667 594.771
552.174 929.487 555.556
552.174 935.897 189.542
552.174 942.308 555.556
552.174 961.538 516.34
552.174 967.949 189.542
552.174 974.359 516.34
552.174 987.179 313.725
552.174 993.59 313.725
552.174 1000 313.725
556.522 275.641 529.412
556.522 294.872 529.412
556.522 378.205 503.268
556.522 384.615 503.268
556.522 391.026 503.268
556.522 397.436 509.804
556.522 403.846 509.804
556.522 410.256 509.804
556.522 416.667 516.34
556.522 423.077 516.34
556.522 429.487 516.34
556.522 467.949 496.732
556.522 480.769 529.412
556.522 487.179 529.412
556.522 493.59 529.412
556.522 564.103 483.66
556.522 570.513 483.66
556.522 576.923 477.124
556.522 583.333 509.804
556.522 589.744 509.804
556.522 596.154 509.804
556.522 653.846 856.209
556.522 660.256 45.7516
556.522 666.667 856.209
556.522 679.487 908.497
556.522 692.308 908.497
556.522 698.718 928.105
556.522 711.538 928.105
556.522 724.359 973.856
556.522 737.179 960.784
556.522 750 954.248
556.522 762.821 973.856
556.522 775.641 869.281
556.522 782.051 45.7516
556.522 788.462 875.817
556.522 801.282 745.098
556.522 807.692 45.7516
556.522 814.103 751.634
556.522 826.923 712.418
556.522 833.333 248.366
556.522 839.744 712.418
556.522 852.564 673.203
556.522 858.974 222.222
556.522 865.385 679.739
556.522 878.205 653.595
556.522 884.615 169.935
556.522 891.026 660.131
556.522 903.846 607.843
556.522 910.256 444.444
556.522 916.667 614.379
556.522 929.487 516.34
556.522 935.897 320.261
556.522 942.308 555.556
556.522 961.538 509.804
556.522 967.949 189.542
556.522 974.359 516.34
556.522 987.179 313.725
556.522 993.59 313.725
556.522 1000 313.725
560.87 391.026 503.268
560.87 397.436 509.804
560.87 403.846 509.804
560.87 410.256 509.804
560.87 416.667 516.34
560.87 423.077 516.34
560.87 429.487 516.34
560.87 480.769 529.412
560.87 487.179 529.412
560.87 493.59 529.412
560.87 564.103 496.732
560.87 570.513 496.732
560.87 576.923 483.66
560.87 583.333 503.268
560.87 589.744 503.268
560.87 596.154 503.268
560.87 653.846 849.673
560.87 660.256 13.0719
560.87 666.667 856.209
560.87 679.487 908.497
560.87 692.308 908.497
560.87 698.718 934.641
560.87 711.538 928.105
560.87 724.359 967.32
560.87 737.179 973.856
560.87 750 941.176
560.87 762.821 954.248
560.87 775.641 882.353
560.87 782.051 32.6797
560.87 788.462 875.817
560.87 801.282 745.098
560.87 807.692 26.1438
560.87 814.103 751.634
560.87 826.923 712.418
560.87 833.333 183.007
560.87 839.744 712.418
560.87 852.564 673.203
560.87 858.974 222.222
560.87 865.385 673.203
560.87 878.205 653.595
560.87 884.615 169.935
560.87 891.026 660.131
560.87 903.846 594.771
560.87 910.256 91.5033
560.87 916.667 607.843
560.87 929.487 516.34
560.87 935.897 450.98
560.87 942.308 555.556
560.87 961.538 444.444
560.87 967.949 189.542
560.87 974.359 509.804
560.87 1000 313.725
565.217 397.436 516.34
565.217 403.846 516.34
565.217 410.256 509.804
565.217 429.487 516.34
565.217 480.769 529.412
565.217 487.179 529.412
565.217 493.59 529.412
565.217 564.103 503.268
565.217 570.513 503.268
565.217 576.923 490.196
565.217 583.333 503.268
565.217 589.744 503.268
565.217 596.154 503.268
565.217 653.846 843.137
565.217 660.256 26.1438
565.217 666.667 849.673
565.217 679.487 908.497
565.217 692.308 908.497
565.217 698.718 934.641
565.217 711.538 934.641
565.217 724.359 967.32
565.217 737.179 967.32
565.217 750 928.105
565.217 762.821 941.176
565.217 775.641 895.425
565.217 782.051 26.1438
565.217 788.462 882.353
565.217 801.282 745.098
565.217 807.692 45.7516
565.217 814.103 745.098
565.217 826.923 712.418
565.217 833.333 169.935
565.217 839.744 712.418
565.217 852.564 673.203
565.217 858.974 222.222
565.217 865.385 673.203
565.217 878.205 653.595
565.217 884.615 111.111
565.217 891.026 660.131
565.217 903.846 581.699
565.217 910.256 143.791
565.217 916.667 601.307
565.217 929.487 516.34
565.217 935.897 320.261
565.217 942.308 516.34
565.217 961.538 444.444
565.217 967.949 313.725
565.217 974.359 444.444
569.565 410.256 516.34
569.565 455.128 496.732
569.565 461.538 496.732
569.565 467.949 496.732
569.565 480.769 529.412
569.565 487.179 529.412
569.565 493.59 529.412
569.565 564.103 496.732
569.565 570.513 496.732
569.565 576.923 503.268
569.565 583.333 503.268
569.565 589.744 503.268
569.565 596.154 503.268
569.565 653.846 830.065
569.565 660.256 84.9673
569.565 666.667 843.137
569.565 679.487 908.497
569.565 692.308 908.497
569.565 698.718 947.712
569.565 705.128 6.53595
569.565 711.538 934.641
569.565 724.359 960.784
569.565 737.179 967.32
569.565 750 915.033
569.565 762.821 928.105
569.565 775.641 895.425
569.565 782.051 13.0719
569.565 788.462 895.425
569.565 801.282 745.098
569.565 807.692 52.2876
569.565 814.103 751.634
569.565 826.923 712.418
569.565 833.333 183.007
569.565 839.744 712.418
569.565 852.564 666.667
569.565 858.974 176.471
569.565 865.385 673.203
569.565 878.205 653.595
569.565 884.615 137.255
569.565 891.026 653.595
569.565 903.846 549.02
569.565 910.256 241.83
569.565 916.667 575.163
569.565 929.487 549.02
569.565 935.897 189.542
569.565 942.308 549.02
569.565 961.538 444.444
569.565 967.949 189.542
569.565 974.359 444.444
573.913 455.128 496.732
573.913 461.538 496.732
573.913 467.949 496.732
573.913 480.769 529.412
573.913 487.179 529.412
573.913 493.59 529.412
573.913 564.103 503.268
573.913 570.513 503.268
573.913 576.923 496.732
573.913 596.154 503.268
573.913 653.846 823.529
573.913 660.256 78.4314
573.913 666.667 830.065
573.913 679.487 915.033
573.913 685.897 6.53595
573.913 692.308 915.033
573.913 698.718 954.248
573.913 705.128 6.53595
573.913 711.538 947.712
573.913 724.359 960.784
573.913 737.179 960.784
573.913 750 915.033
573.913 762.821 915.033
573.913 775.641 882.353
573.913 782.051 58.8235
573.913 788.462 888.889
573.913 801.282 751.634
573.913 807.692 32.6797
573.913 814.103 745.098
573.913 826.923 712.418
573.913 833.333 202.614
573.913 839.744 712.418
573.913 852.564 673.203
573.913 858.974 222.222
573.913 865.385 673.203
573.913 878.205 653.595
573.913 884.615 26.1438
573.913 891.026 653.595
573.913 903.846 549.02
573.913 910.256 241.83
573.913 916.667 549.02
573.913 929.487 549.02
573.913 935.897 124.183
573.913 942.308 549.02
573.913 961.538 320.261
573.913 967.949 320.261
573.913 974.359 444.444
578.261 467.949 496.732
578.261 480.769 529.412
578.261 487.179 529.412
578.261 493.59 529.412
578.261 564.103 503.268
578.261 570.513 503.268
578.261 576.923 503.268
578.261 653.846 810.458
578.261 660.256 150.327
578.261 666.667 816.993
578.261 679.487 921.569
578.261 685.897 13.0719
578.261 692.308 915.033
578.261 698.718 954.248
578.261 711.538 954.248
578.261 724.359 954.248
578.261 737.179 954.248
578.261 750 908.497
578.261 762.821 915.033
578.261 775.641 888.889
578.261 782.051 39.2157
578.261 788.462 888.889
578.261 801.282 777.778
578.261 807.692 84.9673
578.261 814.103 751.634
578.261 826.923 718.954
578.261 833.333 209.15
578.261 839.744 712.418
578.261 852.564 666.667
578.261 858.974 150.327
578.261 865.385 673.203
578.261 878.205 640.523
578.261 884.615 45.7516
578.261 891.026 653.595
578.261 903.846 516.34
578.261 910.256 326.797
578.261 916.667 549.02
578.261 929.487 509.804
578.261 935.897 189.542
578.261 942.308 549.02
578.261 961.538 450.98
578.261 967.949 450.98
578.261 974.359 444.444
582.609 455.128 503.268
582.609 461.538 503.268
582.609 467.949 503.268
582.609 480.769 529.412
582.609 487.179 529.412
582.609 493.59 529.412
582.609 564.103 503.268
582.609 570.513 503.268
582.609 576.923 503.268
582.609 653.846 797.386
582.609 660.256 156.863
582.609 666.667 810.458
582.609 679.487 921.569
582.609 685.897 13.0719
582.609 692.308 915.033
582.609 698.718 954.248
582.609 711.538 954.248
582.609 724.359 954.248
582.609 737.179 954.248
582.609 750 901.961
582.609 756.41 13.0719
582.609 762.821 908.497
582.609 775.641 895.425
582.609 782.051 45.7516
582.609 788.462 888.889
582.609 801.282 790.85
582.609 807.692 98.0392
582.609 814.103 771.242
582.609 826.923 705.882
582.609 833.333 228.758
582.609 839.744 718.954
582.609 852.564 666.667
582.609 858.974 130.719
582.609 865.385 666.667
582.609 878.205 647.059
582.609 884.615 32.6797
582.609 891.026 647.059
582.609 903.846 516.34
582.609 910.256 516.34
582.609 916.667 555.556
582.609 929.487 516.34
582.609 935.897 450.98
582.609 942.308 509.804
582.609 961.538 444.444
582.609 967.949 444.444
582.609 974.359 444.444
586.957 455.128 503.268
586.957 461.538 503.268
586.957 467.949 503.268
586.957 480.769 529.412
586.957 487.179 529.412
586.957 493.59 529.412
586.957 564.103 496.732
586.957 570.513 496.732
586.957 576.923 496.732
586.957 653.846 784.314
586.957 660.256 169.935
586.957 666.667 797.386
586.957 679.487 915.033
586.957 685.897 13.0719
586.957 692.308 921.569
586.957 698.718 954.248
586.957 705.128 0
586.957 711.538 954.248
586.957 724.359 947.712
586.957 737.179 954.248
586.957 750 888.889
586.957 756.41 52.2876
586.957 762.821 901.961
586.957 775.641 895.425
586.957 782.051 45.7516
586.957 788.462 895.425
586.957 801.282 777.778
586.957 807.692 143.791
586.957 814.103 790.85
586.957 826.923 705.882
586.957 833.333 222.222
586.957 839.744 712.418
586.957 852.564 666.667
586.957 858.974 117.647
586.957 865.385 666.667
586.957 878.205 640.523
586.957 884.615 222.222
586.957 891.026 647.059
586.957 903.846 549.02
586.957 910.256 509.804
586.957 916.667 555.556
586.957 929.487 509.804
586.957 935.897 189.542
586.957 942.308 509.804
586.957 961.538 313.725
586.957 967.949 313.725
586.957 974.359 444.444
591.304 455.128 509.804
591.304 461.538 509.804
591.304 467.949 503.268
591.304 480.769 522.876
591.304 487.179 522.876
591.304 493.59 522.876
591.304 564.103 496.732
591.304 570.513 496.732
591.304 576.923 496.732
591.304 653.846 764.706
591.304 660.256 555.556
591.304 666.667 784.314
591.304 679.487 908.497
591.304 685.897 13.0719
591.304 692.308 915.033
591.304 698.718 954.248
591.304 711.538 954.248
591.304 724.359 947.712
591.304 737.179 947.712
591.304 750 882.353
591.304 756.41 104.575
591.304 762.821 895.425
591.304 775.641 908.497
591.304 782.051 58.8235
591.304 788.462 895.425
591.304 801.282 751.634
591.304 807.692 98.0392
591.304 814.103 771.242
591.304 826.923 699.346
591.304 833.333 189.542
591.304 839.744 705.882
591.304 852.564 666.667
591.304 858.974 130.719
591.304 865.385 666.667
591.304 878.205 614.379
591.304 884.615 274.51
591.304 891.026 640.523
591.304 903.846 549.02
591.304 910.256 248.366
591.304 916.667 549.02
591.304 929.487 444.444
591.304 935.897 189.542
591.304 942.308 509.804
591.304 974.359 313.725
595.652 455.128 509.804
595.652 461.538 509.804
595.652 467.949 509.804
595.652 480.769 522.876
595.652 487.179 522.876
595.652 493.59 522.876
595.652 564.103 496.732
595.652 570.513 496.732
595.652 576.923 496.732
595.652 653.846 738.562
595.652 660.256 477.124
595.652 666.667 764.706
595.652 679.487 901.961
595.652 685.897 0
595.652 692.308 908.497
595.652 698.718 954.248
595.652 711.538 954.248
595.652 724.359 947.712
595.652 737.179 947.712
595.652 750 882.353
595.652 756.41 130.719
595.652 762.821 882.353
595.652 775.641 915.033
595.652 782.051 130.719
595.652 788.462 908.497
595.652 801.282 725.49
595.652 807.692 78.4314
595.652 814.103 758.17
595.652 826.923 686.275
595.652 833.333 254.902
595.652 839.744 699.346
595.652 852.564 660.131
595.652 858.974 111.111
595.652 865.385 666.667
595.652 878.205 568.627
595.652 884.615 549.02
595.652 891.026 614.379
595.652 903.846 313.725
595.652 910.256 313.725
595.652 916.667 549.02
595.652 929.487 320.261
595.652 935.897 320.261
595.652 942.308 444.444
600 455.128 516.34
600 461.538 516.34
600 467.949 509.804
600 480.769 522.876
600 487.179 522.876
600 493.59 522.876
600 564.103 496.732
600 570.513 496.732
600 576.923 496.732
600 653.846 705.882
600 660.256 339.869
600 666.667 745.098
600 679.487 895.425
600 685.897 45.7516
600 692.308 895.425
600 698.718 954.248
600 711.538 954.248
600 724.359 947.712
600 737.179 947.712
600 750 882.353
600 756.41 65.3595
600 762.821 875.817
600 775.641 901.961
600 782.051 143.791
600 788.462 901.961
600 801.282 718.954
600 807.692 130.719
600 814.103 725.49
600 826.923 673.203
600 833.333 117.647
600 839.744 686.275
600 852.564 640.523
600 858.974 274.51
600 865.385 660.131
600 891.026 568.627
600 916.667 313.725
600 942.308 320.261
604.348 467.949 516.34
604.348 493.59 522.876
604.348 564.103 490.196
604.348 570.513 490.196
604.348 576.923 490.196
604.348 653.846 490.196
604.348 660.256 490.196
604.348 666.667 705.882
604.348 679.487 888.889
604.348 685.897 58.8235
604.348 692.308 895.425
604.348 698.718 954.248
604.348 711.538 954.248
604.348 724.359 954.248
604.348 737.179 947.712
604.348 750 888.889
604.348 756.41 39.2157
604.348 762.821 875.817
604.348 775.641 875.817
604.348 782.051 117.647
604.348 788.462 882.353
604.348 801.282 705.882
604.348 807.692 150.327
604.348 814.103 718.954
604.348 826.923 666.667
604.348 833.333 104.575
604.348 839.744 673.203
604.348 852.564 607.843
604.348 858.974 267.974
604.348 865.385 640.523
608.696 564.103 490.196
608.696 570.513 490.196
608.696 576.923 490.196
608.696 653.846 483.66
608.696 660.256 483.66
608.696 666.667 490.196
608.696 679.487 882.353
