368.687 888.298 901.961
368.687 898.936 607.843
368.687 904.255 359.477
368.687 909.574 614.379
368.687 920.213 509.804
368.687 925.532 78.4314
368.687 930.851 509.804
368.687 941.489 398.693
368.687 946.809 169.935
368.687 952.128 398.693
368.687 968.085 287.582
368.687 973.404 287.582
368.687 978.723 281.046
373.737 675.532 581.699
373.737 680.851 169.935
373.737 686.17 581.699
373.737 691.489 673.203
373.737 696.809 235.294
373.737 702.128 673.203
373.737 712.766 816.993
373.737 718.085 98.0392
373.737 723.404 810.458
373.737 734.043 882.353
373.737 744.681 882.353
373.737 750 882.353
373.737 760.638 882.353
373.737 771.277 888.889
373.737 781.915 888.889
373.737 792.553 934.641
373.737 797.872 19.6078
373.737 803.191 921.569
373.737 813.83 960.784
373.737 819.149 78.4314
373.737 824.468 967.32
373.737 835.106 921.569
373.737 840.426 91.5033
373.737 845.745 915.033
373.737 856.383 928.105
373.737 861.702 196.078
373.737 867.021 921.569
373.737 877.66 901.961
373.737 882.979 156.863
373.737 888.298 901.961
373.737 898.936 607.843
373.737 904.255 366.013
373.737 909.574 607.843
373.737 920.213 509.804
373.737 925.532 78.4314
373.737 930.851 509.804
373.737 941.489 398.693
373.737 946.809 176.471
373.737 952.128 398.693
373.737 968.085 287.582
373.737 973.404 287.582
373.737 978.723 287.582
378.788 675.532 594.771
378.788 680.851 163.399
378.788 686.17 581.699
378.788 691.489 679.739
378.788 696.809 91.5033
378.788 702.128 673.203
378.788 712.766 830.065
378.788 718.085 169.935
378.788 723.404 830.065
378.788 734.043 888.889
378.788 744.681 882.353
378.788 750 882.353
378.788 760.638 882.353
378.788 771.277 888.889
378.788 781.915 888.889
378.788 792.553 941.176
378.788 797.872 19.6078
378.788 803.191 934.641
378.788 813.83 947.712
378.788 819.149 39.2157
378.788 824.468 947.712
378.788 835.106 934.641
378.788 840.426 130.719
378.788 845.745 921.569
378.788 856.383 928.105
378.788 861.702 98.0392
378.788 867.021 928.105
378.788 877.66 875.817
378.788 882.979 169.935
378.788 888.298 882.353
378.788 898.936 607.843
378.788 904.255 450.98
378.788 909.574 607.843
378.788 920.213 464.052
378.788 925.532 294.118
378.788 930.851 509.804
378.788 941.489 300.654
378.788 946.809 300.654
378.788 952.128 398.693
378.788 968.085 287.582
378.788 973.404 287.582
378.788 978.723 287.582
383.838 675.532 601.307
383.838 680.851 163.399
383.838 686.17 588.235
383.838 691.489 705.882
383.838 696.809 313.725
383.838 702.128 705.882
383.838 712.766 836.601
383.838 718.085 6.53595
383.838 723.404 836.601
383.838 734.043 888.889
383.838 744.681 888.889
383.838 750 888.889
383.838 760.638 882.353
383.838 771.277 901.961
383.838 781.915 888.889
383.838 792.553 934.641
383.838 797.872 6.53595
383.838 803.191 928.105
383.838 813.83 941.176
383.838 819.149 58.8235
383.838 824.468 947.712
383.838 835.106 915.033
383.838 840.426 183.007
383.838 845.745 915.033
383.838 856.383 915.033
383.838 861.702 58.8235
383.838 867.021 915.033
383.838 877.66 816.993
383.838 882.979 359.477
383.838 888.298 869.281
383.838 898.936 705.882
383.838 904.255 457.516
383.838 909.574 712.418
383.838 920.213 464.052
383.838 925.532 294.118
383.838 930.851 496.732
383.838 941.489 294.118
383.838 946.809 294.118
383.838 952.128 294.118
383.838 978.723 287.582
388.889 675.532 601.307
388.889 680.851 163.399
388.889 686.17 601.307
388.889 691.489 718.954
388.889 696.809 137.255
388.889 702.128 712.418
388.889 712.766 843.137
388.889 723.404 836.601
388.889 734.043 888.889
388.889 744.681 888.889
388.889 750 888.889
388.889 760.638 888.889
388.889 771.277 901.961
388.889 781.915 901.961
388.889 792.553 934.641
388.889 803.191 934.641
388.889 813.83 947.712
388.889 819.149 32.6797
388.889 824.468 934.641
388.889 835.106 915.033
388.889 840.426 163.399
388.889 845.745 908.497
388.889 856.383 901.961
388.889 861.702 215.686
388.889 867.021 915.033
388.889 877.66 797.386
388.889 882.979 163.399
388.889 888.298 816.993
388.889 898.936 712.418
388.889 904.255 143.791
388.889 909.574 712.418
388.889 920.213 464.052
388.889 925.532 117.647
388.889 930.851 464.052
388.889 941.489 294.118
388.889 946.809 294.118
388.889 952.128 294.118
393.939 675.532 640.523
393.939 680.851 372.549
393.939 686.17 633.987
393.939 691.489 732.026
393.939 696.809 287.582
393.939 702.128 732.026
393.939 712.766 843.137
393.939 723.404 843.137
393.939 734.043 888.889
393.939 744.681 888.889
393.939 750 888.889
393.939 760.638 888.889
393.939 771.277 901.961
393.939 776.596 6.53595
393.939 781.915 895.425
393.939 792.553 941.176
393.939 803.191 934.641
393.939 813.83 928.105
393.939 819.149 45.7516
393.939 824.468 934.641
393.939 835.106 921.569
393.939 840.426 111.111
393.939 845.745 915.033
393.939 856.383 882.353
393.939 861.702 274.51
393.939 867.021 888.889
393.939 877.66 790.85
393.939 882.979 202.614
393.939 888.298 790.85
393.939 898.936 712.418
393.939 904.255 163.399
393.939 909.574 705.882
393.939 920.213 464.052
393.939 925.532 117.647
393.939 930.851 464.052
393.939 941.489 294.118
393.939 946.809 294.118
393.939 952.128 294.118
398.99 654.255 352.941
398.99 659.574 352.941
398.99 664.894 352.941
398.99 675.532 640.523
398.99 680.851 117.647
398.99 686.17 640.523
398.99 691.489 738.562
398.99 696.809 137.255
398.99 702.128 732.026
398.99 712.766 843.137
398.99 723.404 843.137
398.99 734.043 888.889
398.99 744.681 888.889
398.99 750 882.353
398.99 760.638 882.353
398.99 771.277 908.497
398.99 781.915 908.497
398.99 792.553 941.176
398.99 803.191 934.641
398.99 813.83 921.569
398.99 819.149 32.6797
398.99 824.468 921.569
398.99 835.106 928.105
398.99 840.426 130.719
398.99 845.745 921.569
398.99 856.383 882.353
398.99 861.702 274.51
398.99 867.021 882.353
398.99 877.66 797.386
398.99 882.979 202.614
398.99 888.298 790.85
398.99 898.936 712.418
398.99 904.255 254.902
398.99 909.574 712.418
398.99 920.213 464.052
398.99 925.532 124.183
398.99 930.851 464.052
398.99 941.489 294.118
398.99 946.809 294.118
398.99 952.128 294.118
404.04 654.255 352.941
404.04 659.574 352.941
404.04 664.894 352.941
404.04 675.532 640.523
404.04 680.851 124.183
404.04 686.17 640.523
404.04 691.489 738.562
404.04 696.809 137.255
404.04 702.128 738.562
404.04 712.766 843.137
404.04 723.404 843.137
404.04 734.043 895.425
404.04 744.681 888.889
404.04 750 882.353
404.04 760.638 888.889
404.04 771.277 915.033
404.04 781.915 901.961
404.04 792.553 947.712
404.04 797.872 6.53595
404.04 803.191 941.176
404.04 813.83 934.641
404.04 819.149 32.6797
404.04 824.468 921.569
404.04 835.106 934.641
404.04 840.426 163.399
404.04 845.745 934.641
404.04 856.383 895.425
404.04 861.702 202.614
404.04 867.021 882.353
404.04 877.66 810.458
404.04 882.979 163.399
404.04 888.298 797.386
404.04 898.936 666.667
404.04 904.255 307.19
404.04 909.574 712.418
404.04 920.213 470.588
404.04 925.532 117.647
404.04 930.851 464.052
404.04 941.489 392.157
404.04 946.809 392.157
404.04 952.128 392.157
409.091 664.894 352.941
409.091 675.532 633.987
409.091 680.851 124.183
409.091 686.17 640.523
409.091 691.489 738.562
409.091 696.809 117.647
409.091 702.128 738.562
409.091 712.766 843.137
409.091 723.404 843.137
409.091 734.043 895.425
409.091 744.681 895.425
409.091 750 882.353
409.091 760.638 882.353
409.091 771.277 908.497
409.091 776.596 13.0719
409.091 781.915 908.497
409.091 792.553 941.176
409.091 797.872 19.6078
409.091 803.191 947.712
409.091 813.83 941.176
409.091 819.149 32.6797
409.091 824.468 934.641
409.091 835.106 934.641
409.091 840.426 150.327
409.091 845.745 934.641
409.091 856.383 895.425
409.091 861.702 209.15
409.091 867.021 895.425
409.091 877.66 823.529
409.091 882.979 228.758
409.091 888.298 823.529
409.091 898.936 666.667
409.091 904.255 307.19
409.091 909.574 666.667
409.091 920.213 477.124
409.091 925.532 117.647
409.091 930.851 470.588
409.091 941.489 392.157
409.091 946.809 176.471
409.091 952.128 392.157
414.141 675.532 627.451
414.141 680.851 124.183
414.141 686.17 633.987
414.141 691.489 738.562
414.141 696.809 137.255
414.141 702.128 738.562
414.141 712.766 836.601
414.141 718.085 39.2157
414.141 723.404 843.137
414.141 734.043 895.425
414.141 744.681 895.425
414.141 750 882.353
414.141 760.638 888.889
414.141 771.277 908.497
414.141 781.915 908.497
414.141 792.553 934.641
414.141 797.872 0
414.141 803.191 934.641
414.141 813.83 934.641
414.141 819.149 26.1438
414.141 824.468 934.641
414.141 835.106 941.176
414.141 840.426 58.8235
414.141 845.745 934.641
414.141 856.383 928.105
414.141 861.702 215.686
414.141 867.021 895.425
414.141 877.66 836.601
414.141 882.979 261.438
414.141 888.298 836.601
414.141 898.936 601.307
414.141 904.255 366.013
414.141 909.574 666.667
414.141 920.213 418.301
414.141 925.532 418.301
414.141 930.851 477.124
414.141 941.489 464.052
414.141 946.809 117.647
414.141 952.128 457.516
419.192 675.532 627.451
419.192 680.851 163.399
419.192 686.17 627.451
419.192 691.489 705.882
419.192 696.809 163.399
419.192 702.128 738.562
419.192 712.766 836.601
419.192 718.085 52.2876
419.192 723.404 836.601
419.192 734.043 895.425
419.192 744.681 895.425
419.192 750 888.889
419.192 760.638 882.353
419.192 771.277 921.569
419.192 781.915 908.497
419.192 792.553 934.641
419.192 803.191 934.641
419.192 813.83 934.641
419.192 819.149 13.0719
419.192 824.468 934.641
419.192 835.106 947.712
419.192 840.426 26.1438
419.192 845.745 941.176
419.192 856.383 941.176
419.192 861.702 320.261
419.192 867.021 941.176
419.192 877.66 849.673
419.192 882.979 196.078
419.192 888.298 849.673
419.192 898.936 601.307
419.192 904.255 366.013
419.192 909.574 601.307
419.192 920.213 457.516
419.192 925.532 307.19
419.192 930.851 457.516
419.192 941.489 464.052
419.192 946.809 117.647
419.192 952.128 464.052
424.242 675.532 581.699
424.242 680.851 163.399
424.242 686.17 627.451
424.242 691.489 738.562
424.242 696.809 300.654
424.242 702.128 738.562
424.242 712.766 836.601
424.242 718.085 39.2157
424.242 723.404 836.601
424.242 734.043 901.961
424.242 744.681 895.425
424.242 750 895.425
424.242 760.638 888.889
424.242 771.277 921.569
424.242 776.596 0
424.242 781.915 915.033
424.242 792.553 934.641
424.242 803.191 934.641
424.242 813.83 928.105
424.242 819.149 19.6078
424.242 824.468 934.641
424.242 835.106 973.856
424.242 840.426 19.6078
424.242 845.745 947.712
424.242 856.383 954.248
424.242 861.702 281.046
424.242 867.021 954.248
424.242 877.66 843.137
424.242 882.979 189.542
424.242 888.298 849.673
424.242 898.936 601.307
424.242 904.255 366.013
424.242 909.574 601.307
424.242 920.213 457.516
424.242 925.532 137.255
424.242 930.851 457.516
424.242 941.489 424.837
424.242 946.809 183.007
424.242 952.128 464.052
424.242 968.085 294.118
424.242 973.404 294.118
424.242 978.723 294.118
429.293 638.298 549.02
429.293 643.617 549.02
429.293 648.936 549.02
429.293 654.255 549.02
429.293 659.574 549.02
429.293 664.894 549.02
429.293 675.532 673.203
429.293 680.851 398.693
429.293 686.17 679.739
429.293 691.489 745.098
429.293 696.809 189.542
429.293 702.128 751.634
429.293 712.766 830.065
429.293 718.085 71.8954
429.293 723.404 836.601
429.293 734.043 901.961
429.293 744.681 901.961
429.293 750 901.961
429.293 760.638 895.425
429.293 771.277 915.033
429.293 776.596 0
429.293 781.915 915.033
429.293 792.553 934.641
429.293 803.191 934.641
429.293 813.83 934.641
429.293 819.149 6.53595
429.293 824.468 928.105
429.293 835.106 954.248
429.293 840.426 98.0392
429.293 845.745 960.784
429.293 856.383 947.712
429.293 861.702 267.974
429.293 867.021 947.712
429.293 877.66 843.137
429.293 882.979 281.046
429.293 888.298 836.601
429.293 898.936 529.412
429.293 904.255 183.007
429.293 909.574 601.307
429.293 920.213 464.052
429.293 925.532 130.719
429.293 930.851 457.516
429.293 941.489 424.837
429.293 946.809 183.007
429.293 952.128 424.837
429.293 968.085 294.118
429.293 973.404 294.118
429.293 978.723 294.118
434.343 585.106 555.556
434.343 590.426 555.556
434.343 595.745 555.556
434.343 601.064 398.693
434.343 606.383 398.693
434.343 611.702 398.693
434.343 617.021 529.412
434.343 622.34 529.412
434.343 627.66 529.412
434.343 638.298 549.02
434.343 643.617 235.294
434.343 648.936 549.02
434.343 654.255 555.556
434.343 659.574 254.902
434.343 664.894 555.556
434.343 675.532 686.275
434.343 680.851 228.758
434.343 686.17 699.346
434.343 691.489 738.562
434.343 696.809 209.15
434.343 702.128 745.098
434.343 712.766 830.065
434.343 718.085 39.2157
434.343 723.404 830.065
434.343 734.043 901.961
434.343 744.681 901.961
434.343 750 895.425
434.343 760.638 901.961
434.343 771.277 908.497
434.343 781.915 915.033
434.343 792.553 921.569
434.343 797.872 13.0719
434.343 803.191 928.105
434.343 813.83 934.641
434.343 819.149 32.6797
434.343 824.468 934.641
434.343 835.106 960.784
434.343 840.426 183.007
434.343 845.745 954.248
434.343 856.383 941.176
434.343 861.702 202.614
434.343 867.021 947.712
434.343 877.66 849.673
434.343 882.979 307.19
434.343 888.298 843.137
434.343 898.936 522.876
434.343 904.255 78.4314
434.343 909.574 529.412
434.343 920.213 470.588
434.343 925.532 130.719
434.343 930.851 464.052
434.343 941.489 424.837
434.343 946.809 183.007
434.343 952.128 424.837
434.343 968.085 294.118
434.343 973.404 294.118
434.343 978.723 294.118
439.394 585.106 555.556
439.394 590.426 248.366
439.394 595.745 555.556
439.394 601.064 542.484
439.394 606.383 542.484
439.394 611.702 542.484
439.394 617.021 529.412
439.394 622.34 235.294
439.394 627.66 529.412
439.394 638.298 627.451
439.394 643.617 183.007
439.394 648.936 627.451
439.394 654.255 633.987
439.394 659.574 163.399
439.394 664.894 627.451
439.394 675.532 666.667
439.394 680.851 228.758
439.394 686.17 679.739
439.394 691.489 738.562
439.394 696.809 150.327
439.394 702.128 745.098
439.394 712.766 830.065
439.394 718.085 39.2157
439.394 723.404 830.065
439.394 734.043 901.961
439.394 744.681 901.961
439.394 750 901.961
439.394 760.638 901.961
439.394 771.277 901.961
439.394 776.596 39.2157
439.394 781.915 908.497
439.394 792.553 921.569
439.394 803.191 921.569
439.394 813.83 941.176
439.394 819.149 65.3595
439.394 824.468 928.105
439.394 835.106 973.856
439.394 840.426 150.327
439.394 845.745 967.32
439.394 856.383 960.784
439.394 861.702 281.046
439.394 867.021 947.712
439.394 877.66 830.065
439.394 882.979 307.19
439.394 888.298 849.673
439.394 898.936 522.876
439.394 904.255 78.4314
439.394 909.574 522.876
439.394 920.213 470.588
439.394 925.532 124.183
439.394 930.851 470.588
439.394 941.489 424.837
439.394 946.809 183.007
439.394 952.128 424.837
439.394 978.723 294.118
444.444 569.149 555.556
444.444 574.468 555.556
444.444 579.787 555.556
444.444 585.106 562.092
444.444 590.426 248.366
444.444 595.745 555.556
444.444 601.064 627.451
444.444 606.383 176.471
444.444 611.702 620.915
444.444 617.021 647.059
444.444 622.34 647.059
444.444 627.66 620.915
444.444 638.298 640.523
444.444 643.617 254.902
444.444 648.936 627.451
444.444 654.255 640.523
444.444 659.574 189.542
444.444 664.894 640.523
444.444 675.532 640.523
444.444 680.851 287.582
444.444 686.17 666.667
444.444 691.489 758.17
444.444 696.809 287.582
444.444 702.128 751.634
444.444 712.766 823.529
444.444 718.085 39.2157
444.444 723.404 830.065
444.444 734.043 895.425
444.444 744.681 901.961
444.444 750 908.497
444.444 760.638 901.961
444.444 771.277 901.961
444.444 781.915 901.961
444.444 792.553 921.569
444.444 803.191 921.569
444.444 813.83 941.176
444.444 819.149 65.3595
444.444 824.468 934.641
444.444 835.106 967.32
444.444 840.426 163.399
444.444 845.745 954.248
444.444 856.383 973.856
444.444 861.702 274.51
444.444 867.021 960.784
444.444 877.66 823.529
444.444 882.979 281.046
444.444 888.298 830.065
444.444 898.936 522.876
444.444 904.255 78.4314
444.444 909.574 522.876
444.444 920.213 470.588
444.444 925.532 124.183
444.444 930.851 470.588
444.444 941.489 424.837
444.444 946.809 183.007
444.444 952.128 424.837
449.495 547.872 555.556
449.495 553.191 555.556
449.495 558.511 555.556
449.495 569.149 562.092
449.495 574.468 254.902
449.495 579.787 562.092
449.495 585.106 647.059
449.495 590.426 254.902
449.495 595.745 640.523
449.495 601.064 555.556
449.495 606.383 267.974
449.495 611.702 620.915
449.495 617.021 640.523
449.495 622.34 189.542
449.495 627.66 640.523
449.495 638.298 542.484
449.495 643.617 542.484
449.495 648.936 633.987
449.495 654.255 653.595
449.495 659.574 176.471
449.495 664.894 640.523
449.495 675.532 673.203
449.495 680.851 522.876
449.495 686.17 673.203
449.495 691.489 764.706
449.495 696.809 130.719
449.495 702.128 764.706
449.495 712.766 823.529
449.495 718.085 71.8954
449.495 723.404 823.529
449.495 734.043 888.889
449.495 744.681 895.425
449.495 750 908.497
449.495 760.638 915.033
449.495 771.277 901.961
449.495 781.915 901.961
449.495 792.553 921.569
449.495 803.191 921.569
449.495 813.83 954.248
449.495 819.149 32.6797
449.495 824.468 941.176
449.495 835.106 967.32
449.495 840.426 163.399
449.495 845.745 960.784
449.495 856.383 973.856
449.495 861.702 274.51
449.495 867.021 973.856
449.495 877.66 816.993
449.495 882.979 235.294
449.495 888.298 823.529
449.495 898.936 516.34
449.495 904.255 71.8954
449.495 909.574 522.876
449.495 920.213 470.588
449.495 925.532 124.183
449.495 930.851 470.588
449.495 941.489 424.837
449.495 946.809 183.007
449.495 952.128 424.837
454.545 515.957 542.484
454.545 521.277 542.484
454.545 526.596 542.484
454.545 531.915 555.556
454.545 537.234 555.556
454.545 542.553 555.556
454.545 547.872 555.556
454.545 553.191 405.229
454.545 558.511 555.556
454.545 569.149 640.523
454.545 574.468 176.471
454.545 579.787 633.987
454.545 585.106 647.059
454.545 590.426 176.471
454.545 595.745 647.059
454.545 601.064 627.451
454.545 606.383 405.229
454.545 611.702 620.915
454.545 617.021 620.915
454.545 622.34 209.15
454.545 627.66 640.523
454.545 638.298 660.131
454.545 643.617 483.66
454.545 648.936 660.131
454.545 654.255 718.954
454.545 659.574 313.725
454.545 664.894 718.954
454.545 675.532 745.098
454.545 680.851 411.765
454.545 686.17 732.026
454.545 691.489 751.634
454.545 696.809 111.111
454.545 702.128 764.706
454.545 712.766 816.993
454.545 718.085 39.2157
454.545 723.404 823.529
454.545 734.043 875.817
454.545 739.362 0
454.545 744.681 888.889
454.545 750 908.497
454.545 760.638 908.497
454.545 771.277 901.961
454.545 781.915 901.961
454.545 792.553 908.497
454.545 803.191 921.569
454.545 813.83 960.784
454.545 819.149 71.8954
454.545 824.468 954.248
454.545 835.106 967.32
454.545 840.426 176.471
454.545 845.745 967.32
454.545 856.383 947.712
454.545 861.702 228.758
454.545 867.021 967.32
454.545 877.66 849.673
454.545 882.979 228.758
454.545 888.298 823.529
454.545 898.936 516.34
454.545 904.255 78.4314
454.545 909.574 522.876
454.545 920.213 470.588
454.545 925.532 130.719
454.545 930.851 464.052
454.545 941.489 464.052
454.545 946.809 300.654
454.545 952.128 470.588
459.596 500 535.948
459.596 505.319 535.948
459.596 510.638 535.948
459.596 515.957 549.02
459.596 521.277 241.83
459.596 526.596 549.02
459.596 531.915 562.092
459.596 537.234 248.366
459.596 542.553 562.092
459.596 547.872 562.092
459.596 553.191 405.229
459.596 558.511 555.556
459.596 569.149 647.059
459.596 574.468 261.438
459.596 579.787 640.523
459.596 585.106 653.595
459.596 590.426 176.471
459.596 595.745 647.059
459.596 601.064 686.275
459.596 606.383 326.797
459.596 611.702 679.739
459.596 617.021 692.81
459.596 622.34 503.268
459.596 627.66 679.739
459.596 638.298 673.203
459.596 643.617 313.725
459.596 648.936 660.131
459.596 654.255 692.81
459.596 659.574 274.51
459.596 664.894 718.954
459.596 675.532 751.634
459.596 680.851 137.255
459.596 686.17 745.098
459.596 691.489 764.706
459.596 696.809 189.542
459.596 702.128 764.706
459.596 712.766 816.993
459.596 718.085 71.8954
459.596 723.404 823.529
459.596 734.043 869.281
459.596 739.362 19.6078
459.596 744.681 875.817
459.596 750 908.497
459.596 760.638 908.497
459.596 771.277 895.425
459.596 781.915 895.425
459.596 792.553 888.889
459.596 803.191 908.497
459.596 813.83 960.784
459.596 819.149 71.8954
459.596 824.468 954.248
459.596 835.106 973.856
459.596 840.426 169.935
459.596 845.745 967.32
459.596 856.383 934.641
459.596 861.702 189.542
459.596 867.021 947.712
459.596 877.66 862.745
459.596 882.979 267.974
459.596 888.298 856.209
459.596 898.936 496.732
459.596 904.255 235.294
459.596 909.574 516.34
459.596 920.213 464.052
459.596 925.532 130.719
459.596 930.851 464.052
459.596 941.489 464.052
459.596 946.809 117.647
459.596 952.128 464.052
464.646 484.043 392.157
464.646 489.362 392.157
464.646 494.681 392.157
464.646 500 542.484
464.646 505.319 241.83
464.646 510.638 542.484
464.646 515.957 555.556
464.646 521.277 248.366
464.646 526.596 549.02
464.646 531.915 568.627
464.646 537.234 248.366
464.646 542.553 562.092
464.646 547.872 647.059
464.646 553.191 176.471
464.646 558.511 640.523
464.646 569.149 653.595
464.646 574.468 176.471
464.646 579.787 647.059
464.646 585.106 699.346
464.646 590.426 313.725
464.646 595.745 692.81
464.646 601.064 699.346
464.646 606.383 320.261
464.646 611.702 686.275
464.646 617.021 653.595
464.646 622.34 411.765
464.646 627.66 692.81
464.646 638.298 699.346
464.646 643.617 124.183
464.646 648.936 705.882
464.646 654.255 732.026
464.646 659.574 228.758
464.646 664.894 732.026
464.646 675.532 751.634
464.646 680.851 202.614
464.646 686.17 764.706
464.646 691.489 777.778
464.646 696.809 91.5033
464.646 702.128 764.706
464.646 712.766 816.993
464.646 718.085 91.5033
464.646 723.404 816.993
464.646 734.043 869.281
464.646 739.362 13.0719
464.646 744.681 869.281
464.646 750 895.425
464.646 760.638 901.961
464.646 771.277 882.353
464.646 781.915 895.425
464.646 792.553 888.889
464.646 797.872 0
464.646 803.191 895.425
464.646 813.83 954.248
464.646 819.149 65.3595
464.646 824.468 954.248
464.646 835.106 1000
464.646 840.426 111.111
464.646 845.745 973.856
464.646 856.383 934.641
464.646 861.702 209.15
464.646 867.021 934.641
464.646 877.66 843.137
464.646 882.979 457.516
464.646 888.298 869.281
464.646 898.936 522.876
464.646 904.255 300.654
464.646 909.574 522.876
464.646 920.213 464.052
464.646 925.532 124.183
464.646 930.851 464.052
464.646 941.489 470.588
464.646 946.809 169.935
464.646 952.128 464.052
469.697 468.085 535.948
469.697 473.404 535.948
469.697 478.723 535.948
469.697 484.043 542.484
469.697 489.362 542.484
469.697 494.681 542.484
469.697 500 555.556
469.697 505.319 248.366
469.697 510.638 542.484
469.697 515.957 633.987
469.697 521.277 176.471
469.697 526.596 633.987
469.697 531.915 640.523
469.697 537.234 176.471
469.697 542.553 640.523
469.697 547.872 647.059
469.697 553.191 176.471
469.697 558.511 647.059
469.697 569.149 640.523
469.697 574.468 189.542
469.697 579.787 647.059
469.697 585.106 699.346
469.697 590.426 130.719
469.697 595.745 699.346
469.697 601.064 705.882
469.697 606.383 183.007
469.697 611.702 699.346
469.697 617.021 647.059
469.697 622.34 647.059
469.697 627.66 647.059
469.697 638.298 666.667
469.697 643.617 320.261
469.697 648.936 705.882
469.697 654.255 745.098
469.697 659.574 261.438
469.697 664.894 745.098
469.697 675.532 751.634
469.697 680.851 111.111
469.697 686.17 751.634
469.697 691.489 784.314
469.697 696.809 183.007
469.697 702.128 771.242
469.697 712.766 803.922
469.697 718.085 65.3595
469.697 723.404 816.993
469.697 734.043 869.281
469.697 739.362 6.53595
469.697 744.681 869.281
469.697 750 882.353
469.697 755.319 13.0719
469.697 760.638 895.425
469.697 771.277 869.281
469.697 781.915 882.353
469.697 792.553 895.425
469.697 797.872 13.0719
469.697 803.191 882.353
469.697 813.83 954.248
469.697 819.149 26.1438
469.697 824.468 954.248
469.697 835.106 986.928
469.697 840.426 78.4314
469.697 845.745 980.392
469.697 856.383 928.105
469.697 861.702 189.542
469.697 867.021 934.641
469.697 877.66 843.137
469.697 882.979 392.157
469.697 888.298 843.137
469.697 898.936 522.876
469.697 904.255 91.5033
469.697 909.574 522.876
469.697 920.213 464.052
469.697 925.532 130.719
469.697 930.851 464.052
469.697 941.489 411.765
469.697 946.809 176.471
469.697 952.128 470.588
474.747 452.128 542.484
474.747 457.447 542.484
474.747 462.766 542.484
474.747 468.085 542.484
474.747 473.404 241.83
474.747 478.723 542.484
474.747 484.043 549.02
474.747 489.362 241.83
474.747 494.681 549.02
474.747 500 633.987
474.747 505.319 176.471
474.747 510.638 627.451
474.747 515.957 640.523
474.747 521.277 176.471
474.747 526.596 633.987
474.747 531.915 647.059
474.747 537.234 176.471
474.747 542.553 640.523
474.747 547.872 653.595
474.747 553.191 183.007
474.747 558.511 647.059
474.747 569.149 686.275
474.747 574.468 339.869
474.747 579.787 692.81
474.747 585.106 705.882
474.747 590.426 130.719
474.747 595.745 699.346
474.747 601.064 660.131
474.747 606.383 424.837
474.747 611.702 705.882
474.747 617.021 679.739
474.747 622.34 352.941
474.747 627.66 692.81
474.747 638.298 712.418
474.747 643.617 222.222
474.747 648.936 705.882
474.747 654.255 738.562
474.747 659.574 65.3595
474.747 664.894 745.098
474.747 675.532 758.17
474.747 680.851 130.719
474.747 686.17 751.634
474.747 691.489 784.314
474.747 696.809 98.0392
474.747 702.128 777.778
474.747 712.766 810.458
474.747 718.085 124.183
474.747 723.404 810.458
474.747 734.043 875.817
474.747 744.681 875.817
474.747 750 875.817
474.747 755.319 6.53595
474.747 760.638 882.353
474.747 771.277 869.281
474.747 776.596 0
474.747 781.915 869.281
474.747 792.553 882.353
474.747 797.872 32.6797
474.747 803.191 895.425
474.747 813.83 954.248
474.747 819.149 32.6797
474.747 824.468 954.248
474.747 835.106 986.928
474.747 840.426 71.8954
474.747 845.745 986.928
474.747 856.383 915.033
474.747 861.702 281.046
474.747 867.021 934.641
474.747 877.66 843.137
474.747 882.979 359.477
474.747 888.298 849.673
474.747 898.936 535.948
474.747 904.255 176.471
474.747 909.574 522.876
474.747 920.213 392.157
474.747 925.532 176.471
474.747 930.851 464.052
474.747 941.489 418.301
474.747 946.809 176.471
474.747 952.128 411.765
479.798 436.17 542.484
479.798 441.489 542.484
479.798 446.809 542.484
479.798 452.128 549.02
479.798 457.447 241.83
479.798 462.766 549.02
479.798 468.085 549.02
479.798 473.404 241.83
479.798 478.723 542.484
479.798 484.043 555.556
479.798 489.362 248.366
479.798 494.681 549.02
479.798 500 633.987
479.798 505.319 176.471
479.798 510.638 633.987
479.798 515.957 647.059
479.798 521.277 176.471
479.798 526.596 640.523
479.798 531.915 647.059
479.798 537.234 411.765
479.798 542.553 647.059
479.798 547.872 653.595
479.798 553.191 176.471
479.798 558.511 653.595
479.798 569.149 699.346
479.798 574.468 326.797
479.798 579.787 686.275
479.798 585.106 705.882
479.798 590.426 130.719
479.798 595.745 705.882
479.798 601.064 699.346
479.798 606.383 333.333
479.798 611.702 699.346
479.798 617.021 640.523
479.798 622.34 640.523
479.798 627.66 679.739
479.798 638.298 725.49
479.798 643.617 235.294
479.798 648.936 732.026
479.798 654.255 745.098
479.798 659.574 163.399
479.798 664.894 745.098
479.798 675.532 758.17
479.798 680.851 130.719
479.798 686.17 758.17
479.798 691.489 784.314
479.798 696.809 150.327
479.798 702.128 784.314
479.798 712.766 816.993
479.798 718.085 104.575
479.798 723.404 810.458
479.798 734.043 882.353
479.798 739.362 26.1438
479.798 744.681 875.817
479.798 750 875.817
479.798 760.638 875.817
479.798 771.277 869.281
479.798 781.915 869.281
479.798 792.553 869.281
479.798 797.872 13.0719
479.798 803.191 875.817
479.798 813.83 934.641
479.798 819.149 52.2876
479.798 824.468 928.105
479.798 835.106 967.32
479.798 840.426 111.111
479.798 845.745 973.856
479.798 856.383 915.033
479.798 861.702 222.222
479.798 867.021 915.033
479.798 877.66 686.275
479.798 882.979 457.516
479.798 888.298 843.137
479.798 898.936 503.268
479.798 904.255 228.758
479.798 909.574 535.948
479.798 920.213 392.157
479.798 925.532 169.935
479.798 930.851 392.157
479.798 941.489 418.301
479.798 946.809 176.471
479.798 952.128 418.301
484.848 420.213 535.948
484.848 425.532 535.948
484.848 430.851 535.948
484.848 436.17 542.484
484.848 441.489 241.83
484.848 446.809 542.484
484.848 452.128 555.556
484.848 457.447 241.83
484.848 462.766 549.02
484.848 468.085 555.556
484.848 473.404 248.366
484.848 478.723 549.02
484.848 484.043 633.987
484.848 489.362 176.471
484.848 494.681 627.451
484.848 500 640.523
484.848 505.319 176.471
484.848 510.638 633.987
484.848 515.957 647.059
484.848 521.277 254.902
484.848 526.596 647.059
484.848 531.915 653.595
484.848 537.234 418.301
484.848 542.553 647.059
484.848 547.872 699.346
484.848 553.191 313.725
484.848 558.511 699.346
484.848 569.149 653.595
484.848 574.468 418.301
484.848 579.787 699.346
484.848 585.106 699.346
484.848 590.426 326.797
484.848 595.745 732.026
484.848 601.064 705.882
484.848 606.383 333.333
484.848 611.702 699.346
484.848 617.021 601.307
484.848 622.34 601.307
484.848 627.66 673.203
484.848 638.298 718.954
484.848 643.617 228.758
484.848 648.936 725.49
484.848 654.255 751.634
484.848 659.574 189.542
484.848 664.894 745.098
484.848 675.532 751.634
484.848 680.851 150.327
484.848 686.17 751.634
484.848 691.489 777.778
484.848 696.809 137.255
484.848 702.128 784.314
484.848 712.766 830.065
484.848 718.085 163.399
484.848 723.404 816.993
484.848 734.043 882.353
484.848 744.681 875.817
484.848 750 875.817
484.848 760.638 875.817
484.848 771.277 869.281
484.848 781.915 869.281
484.848 792.553 869.281
484.848 797.872 0
484.848 803.191 869.281
484.848 813.83 941.176
484.848 819.149 32.6797
484.848 824.468 934.641
484.848 835.106 954.248
484.848 840.426 169.935
484.848 845.745 967.32
484.848 856.383 901.961
484.848 861.702 222.222
484.848 867.021 908.497
484.848 877.66 679.739
484.848 882.979 516.34
484.848 888.298 679.739
484.848 898.936 503.268
484.848 904.255 228.758
484.848 909.574 503.268
484.848 920.213 398.693
484.848 925.532 398.693
484.848 930.851 457.516
484.848 941.489 418.301
484.848 946.809 176.471
484.848 952.128 418.301
489.899 404.255 535.948
489.899 409.574 535.948
489.899 414.894 535.948
489.899 420.213 535.948
489.899 425.532 235.294
489.899 430.851 535.948
489.899 436.17 549.02
489.899 441.489 241.83
489.899 446.809 542.484
489.899 452.128 555.556
489.899 457.447 248.366
489.899 462.766 555.556
489.899 468.085 542.484
489.899 473.404 379.085
489.899 478.723 549.02
489.899 484.043 633.987
489.899 489.362 411.765
489.899 494.681 633.987
489.899 500 640.523
489.899 505.319 254.902
489.899 510.638 640.523
489.899 515.957 647.059
489.899 521.277 254.902
489.899 526.596 647.059
489.899 531.915 692.81
489.899 537.234 405.229
489.899 542.553 692.81
489.899 547.872 653.595
489.899 553.191 411.765
489.899 558.511 699.346
489.899 569.149 653.595
489.899 574.468 418.301
489.899 579.787 653.595
489.899 585.106 705.882
489.899 590.426 431.373
489.899 595.745 699.346
489.899 601.064 653.595
489.899 606.383 411.765
489.899 611.702 705.882
489.899 617.021 673.203
489.899 622.34 503.268
489.899 627.66 660.131
489.899 638.298 725.49
489.899 643.617 346.405
489.899 648.936 725.49
489.899 654.255 751.634
489.899 659.574 248.366
489.899 664.894 751.634
489.899 675.532 751.634
489.899 680.851 235.294
489.899 686.17 758.17
489.899 691.489 764.706
489.899 696.809 183.007
489.899 702.128 784.314
489.899 712.766 843.137
489.899 718.085 78.4314
489.899 723.404 830.065
489.899 734.043 875.817
489.899 739.362 0
489.899 744.681 882.353
489.899 750 869.281
489.899 760.638 875.817
489.899 771.277 862.745
489.899 776.596 0
489.899 781.915 862.745
489.899 792.553 869.281
489.899 797.872 6.53595
489.899 803.191 862.745
489.899 813.83 934.641
489.899 819.149 78.4314
489.899 824.468 928.105
489.899 835.106 934.641
489.899 840.426 176.471
489.899 845.745 954.248
489.899 856.383 895.425
489.899 861.702 241.83
489.899 867.021 901.961
489.899 877.66 686.275
489.899 882.979 359.477
489.899 888.298 686.275
489.899 898.936 470.588
489.899 904.255 294.118
489.899 909.574 503.268
489.899 920.213 470.588
489.899 925.532 294.118
489.899 930.851 464.052
489.899 941.489 418.301
489.899 946.809 176.471
489.899 952.128 418.301
494.949 388.298 535.948
494.949 393.617 535.948
494.949 398.936 535.948
494.949 404.255 535.948
494.949 409.574 235.294
494.949 414.894 535.948
494.949 420.213 542.484
494.949 425.532 241.83
494.949 430.851 535.948
494.949 436.17 555.556
494.949 441.489 241.83
494.949 446.809 549.02
494.949 452.128 562.092
494.949 457.447 405.229
494.949 462.766 555.556
494.949 468.085 627.451
494.949 473.404 411.765
494.949 478.723 627.451
494.949 484.043 640.523
494.949 489.362 254.902
494.949 494.681 633.987
494.949 500 647.059
494.949 505.319 254.902
494.949 510.638 640.523
494.949 515.957 692.81
494.949 521.277 313.725
494.949 526.596 692.81
494.949 531.915 699.346
494.949 537.234 124.183
494.949 542.553 699.346
494.949 547.872 705.882
494.949 553.191 320.261
494.949 558.511 699.346
494.949 569.149 660.131
494.949 574.468 418.301
494.949 579.787 653.595
494.949 585.106 738.562
494.949 590.426 333.333
494.949 595.745 738.562
494.949 601.064 699.346
494.949 606.383 503.268
494.949 611.702 699.346
494.949 617.021 738.562
494.949 622.34 477.124
494.949 627.66 738.562
494.949 638.298 718.954
494.949 643.617 254.902
494.949 648.936 725.49
494.949 654.255 758.17
494.949 659.574 320.261
494.949 664.894 758.17
494.949 675.532 751.634
494.949 680.851 130.719
494.949 686.17 758.17
494.949 691.489 758.17
494.949 696.809 189.542
494.949 702.128 764.706
494.949 712.766 836.601
494.949 718.085 45.7516
494.949 723.404 843.137
494.949 734.043 869.281
494.949 739.362 13.0719
494.949 744.681 875.817
494.949 750 862.745
494.949 760.638 869.281
494.949 771.277 869.281
494.949 781.915 862.745
494.949 792.553 875.817
494.949 797.872 6.53595
494.949 803.191 875.817
494.949 813.83 921.569
494.949 819.149 78.4314
494.949 824.468 928.105
494.949 835.106 915.033
494.949 840.426 215.686
494.949 845.745 928.105
494.949 856.383 869.281
494.949 861.702 346.405
494.949 867.021 888.889
494.949 877.66 549.02
494.949 882.979 222.222
494.949 888.298 686.275
494.949 898.936 464.052
494.949 904.255 294.118
494.949 909.574 470.588
494.949 920.213 470.588
494.949 925.532 117.647
494.949 930.851 470.588
494.949 941.489 418.301
494.949 946.809 176.471
494.949 952.128 418.301
500 372.34 535.948
500 377.66 535.948
500 382.979 535.948
500 388.298 542.484
500 393.617 241.83
500 398.936 542.484
500 404.255 542.484
500 409.574 392.157
500 414.894 535.948
500 420.213 535.948
500 425.532 228.758
500 430.851 542.484
500 436.17 555.556
500 441.489 398.693
500 446.809 549.02
500 452.128 633.987
500 457.447 254.902
500 462.766 633.987
500 468.085 633.987
500 473.404 254.902
500 478.723 620.915
500 484.043 640.523
500 489.362 640.523
500 494.681 640.523
500 500 647.059
500 505.319 176.471
500 510.638 647.059
500 515.957 699.346
500 521.277 176.471
500 526.596 692.81
500 531.915 699.346
500 537.234 320.261
500 542.553 699.346
500 547.872 653.595
500 553.191 418.301
500 558.511 705.882
500 569.149 699.346
500 574.468 333.333
500 579.787 699.346
500 585.106 732.026
500 590.426 418.301
500 595.745 758.17
500 601.064 679.739
500 606.383 490.196
500 611.702 712.418
500 617.021 738.562
500 622.34 248.366
500 627.66 738.562
500 638.298 738.562
500 643.617 339.869
500 648.936 732.026
500 654.255 745.098
500 659.574 156.863
500 664.894 758.17
500 675.532 764.706
500 680.851 143.791
500 686.17 758.17
500 691.489 764.706
500 696.809 202.614
500 702.128 764.706
500 712.766 836.601
500 718.085 65.3595
500 723.404 836.601
500 734.043 856.209
500 739.362 78.4314
500 744.681 862.745
500 750 856.209
500 760.638 862.745
500 771.277 862.745
500 781.915 862.745
500 792.553 882.353
500 797.872 13.0719
500 803.191 875.817
500 813.83 921.569
500 819.149 45.7516
500 824.468 921.569
500 835.106 888.889
500 840.426 287.582
500 845.745 915.033
500 856.383 830.065
500 861.702 418.301
500 867.021 849.673
500 877.66 516.34
500 882.979 372.549
500 888.298 549.02
500 898.936 464.052
500 904.255 294.118
500 909.574 464.052
500 920.213 477.124
500 925.532 117.647
500 930.851 470.588
500 941.489 483.66
500 946.809 117.647
500 952.128 483.66
505.051 345.745 379.085
505.051 351.064 379.085
505.051 356.383 379.085
505.051 361.702 542.484
505.051 367.021 542.484
505.051 372.34 542.484
505.051 377.66 241.83
505.051 382.979 542.484
505.051 388.298 549.02
505.051 393.617 241.83
505.051 398.936 542.484
505.051 404.255 392.157
505.051 409.574 392.157
505.051 414.894 542.484
505.051 420.213 542.484
505.051 425.532 254.902
505.051 430.851 542.484
505.051 436.17 555.556
505.051 441.489 248.366
505.051 446.809 555.556
505.051 452.128 633.987
505.051 457.447 169.935
505.051 462.766 633.987
505.051 468.085 640.523
505.051 473.404 176.471
505.051 478.723 640.523
505.051 484.043 647.059
505.051 489.362 254.902
505.051 494.681 640.523
505.051 500 692.81
505.051 505.319 313.725
505.051 510.638 686.275
505.051 515.957 699.346
505.051 521.277 130.719
505.051 526.596 699.346
505.051 531.915 705.882
505.051 537.234 176.471
505.051 542.553 699.346
505.051 547.872 660.131
505.051 553.191 660.131
505.051 558.511 705.882
505.051 569.149 705.882
505.051 574.468 333.333
505.051 579.787 699.346
505.051 585.106 673.203
505.051 590.426 490.196
505.051 595.745 732.026
505.051 601.064 699.346
505.051 606.383 261.438
505.051 611.702 705.882
505.051 617.021 725.49
505.051 622.34 418.301
505.051 627.66 738.562
505.051 638.298 718.954
505.051 643.617 228.758
505.051 648.936 732.026
505.051 654.255 758.17
505.051 659.574 222.222
505.051 664.894 751.634
505.051 675.532 771.242
505.051 680.851 104.575
505.051 686.17 764.706
505.051 691.489 758.17
505.051 696.809 169.935
505.051 702.128 764.706
505.051 712.766 836.601
505.051 718.085 124.183
505.051 723.404 830.065
505.051 734.043 849.673
505.051 739.362 71.8954
505.051 744.681 856.209
505.051 750 849.673
505.051 760.638 856.209
505.051 771.277 862.745
505.051 781.915 862.745
505.051 792.553 875.817
505.051 797.872 6.53595
505.051 803.191 882.353
505.051 813.83 928.105
505.051 819.149 19.6078
505.051 824.468 921.569
505.051 835.106 895.425
505.051 840.426 281.046
505.051 845.745 888.889
505.051 856.383 830.065
505.051 861.702 261.438
505.051 867.021 810.458
505.051 877.66 483.66
505.051 882.979 483.66
505.051 888.298 516.34
505.051 898.936 398.693
505.051 904.255 398.693
505.051 909.574 464.052
505.051 920.213 477.124
505.051 925.532 117.647
505.051 930.851 477.124
505.051 941.489 483.66
505.051 946.809 117.647
505.051 952.128 483.66
510.101 276.596 418.301
510.101 281.915 418.301
510.101 287.234 418.301
510.101 329.787 542.484
510.101 335.106 542.484
510.101 340.426 542.484
510.101 345.745 535.948
510.101 351.064 535.948
510.101 356.383 535.948
510.101 361.702 535.948
510.101 367.021 241.83
510.101 372.34 542.484
510.101 377.66 241.83
510.101 382.979 542.484
510.101 388.298 522.876
510.101 393.617 235.294
510.101 398.936 535.948
510.101 404.255 405.229
510.101 409.574 405.229
510.101 414.894 555.556
510.101 420.213 555.556
510.101 425.532 241.83
510.101 430.851 535.948
510.101 436.17 633.987
510.101 441.489 176.471
510.101 446.809 633.987
510.101 452.128 647.059
510.101 457.447 176.471
510.101 462.766 633.987
510.101 468.085 647.059
510.101 473.404 254.902
510.101 478.723 640.523
510.101 484.043 568.627
510.101 489.362 568.627
510.101 494.681 640.523
510.101 500 692.81
510.101 505.319 176.471
510.101 510.638 692.81
510.101 515.957 705.882
510.101 521.277 183.007
510.101 526.596 699.346
510.101 531.915 647.059
510.101 537.234 647.059
510.101 542.553 699.346
510.101 547.872 660.131
510.101 553.191 418.301
510.101 558.511 660.131
510.101 569.149 705.882
510.101 574.468 333.333
510.101 579.787 705.882
510.101 585.106 679.739
510.101 590.426 320.261
510.101 595.745 673.203
510.101 601.064 686.275
510.101 606.383 326.797
510.101 611.702 705.882
510.101 617.021 679.739
510.101 622.34 313.725
510.101 627.66 725.49
510.101 638.298 738.562
510.101 643.617 294.118
510.101 648.936 738.562
510.101 654.255 758.17
510.101 659.574 202.614
510.101 664.894 751.634
510.101 675.532 751.634
510.101 680.851 98.0392
510.101 686.17 764.706
510.101 691.489 764.706
510.101 696.809 215.686
510.101 702.128 764.706
510.101 712.766 836.601
510.101 718.085 124.183
510.101 723.404 836.601
510.101 734.043 849.673
510.101 739.362 98.0392
510.101 744.681 849.673
510.101 750 843.137
510.101 755.319 6.53595
510.101 760.638 849.673
510.101 771.277 862.745
510.101 781.915 862.745
510.101 792.553 882.353
510.101 797.872 13.0719
510.101 803.191 875.817
510.101 813.83 941.176
510.101 819.149 26.1438
510.101 824.468 928.105
510.101 835.106 869.281
510.101 840.426 261.438
510.101 845.745 882.353
510.101 856.383 823.529
510.101 861.702 267.974
510.101 867.021 830.065
510.101 877.66 483.66
510.101 882.979 483.66
510.101 888.298 483.66
510.101 898.936 398.693
510.101 904.255 398.693
510.101 909.574 398.693
510.101 920.213 470.588
510.101 925.532 117.647
510.101 930.851 477.124
510.101 941.489 483.66
510.101 946.809 124.183
510.101 952.128 483.66
510.101 968.085 307.19
510.101 973.404 307.19
510.101 978.723 307.19
515.152 207.447 411.765
515.152 212.766 411.765
515.152 218.085 411.765
515.152 260.638 411.765
515.152 265.957 411.765
515.152 271.277 411.765
515.152 276.596 411.765
515.152 281.915 411.765
515.152 287.234 405.229
515.152 292.553 405.229
515.152 297.872 405.229
515.152 303.191 398.693
515.152 308.511 398.693
515.152 313.83 398.693
515.152 319.149 385.621
515.152 324.468 385.621
515.152 329.787 542.484
515.152 335.106 248.366
515.152 340.426 542.484
515.152 345.745 529.412
515.152 351.064 228.758
515.152 356.383 529.412
515.152 361.702 516.34
515.152 367.021 248.366
515.152 372.34 535.948
515.152 377.66 254.902
515.152 382.979 542.484
515.152 388.298 516.34
515.152 393.617 385.621
515.152 398.936 542.484
515.152 404.255 529.412
515.152 409.574 529.412
515.152 414.894 529.412
515.152 420.213 542.484
515.152 425.532 542.484
515.152 430.851 620.915
515.152 436.17 633.987
515.152 441.489 254.902
515.152 446.809 633.987
515.152 452.128 653.595
515.152 457.447 183.007
515.152 462.766 640.523
515.152 468.085 568.627
515.152 473.404 568.627
515.152 478.723 640.523
515.152 484.043 405.229
515.152 489.362 405.229
515.152 494.681 568.627
515.152 500 562.092
515.152 505.319 562.092
515.152 510.638 692.81
515.152 515.957 653.595
515.152 521.277 418.301
515.152 526.596 705.882
515.152 531.915 647.059
515.152 537.234 405.229
515.152 542.553 653.595
515.152 547.872 575.163
515.152 553.191 575.163
515.152 558.511 660.131
515.152 569.149 660.131
515.152 574.468 424.837
515.152 579.787 705.882
515.152 585.106 712.418
515.152 590.426 261.438
515.152 595.745 705.882
515.152 601.064 699.346
515.152 606.383 333.333
515.152 611.702 686.275
515.152 617.021 640.523
515.152 622.34 418.301
515.152 627.66 686.275
515.152 638.298 745.098
515.152 643.617 294.118
515.152 648.936 745.098
515.152 654.255 745.098
515.152 659.574 163.399
515.152 664.894 758.17
515.152 675.532 758.17
515.152 680.851 209.15
515.152 686.17 758.17
515.152 691.489 784.314
515.152 696.809 215.686
515.152 702.128 771.242
515.152 712.766 836.601
515.152 718.085 202.614
515.152 723.404 836.601
515.152 734.043 843.137
515.152 739.362 84.9673
515.152 744.681 843.137
515.152 750 843.137
515.152 755.319 0
515.152 760.638 843.137
515.152 771.277 856.209
515.152 781.915 862.745
515.152 792.553 882.353
515.152 797.872 39.2157
515.152 803.191 882.353
515.152 813.83 934.641
515.152 819.149 111.111
515.152 824.468 928.105
515.152 835.106 901.961
515.152 840.426 189.542
515.152 845.745 869.281
515.152 856.383 823.529
515.152 861.702 313.725
515.152 867.021 823.529
515.152 877.66 594.771
515.152 882.979 594.771
515.152 888.298 594.771
515.152 898.936 398.693
515.152 904.255 398.693
515.152 909.574 398.693
515.152 920.213 496.732
515.152 925.532 222.222
515.152 930.851 503.268
515.152 941.489 483.66
515.152 946.809 124.183
515.152 952.128 483.66
515.152 968.085 418.301
515.152 973.404 418.301
515.152 978.723 418.301
520.202 207.447 411.765
520.202 212.766 411.765
520.202 218.085 411.765
520.202 223.404 411.765
520.202 228.723 411.765
520.202 234.043 411.765
520.202 250 568.627
520.202 255.319 568.627
520.202 260.638 568.627
520.202 265.957 405.229
520.202 271.277 405.229
520.202 276.596 562.092
520.202 281.915 562.092
520.202 287.234 562.092
520.202 292.553 555.556
520.202 297.872 555.556
520.202 303.191 542.484
520.202 308.511 542.484
520.202 313.83 542.484
520.202 319.149 542.484
520.202 324.468 542.484
520.202 329.787 535.948
520.202 335.106 261.438
520.202 340.426 535.948
520.202 345.745 509.804
520.202 351.064 222.222
520.202 356.383 529.412
520.202 361.702 503.268
520.202 367.021 359.477
520.202 372.34 522.876
520.202 377.66 274.51
520.202 382.979 542.484
520.202 388.298 516.34
520.202 393.617 261.438
520.202 398.936 509.804
520.202 404.255 516.34
520.202 409.574 516.34
520.202 414.894 607.843
520.202 420.213 385.621
520.202 425.532 385.621
520.202 430.851 549.02
520.202 436.17 398.693
520.202 441.489 398.693
520.202 446.809 633.987
520.202 452.128 405.229
520.202 457.447 405.229
520.202 462.766 653.595
520.202 468.085 405.229
520.202 473.404 405.229
520.202 478.723 568.627
520.202 484.043 549.02
520.202 489.362 549.02
520.202 494.681 549.02
520.202 500 562.092
520.202 505.319 562.092
520.202 510.638 562.092
520.202 515.957 660.131
520.202 521.277 418.301
520.202 526.596 653.595
520.202 531.915 660.131
520.202 537.234 660.131
520.202 542.553 647.059
520.202 547.872 653.595
520.202 553.191 424.837
520.202 558.511 647.059
520.202 569.149 660.131
520.202 574.468 424.837
520.202 579.787 660.131
520.202 585.106 712.418
520.202 590.426 261.438
520.202 595.745 712.418
520.202 601.064 705.882
520.202 606.383 333.333
520.202 611.702 699.346
520.202 617.021 679.739
520.202 622.34 346.405
520.202 627.66 666.667
520.202 638.298 738.562
520.202 643.617 189.542
520.202 648.936 751.634
520.202 654.255 764.706
520.202 659.574 143.791
520.202 664.894 758.17
520.202 675.532 758.17
520.202 680.851 117.647
520.202 686.17 751.634
520.202 691.489 777.778
520.202 696.809 130.719
520.202 702.128 784.314
520.202 712.766 823.529
520.202 718.085 169.935
520.202 723.404 830.065
520.202 734.043 836.601
520.202 739.362 78.4314
520.202 744.681 849.673
520.202 750 843.137
520.202 755.319 45.7516
520.202 760.638 843.137
520.202 771.277 862.745
520.202 776.596 0
520.202 781.915 856.209
520.202 792.553 875.817
520.202 797.872 71.8954
520.202 803.191 875.817
520.202 813.83 928.105
520.202 819.149 84.9673
520.202 824.468 928.105
520.202 835.106 888.889
520.202 840.426 222.222
520.202 845.745 888.889
520.202 856.383 843.137
520.202 861.702 261.438
520.202 867.021 823.529
520.202 877.66 588.235
520.202 882.979 588.235
520.202 888.298 594.771
520.202 898.936 398.693
520.202 904.255 398.693
520.202 909.574 398.693
520.202 920.213 477.124
520.202 925.532 411.765
520.202 930.851 503.268
520.202 941.489 503.268
520.202 946.809 215.686
520.202 952.128 509.804
520.202 968.085 418.301
520.202 973.404 418.301
520.202 978.723 418.301
525.253 207.447 411.765
525.253 212.766 411.765
525.253 218.085 411.765
525.253 223.404 405.229
525.253 228.723 405.229
525.253 234.043 405.229
525.253 250 562.092
525.253 255.319 254.902
525.253 260.638 562.092
525.253 265.957 562.092
525.253 271.277 562.092
525.253 276.596 555.556
525.253 281.915 254.902
525.253 287.234 549.02
525.253 292.553 254.902
525.253 297.872 549.02
525.253 303.191 529.412
525.253 308.511 248.366
525.253 313.83 535.948
525.253 319.149 549.02
525.253 324.468 235.294
525.253 329.787 529.412
525.253 335.106 228.758
525.253 340.426 535.948
525.253 345.745 509.804
525.253 351.064 222.222
525.253 356.383 509.804
525.253 361.702 503.268
525.253 367.021 215.686
525.253 372.34 503.268
525.253 377.66 496.732
525.253 382.979 522.876
525.253 388.298 581.699
525.253 393.617 235.294
525.253 398.936 601.307
525.253 404.255 385.621
525.253 409.574 385.621
525.253 414.894 516.34
525.253 420.213 392.157
525.253 425.532 392.157
525.253 430.851 385.621
525.253 436.17 398.693
525.253 441.489 398.693
525.253 446.809 398.693
525.253 452.128 405.229
525.253 457.447 405.229
525.253 462.766 405.229
525.253 468.085 549.02
525.253 473.404 549.02
525.253 478.723 549.02
525.253 484.043 555.556
525.253 489.362 555.556
