469.697 802.469 507.722
469.697 808.642 507.722
469.697 814.815 507.722
469.697 820.988 333.977
469.697 827.16 685.328
469.697 833.333 687.259
469.697 839.506 515.444
469.697 845.679 517.375
469.697 851.852 517.375
469.697 858.025 517.375
469.697 864.198 517.375
469.697 870.37 517.375
469.697 876.543 517.375
469.697 882.716 517.375
469.697 895.062 517.375
474.747 117.284 517.375
474.747 123.457 689.189
474.747 129.63 343.629
474.747 135.802 341.699
474.747 141.975 341.699
474.747 148.148 339.768
474.747 154.321 341.699
474.747 160.494 513.514
474.747 166.667 683.398
474.747 172.84 480.695
474.747 179.012 478.764
474.747 185.185 478.764
474.747 191.358 478.764
474.747 197.531 635.135
474.747 203.704 635.135
474.747 209.877 716.216
474.747 216.049 772.201
474.747 222.222 488.417
474.747 228.395 646.718
474.747 234.568 648.649
474.747 240.741 648.649
474.747 246.914 731.66
474.747 253.086 482.625
474.747 259.259 644.788
474.747 265.432 320.463
474.747 271.605 415.058
474.747 277.778 320.463
474.747 283.951 241.313
474.747 290.123 189.189
474.747 296.296 434.363
474.747 302.469 193.05
474.747 308.642 245.174
474.747 314.815 193.05
474.747 320.988 216.216
474.747 327.16 399.614
474.747 333.333 218.147
474.747 339.506 326.255
474.747 345.679 210.425
474.747 351.852 339.768
474.747 358.025 403.475
474.747 364.198 357.143
474.747 370.37 36.6795
474.747 376.543 38.61
474.747 598.765 102.317
474.747 604.938 32.8185
474.747 611.111 349.421
474.747 617.284 517.375
474.747 623.457 552.124
474.747 629.63 500
474.747 635.802 295.367
474.747 641.975 245.174
474.747 648.148 216.216
474.747 654.321 635.135
474.747 660.494 557.915
474.747 666.667 505.792
474.747 672.84 397.683
474.747 679.012 374.517
474.747 685.185 432.432
474.747 691.358 332.046
474.747 697.531 445.946
474.747 703.704 374.517
474.747 709.877 554.054
474.747 716.049 573.359
474.747 722.222 718.147
474.747 728.395 498.069
474.747 734.568 656.371
474.747 740.741 656.371
474.747 746.914 654.44
474.747 753.086 714.286
474.747 759.259 314.672
474.747 765.432 496.139
474.747 771.605 496.139
474.747 777.778 494.208
474.747 783.951 638.996
474.747 790.123 638.996
474.747 796.296 638.996
474.747 802.469 638.996
474.747 808.642 507.722
474.747 814.815 507.722
474.747 820.988 507.722
474.747 827.16 337.838
474.747 833.333 685.328
474.747 839.506 687.259
474.747 845.679 515.444
474.747 851.852 517.375
474.747 858.025 517.375
474.747 864.198 517.375
474.747 870.37 517.375
474.747 876.543 517.375
474.747 882.716 517.375
479.798 123.457 503.861
479.798 129.63 337.838
479.798 135.802 339.768
479.798 141.975 337.838
479.798 148.148 511.583
479.798 154.321 513.514
479.798 160.494 513.514
479.798 166.667 737.452
479.798 172.84 478.764
479.798 179.012 478.764
479.798 185.185 480.695
479.798 191.358 637.066
479.798 197.531 637.066
479.798 203.704 488.417
479.798 209.877 718.147
479.798 216.049 739.382
479.798 222.222 488.417
479.798 228.395 646.718
479.798 234.568 648.649
479.798 240.741 729.73
479.798 246.914 731.66
479.798 253.086 480.695
479.798 259.259 581.081
479.798 265.432 484.556
479.798 271.605 555.985
479.798 277.778 241.313
479.798 283.951 189.189
479.798 290.123 189.189
479.798 296.296 191.12
479.798 302.469 565.637
479.798 308.642 245.174
479.798 314.815 216.216
479.798 320.988 193.05
479.798 327.16 399.614
479.798 333.333 220.077
479.798 339.506 326.255
479.798 345.679 160.232
479.798 351.852 534.749
479.798 358.025 362.934
479.798 364.198 254.826
479.798 370.37 79.1506
479.798 376.543 36.6795
479.798 598.765 113.9
479.798 604.938 79.1506
479.798 611.111 206.564
479.798 617.284 546.332
479.798 623.457 608.108
479.798 629.63 453.668
479.798 635.802 357.143
479.798 641.975 281.853
479.798 648.148 555.985
479.798 654.321 633.205
479.798 660.494 631.274
479.798 666.667 565.637
479.798 672.84 397.683
479.798 679.012 374.517
479.798 685.185 430.502
479.798 691.358 445.946
479.798 697.531 503.861
479.798 703.704 428.571
479.798 709.877 625.483
479.798 716.049 716.216
479.798 722.222 664.093
479.798 728.395 496.139
479.798 734.568 494.208
479.798 740.741 656.371
479.798 746.914 654.44
479.798 753.086 652.51
479.798 759.259 621.622
479.798 765.432 314.672
479.798 771.605 314.672
479.798 777.778 494.208
479.798 783.951 637.066
479.798 790.123 637.066
479.798 796.296 637.066
479.798 802.469 637.066
479.798 808.642 505.792
479.798 814.815 507.722
479.798 820.988 507.722
479.798 827.16 507.722
479.798 833.333 335.907
479.798 839.506 685.328
479.798 845.679 515.444
479.798 851.852 515.444
479.798 858.025 515.444
479.798 864.198 517.375
479.798 870.37 517.375
479.798 876.543 517.375
479.798 882.716 517.375
484.848 129.63 503.861
484.848 135.802 503.861
484.848 141.975 507.722
484.848 148.148 511.583
484.848 154.321 513.514
484.848 160.494 513.514
484.848 166.667 737.452
484.848 172.84 478.764
484.848 179.012 478.764
484.848 185.185 480.695
484.848 191.358 637.066
484.848 197.531 638.996
484.848 203.704 720.077
484.848 209.877 774.131
484.848 216.049 741.313
484.848 222.222 488.417
484.848 228.395 648.649
484.848 234.568 648.649
484.848 240.741 729.73
484.848 246.914 482.625
484.848 253.086 480.695
484.848 259.259 581.081
484.848 265.432 486.486
484.848 271.605 783.784
484.848 277.778 581.081
484.848 283.951 189.189
484.848 290.123 189.189
484.848 296.296 191.12
484.848 302.469 660.232
484.848 308.642 245.174
484.848 314.815 216.216
484.848 320.988 193.05
484.848 327.16 399.614
484.848 333.333 220.077
484.848 339.506 243.243
484.848 345.679 301.158
484.848 351.852 488.417
484.848 358.025 260.618
484.848 364.198 225.869
484.848 370.37 79.1506
484.848 598.765 73.3591
484.848 604.938 83.0116
484.848 611.111 206.564
484.848 617.284 517.375
484.848 623.457 702.703
484.848 629.63 501.931
484.848 635.802 440.154
484.848 641.975 376.448
484.848 648.148 750.965
484.848 654.321 666.023
484.848 660.494 559.846
484.848 666.667 376.448
484.848 672.84 501.931
484.848 679.012 376.448
484.848 685.185 374.517
484.848 691.358 500
484.848 697.531 368.726
484.848 703.704 370.656
484.848 709.877 859.073
484.848 716.049 859.073
484.848 722.222 496.139
484.848 728.395 496.139
484.848 734.568 494.208
484.848 740.741 656.371
484.848 746.914 656.371
484.848 753.086 654.44
484.848 759.259 621.622
484.848 765.432 318.533
484.848 771.605 316.602
484.848 777.778 314.672
484.848 783.951 637.066
484.848 790.123 637.066
484.848 796.296 637.066
484.848 802.469 637.066
484.848 808.642 637.066
484.848 814.815 505.792
484.848 820.988 505.792
484.848 827.16 505.792
484.848 833.333 505.792
484.848 839.506 685.328
484.848 845.679 513.514
484.848 851.852 515.444
484.848 858.025 515.444
484.848 864.198 517.375
484.848 870.37 517.375
484.848 876.543 517.375
489.899 141.975 503.861
489.899 148.148 507.722
489.899 154.321 513.514
489.899 160.494 681.467
489.899 166.667 737.452
489.899 172.84 478.764
489.899 179.012 478.764
489.899 185.185 478.764
489.899 191.358 638.996
489.899 197.531 490.347
489.899 203.704 722.008
489.899 209.877 743.243
489.899 216.049 490.347
489.899 222.222 488.417
489.899 228.395 648.649
489.899 234.568 648.649
489.899 240.741 729.73
489.899 246.914 482.625
489.899 253.086 478.764
489.899 259.259 579.151
489.899 265.432 486.486
489.899 271.605 583.012
489.899 277.778 583.012
489.899 283.951 191.12
489.899 290.123 189.189
489.899 296.296 156.371
489.899 302.469 658.301
489.899 308.642 245.174
489.899 314.815 216.216
489.899 320.988 193.05
489.899 327.16 332.046
489.899 333.333 359.073
489.899 339.506 243.243
489.899 345.679 490.347
489.899 351.852 444.015
489.899 358.025 378.378
489.899 364.198 235.521
489.899 370.37 83.0116
489.899 598.765 69.4981
489.899 604.938 119.691
489.899 611.111 220.077
489.899 617.284 486.486
489.899 623.457 660.232
489.899 629.63 602.317
489.899 635.802 503.861
489.899 641.975 434.363
489.899 648.148 750.965
489.899 654.321 669.884
489.899 660.494 561.776
489.899 666.667 376.448
489.899 672.84 501.931
489.899 679.012 332.046
489.899 685.185 501.931
489.899 691.358 500
489.899 697.531 424.71
489.899 703.704 368.726
489.899 709.877 855.212
489.899 716.049 797.297
489.899 722.222 496.139
489.899 728.395 496.139
489.899 734.568 494.208
489.899 740.741 656.371
489.899 746.914 656.371
489.899 753.086 656.371
489.899 759.259 656.371
489.899 765.432 623.552
489.899 771.605 314.672
489.899 777.778 316.602
489.899 783.951 635.135
489.899 790.123 635.135
489.899 796.296 635.135
489.899 802.469 637.066
489.899 808.642 637.066
489.899 814.815 503.861
489.899 820.988 503.861
489.899 827.16 505.792
489.899 833.333 505.792
489.899 839.506 503.861
489.899 851.852 513.514
489.899 858.025 513.514
489.899 864.198 517.375
489.899 870.37 517.375
494.949 160.494 500
494.949 166.667 335.907
494.949 172.84 478.764
494.949 179.012 476.834
494.949 185.185 637.066
494.949 191.358 638.996
494.949 197.531 492.278
494.949 203.704 725.869
494.949 209.877 745.174
494.949 216.049 492.278
494.949 222.222 488.417
494.949 228.395 648.649
494.949 234.568 648.649
494.949 240.741 729.73
494.949 246.914 482.625
494.949 253.086 478.764
494.949 259.259 650.579
494.949 265.432 584.942
494.949 271.605 488.417
494.949 277.778 779.923
494.949 283.951 386.1
494.949 290.123 191.12
494.949 296.296 241.313
494.949 302.469 559.846
494.949 308.642 328.185
494.949 314.815 216.216
494.949 320.988 295.367
494.949 327.16 330.116
494.949 333.333 411.197
494.949 339.506 194.981
494.949 345.679 461.39
494.949 351.852 322.394
494.949 358.025 320.463
494.949 364.198 167.954
494.949 370.37 83.0116
494.949 604.938 125.483
494.949 611.111 160.232
494.949 617.284 415.058
494.949 623.457 519.305
494.949 629.63 544.402
494.949 635.802 629.344
494.949 641.975 515.444
494.949 648.148 779.923
494.949 654.321 702.703
494.949 660.494 500
494.949 666.667 376.448
494.949 672.84 557.915
494.949 679.012 332.046
494.949 685.185 501.931
494.949 691.358 424.71
494.949 697.531 424.71
494.949 703.704 368.726
494.949 709.877 855.212
494.949 716.049 666.023
494.949 722.222 747.104
494.949 728.395 494.208
494.949 734.568 494.208
494.949 740.741 656.371
494.949 746.914 656.371
494.949 753.086 656.371
494.949 759.259 656.371
494.949 765.432 623.552
494.949 771.605 316.602
494.949 777.778 316.602
494.949 783.951 490.347
494.949 790.123 635.135
494.949 796.296 635.135
494.949 802.469 637.066
494.949 808.642 637.066
494.949 814.815 503.861
494.949 820.988 503.861
494.949 827.16 503.861
494.949 833.333 503.861
494.949 839.506 503.861
500 160.494 500
500 166.667 500
500 172.84 500
500 179.012 635.135
500 185.185 637.066
500 191.358 638.996
500 197.531 723.938
500 203.704 725.869
500 209.877 747.104
500 216.049 496.139
500 222.222 490.347
500 228.395 648.649
500 234.568 648.649
500 240.741 648.649
500 246.914 731.66
500 253.086 478.764
500 259.259 650.579
500 265.432 488.417
500 271.605 488.417
500 277.778 731.66
500 283.951 584.942
500 290.123 243.243
500 296.296 156.371
500 302.469 561.776
500 308.642 277.992
500 314.815 216.216
500 320.988 295.367
500 327.16 245.174
500 333.333 355.212
500 339.506 295.367
500 345.679 552.124
500 351.852 389.961
500 358.025 347.49
500 364.198 160.232
500 370.37 79.1506
500 604.938 160.232
500 611.111 150.579
500 617.284 395.753
500 623.457 486.486
500 629.63 577.22
500 635.802 629.344
500 641.975 812.741
500 648.148 781.853
500 654.321 625.483
500 660.494 432.432
500 666.667 432.432
500 672.84 500
500 679.012 559.846
500 685.185 500
500 691.358 424.71
500 697.531 424.71
500 703.704 664.093
500 709.877 855.212
500 716.049 666.023
500 722.222 745.174
500 728.395 496.139
500 734.568 494.208
500 740.741 656.371
500 746.914 656.371
500 753.086 656.371
500 759.259 656.371
500 765.432 484.556
500 771.605 623.552
500 777.778 316.602
500 783.951 314.672
500 790.123 637.066
500 796.296 635.135
500 802.469 635.135
500 808.642 635.135
500 814.815 503.861
500 820.988 503.861
500 827.16 503.861
500 833.333 503.861
500 839.506 503.861
505.051 160.494 500
505.051 166.667 500
505.051 172.84 500
505.051 179.012 500
505.051 185.185 500
505.051 191.358 637.066
505.051 197.531 723.938
505.051 203.704 667.954
505.051 209.877 747.104
505.051 216.049 496.139
505.051 222.222 650.579
505.051 228.395 650.579
505.051 234.568 650.579
505.051 240.741 648.649
505.051 246.914 731.66
505.051 253.086 480.695
505.051 259.259 584.942
505.051 265.432 488.417
505.051 271.605 488.417
505.051 277.778 731.66
505.051 283.951 482.625
505.051 290.123 191.12
505.051 296.296 191.12
505.051 302.469 488.417
505.051 308.642 241.313
505.051 314.815 241.313
505.051 320.988 330.116
505.051 327.16 245.174
505.051 333.333 355.212
505.051 339.506 293.436
505.051 345.679 575.29
505.051 351.852 378.378
505.051 358.025 335.907
505.051 364.198 123.552
505.051 370.37 61.7761
505.051 604.938 216.216
505.051 611.111 318.533
505.051 617.284 486.486
505.051 623.457 619.691
505.051 629.63 563.707
505.051 635.802 749.035
505.051 641.975 776.062
505.051 648.148 749.035
505.051 654.321 625.483
505.051 660.494 432.432
505.051 666.667 432.432
505.051 672.84 444.015
505.051 679.012 557.915
505.051 685.185 422.78
505.051 691.358 422.78
505.051 697.531 422.78
505.051 703.704 830.116
505.051 709.877 828.185
505.051 716.049 664.093
505.051 722.222 666.023
505.051 728.395 745.174
505.051 734.568 496.139
505.051 740.741 494.208
505.051 746.914 658.301
505.051 753.086 658.301
505.051 759.259 658.301
505.051 765.432 656.371
505.051 771.605 484.556
505.051 777.778 623.552
505.051 783.951 314.672
505.051 790.123 440.154
505.051 796.296 633.205
505.051 802.469 635.135
505.051 808.642 501.931
505.051 814.815 503.861
505.051 820.988 503.861
505.051 827.16 503.861
505.051 833.333 503.861
510.101 160.494 500
510.101 166.667 498.069
510.101 172.84 500
510.101 179.012 500
510.101 185.185 500
510.101 191.358 500
510.101 197.531 662.162
510.101 203.704 666.023
510.101 209.877 745.174
510.101 216.049 650.579
510.101 222.222 650.579
510.101 228.395 650.579
510.101 234.568 650.579
510.101 240.741 650.579
510.101 246.914 731.66
510.101 253.086 480.695
510.101 259.259 584.942
510.101 265.432 490.347
510.101 271.605 488.417
510.101 277.778 731.66
510.101 283.951 482.625
510.101 290.123 191.12
510.101 296.296 191.12
510.101 302.469 486.486
510.101 308.642 322.394
510.101 314.815 243.243
510.101 320.988 293.436
510.101 327.16 245.174
510.101 333.333 326.255
510.101 339.506 193.05
510.101 345.679 575.29
510.101 351.852 432.432
510.101 358.025 306.95
510.101 364.198 121.622
510.101 370.37 75.2896
510.101 598.765 102.317
510.101 604.938 256.757
510.101 611.111 386.1
510.101 617.284 542.471
510.101 623.457 608.108
510.101 629.63 540.541
510.101 635.802 550.193
510.101 641.975 749.035
510.101 648.148 671.815
510.101 654.321 625.483
510.101 660.494 434.363
510.101 666.667 376.448
510.101 672.84 444.015
510.101 679.012 501.931
510.101 685.185 422.78
510.101 691.358 422.78
510.101 697.531 422.78
510.101 703.704 830.116
510.101 709.877 745.174
510.101 716.049 666.023
510.101 722.222 666.023
510.101 728.395 666.023
510.101 734.568 747.104
510.101 740.741 496.139
510.101 746.914 656.371
510.101 753.086 656.371
510.101 759.259 656.371
510.101 765.432 656.371
510.101 771.605 484.556
510.101 777.778 484.556
510.101 783.951 484.556
510.101 790.123 440.154
510.101 796.296 440.154
510.101 802.469 500
510.101 808.642 500
510.101 814.815 501.931
510.101 820.988 503.861
510.101 827.16 503.861
515.152 166.667 496.139
515.152 172.84 498.069
515.152 179.012 498.069
515.152 185.185 500
515.152 191.358 500
515.152 197.531 660.232
515.152 203.704 480.695
515.152 209.877 650.579
515.152 216.049 650.579
515.152 222.222 650.579
515.152 228.395 650.579
515.152 234.568 650.579
515.152 240.741 650.579
515.152 246.914 733.591
515.152 253.086 316.602
515.152 259.259 492.278
515.152 265.432 735.521
515.152 271.605 488.417
515.152 277.778 583.012
515.152 283.951 482.625
515.152 290.123 191.12
515.152 296.296 241.313
515.152 302.469 484.556
515.152 308.642 364.865
515.152 314.815 212.355
515.152 320.988 113.9
515.152 327.16 241.313
515.152 333.333 291.506
515.152 339.506 353.282
515.152 345.679 550.193
515.152 351.852 432.432
515.152 358.025 345.56
515.152 364.198 115.83
515.152 370.37 75.2896
515.152 598.765 94.5946
515.152 604.938 185.328
515.152 611.111 422.78
515.152 617.284 654.44
515.152 623.457 656.371
515.152 629.63 540.541
515.152 635.802 496.139
515.152 641.975 747.104
515.152 648.148 716.216
515.152 654.321 627.413
515.152 660.494 432.432
515.152 666.667 445.946
515.152 672.84 555.985
515.152 679.012 501.931
515.152 685.185 422.78
515.152 691.358 422.78
515.152 697.531 496.139
515.152 703.704 830.116
515.152 709.877 745.174
515.152 716.049 745.174
515.152 722.222 666.023
515.152 728.395 667.954
515.152 734.568 667.954
515.152 740.741 745.174
515.152 746.914 656.371
515.152 753.086 656.371
515.152 759.259 656.371
515.152 765.432 656.371
515.152 771.605 484.556
515.152 777.778 484.556
515.152 783.951 484.556
515.152 814.815 500
515.152 820.988 500
520.202 179.012 496.139
520.202 185.185 496.139
520.202 197.531 480.695
520.202 203.704 480.695
520.202 209.877 480.695
520.202 216.049 650.579
520.202 222.222 650.579
520.202 228.395 650.579
520.202 234.568 650.579
520.202 240.741 650.579
520.202 246.914 733.591
520.202 253.086 316.602
520.202 259.259 492.278
520.202 265.432 735.521
520.202 271.605 490.347
520.202 277.778 584.942
520.202 283.951 584.942
520.202 290.123 193.05
520.202 296.296 241.313
520.202 302.469 386.1
520.202 308.642 559.846
520.202 314.815 243.243
520.202 320.988 133.205
520.202 327.16 241.313
520.202 333.333 324.324
520.202 339.506 442.085
520.202 345.679 521.236
520.202 351.852 459.459
520.202 358.025 355.212
520.202 364.198 106.178
520.202 370.37 25.0965
520.202 598.765 94.5946
520.202 604.938 318.533
520.202 611.111 548.263
520.202 617.284 737.452
520.202 623.457 654.44
520.202 629.63 554.054
520.202 635.802 571.429
520.202 641.975 749.035
520.202 648.148 716.216
520.202 654.321 577.22
520.202 660.494 378.378
520.202 666.667 445.946
520.202 672.84 503.861
520.202 679.012 428.571
520.202 685.185 424.71
520.202 691.358 424.71
520.202 697.531 598.456
520.202 703.704 830.116
520.202 709.877 498.069
520.202 716.049 747.104
520.202 722.222 667.954
520.202 728.395 667.954
520.202 734.568 667.954
520.202 740.741 747.104
520.202 746.914 656.371
520.202 753.086 656.371
520.202 759.259 656.371
520.202 765.432 656.371
520.202 771.605 484.556
520.202 777.778 484.556
520.202 783.951 484.556
520.202 790.123 484.556
525.253 197.531 480.695
525.253 203.704 480.695
525.253 209.877 480.695
525.253 216.049 480.695
525.253 222.222 650.579
525.253 228.395 650.579
525.253 234.568 650.579
525.253 240.741 650.579
525.253 246.914 733.591
525.253 253.086 316.602
525.253 259.259 492.278
525.253 265.432 660.232
525.253 271.605 735.521
525.253 277.778 490.347
525.253 283.951 646.718
525.253 290.123 156.371
525.253 296.296 239.382
525.253 302.469 386.1
525.253 308.642 559.846
525.253 314.815 133.205
525.253 320.988 133.205
525.253 327.16 133.205
525.253 333.333 322.394
525.253 339.506 262.548
525.253 345.679 519.305
525.253 351.852 507.722
525.253 358.025 424.71
525.253 364.198 115.83
525.253 370.37 21.2355
525.253 598.765 125.483
525.253 604.938 252.896
525.253 611.111 428.571
525.253 617.284 737.452
525.253 623.457 722.008
525.253 629.63 571.429
525.253 635.802 712.355
525.253 641.975 718.147
525.253 648.148 627.413
525.253 654.321 577.22
525.253 660.494 378.378
525.253 666.667 445.946
525.253 672.84 505.792
525.253 679.012 428.571
525.253 685.185 326.255
525.253 691.358 498.069
525.253 697.531 664.093
525.253 703.704 830.116
525.253 709.877 749.035
525.253 716.049 749.035
525.253 722.222 669.884
525.253 728.395 669.884
525.253 734.568 667.954
525.253 740.741 667.954
525.253 746.914 654.44
525.253 753.086 656.371
525.253 759.259 656.371
525.253 765.432 656.371
525.253 771.605 484.556
525.253 777.778 484.556
525.253 783.951 484.556
525.253 790.123 484.556
530.303 197.531 480.695
530.303 203.704 480.695
530.303 209.877 480.695
530.303 216.049 480.695
530.303 222.222 480.695
530.303 228.395 480.695
530.303 234.568 650.579
530.303 240.741 650.579
530.303 246.914 650.579
530.303 253.086 316.602
530.303 259.259 492.278
530.303 265.432 660.232
530.303 271.605 735.521
530.303 277.778 490.347
530.303 283.951 644.788
530.303 290.123 160.232
530.303 296.296 191.12
530.303 302.469 189.189
530.303 308.642 488.417
530.303 314.815 133.205
530.303 320.988 133.205
530.303 327.16 133.205
530.303 333.333 289.575
530.303 339.506 260.618
530.303 345.679 571.429
530.303 351.852 554.054
530.303 358.025 393.822
530.303 364.198 75.2896
530.303 598.765 125.483
530.303 604.938 110.039
530.303 611.111 386.1
530.303 617.284 675.676
530.303 623.457 656.371
530.303 629.63 623.552
530.303 635.802 855.212
530.303 641.975 720.077
530.303 648.148 627.413
530.303 654.321 434.363
530.303 660.494 503.861
530.303 666.667 445.946
530.303 672.84 505.792
530.303 679.012 430.502
530.303 685.185 393.822
530.303 691.358 602.317
530.303 697.531 832.046
530.303 703.704 797.297
530.303 709.877 750.965
530.303 716.049 671.815
530.303 722.222 669.884
530.303 728.395 671.815
530.303 734.568 669.884
530.303 740.741 667.954
530.303 746.914 654.44
530.303 753.086 656.371
530.303 759.259 656.371
530.303 765.432 484.556
530.303 771.605 486.486
530.303 777.778 484.556
530.303 783.951 484.556
530.303 790.123 484.556
535.354 203.704 480.695
535.354 209.877 480.695
535.354 216.049 480.695
535.354 222.222 480.695
535.354 228.395 480.695
535.354 234.568 480.695
535.354 240.741 480.695
535.354 246.914 484.556
535.354 253.086 480.695
535.354 259.259 660.232
535.354 265.432 662.162
535.354 271.605 662.162
535.354 277.778 737.452
535.354 283.951 492.278
535.354 290.123 646.718
535.354 296.296 191.12
535.354 302.469 189.189
535.354 308.642 484.556
535.354 314.815 272.201
535.354 320.988 135.135
535.354 327.16 133.205
535.354 333.333 210.425
535.354 339.506 258.687
535.354 345.679 650.579
535.354 351.852 613.9
535.354 358.025 332.046
535.354 364.198 71.4286
535.354 598.765 125.483
535.354 604.938 79.1506
535.354 611.111 289.575
535.354 617.284 368.726
535.354 623.457 712.355
535.354 629.63 500
535.354 635.802 855.212
535.354 641.975 808.88
535.354 648.148 754.826
535.354 654.321 436.293
535.354 660.494 505.792
535.354 666.667 380.309
535.354 672.84 505.792
535.354 679.012 393.822
535.354 685.185 324.324
535.354 691.358 498.069
535.354 697.531 830.116
535.354 703.704 747.104
535.354 709.877 750.965
535.354 716.049 671.815
535.354 722.222 671.815
535.354 728.395 671.815
535.354 734.568 671.815
535.354 740.741 492.278
535.354 746.914 492.278
535.354 753.086 660.232
535.354 759.259 656.371
535.354 765.432 486.486
535.354 771.605 486.486
535.354 777.778 486.486
535.354 783.951 486.486
535.354 790.123 484.556
540.404 209.877 480.695
540.404 216.049 480.695
540.404 222.222 480.695
540.404 228.395 480.695
540.404 234.568 480.695
540.404 240.741 480.695
540.404 253.086 480.695
540.404 259.259 482.625
540.404 265.432 662.162
540.404 271.605 662.162
540.404 277.778 664.093
540.404 283.951 664.093
540.404 290.123 781.853
540.404 296.296 733.591
540.404 302.469 191.12
540.404 308.642 320.463
540.404 314.815 150.579
540.404 320.988 322.394
540.404 327.16 135.135
540.404 333.333 212.355
540.404 339.506 362.934
540.404 345.679 669.884
540.404 351.852 635.135
540.404 358.025 270.27
540.404 364.198 75.2896
540.404 598.765 133.205
540.404 604.938 75.2896
540.404 611.111 289.575
540.404 617.284 335.907
540.404 623.457 696.911
540.404 629.63 598.456
540.404 635.802 855.212
540.404 641.975 810.811
540.404 648.148 722.008
540.404 654.321 505.792
540.404 660.494 507.722
540.404 666.667 436.293
540.404 672.84 505.792
540.404 679.012 393.822
540.404 685.185 324.324
540.404 691.358 666.023
540.404 697.531 832.046
540.404 703.704 666.023
540.404 709.877 664.093
540.404 716.049 671.815
540.404 722.222 671.815
540.404 728.395 671.815
540.404 734.568 671.815
540.404 740.741 492.278
540.404 746.914 492.278
540.404 753.086 660.232
540.404 759.259 488.417
540.404 765.432 486.486
540.404 771.605 488.417
540.404 777.778 488.417
540.404 783.951 486.486
540.404 790.123 484.556
545.455 222.222 480.695
545.455 228.395 480.695
545.455 234.568 480.695
545.455 259.259 480.695
545.455 265.432 480.695
545.455 271.605 662.162
545.455 277.778 664.093
545.455 283.951 664.093
545.455 290.123 664.093
545.455 296.296 656.371
545.455 302.469 583.012
545.455 314.815 231.66
545.455 320.988 235.521
545.455 327.16 320.463
545.455 333.333 430.502
545.455 339.506 428.571
545.455 345.679 687.259
545.455 351.852 548.263
545.455 358.025 150.579
545.455 364.198 67.5676
545.455 598.765 140.927
545.455 604.938 79.1506
545.455 611.111 303.089
545.455 617.284 399.614
545.455 623.457 679.537
545.455 629.63 768.34
545.455 635.802 855.212
545.455 641.975 810.811
545.455 648.148 808.88
545.455 654.321 754.826
545.455 660.494 507.722
545.455 666.667 579.151
545.455 672.84 426.641
545.455 679.012 393.822
545.455 685.185 492.278
545.455 691.358 791.506
545.455 697.531 797.297
545.455 703.704 667.954
545.455 709.877 505.792
545.455 716.049 507.722
545.455 722.222 671.815
545.455 728.395 671.815
545.455 734.568 671.815
545.455 740.741 492.278
545.455 746.914 492.278
545.455 753.086 484.556
545.455 759.259 486.486
545.455 765.432 486.486
545.455 771.605 486.486
545.455 777.778 486.486
545.455 783.951 488.417
545.455 790.123 484.556
550.505 271.605 480.695
550.505 277.778 484.556
550.505 283.951 664.093
550.505 290.123 500
550.505 296.296 500
550.505 302.469 472.973
550.505 308.642 310.811
550.505 327.16 382.239
550.505 333.333 552.124
550.505 339.506 318.533
550.505 345.679 729.73
550.505 351.852 528.958
550.505 358.025 142.857
550.505 364.198 59.8456
550.505 598.765 140.927
550.505 604.938 158.301
550.505 611.111 276.062
550.505 617.284 399.614
550.505 623.457 791.506
550.505 629.63 789.575
550.505 635.802 745.174
550.505 641.975 808.88
550.505 648.148 810.811
550.505 654.321 861.004
550.505 660.494 754.826
550.505 666.667 426.641
550.505 672.84 324.324
550.505 679.012 322.394
550.505 685.185 492.278
550.505 691.358 789.575
550.505 697.531 667.954
550.505 703.704 507.722
550.505 709.877 507.722
550.505 716.049 507.722
550.505 722.222 505.792
550.505 728.395 503.861
550.505 734.568 671.815
550.505 759.259 484.556
550.505 765.432 484.556
550.505 771.605 486.486
550.505 777.778 488.417
550.505 783.951 484.556
555.556 308.642 472.973
555.556 314.815 474.903
555.556 327.16 183.398
555.556 333.333 183.398
555.556 339.506 152.51
555.556 345.679 667.954
555.556 351.852 548.263
555.556 358.025 135.135
555.556 364.198 19.305
555.556 598.765 108.108
555.556 604.938 222.008
555.556 611.111 258.687
555.556 617.284 457.529
555.556 623.457 853.282
555.556 629.63 861.004
555.556 635.802 739.382
555.556 641.975 747.104
555.556 648.148 749.035
555.556 654.321 808.88
555.556 660.494 830.116
555.556 666.667 241.313
555.556 672.84 388.031
555.556 679.012 488.417
555.556 685.185 789.575
555.556 691.358 741.313
555.556 697.531 480.695
555.556 703.704 507.722
555.556 709.877 507.722
555.556 716.049 507.722
555.556 722.222 507.722
555.556 728.395 503.861
555.556 771.605 484.556
555.556 777.778 484.556
560.606 314.815 476.834
560.606 320.988 474.903
560.606 327.16 183.398
560.606 339.506 185.328
560.606 345.679 729.73
560.606 351.852 548.263
560.606 358.025 127.413
560.606 364.198 21.2355
560.606 598.765 86.8726
560.606 604.938 277.992
560.606 611.111 262.548
560.606 617.284 515.444
560.606 623.457 845.56
560.606 629.63 822.394
560.606 635.802 731.66
560.606 641.975 735.521
560.606 648.148 747.104
560.606 654.321 667.954
560.606 660.494 480.695
560.606 666.667 739.382
560.606 672.84 389.961
560.606 679.012 488.417
560.606 685.185 739.382
560.606 716.049 507.722
560.606 722.222 503.861
565.657 320.988 476.834
565.657 327.16 482.625
565.657 339.506 482.625
565.657 345.679 745.174
565.657 351.852 359.073
565.657 358.025 32.8185
565.657 598.765 86.8726
565.657 604.938 281.853
565.657 611.111 372.587
565.657 617.284 596.525
565.657 623.457 889.961
565.657 629.63 845.56
565.657 635.802 652.51
565.657 641.975 482.625
565.657 648.148 478.764
565.657 654.321 478.764
565.657 660.494 480.695
565.657 666.667 480.695
565.657 679.012 658.301
565.657 685.185 488.417
570.707 320.988 476.834
570.707 327.16 579.151
570.707 339.506 482.625
570.707 345.679 588.803
570.707 351.852 305.019
570.707 358.025 25.0965
570.707 598.765 52.1236
570.707 604.938 210.425
570.707 611.111 353.282
570.707 617.284 584.942
570.707 623.457 899.614
570.707 629.63 845.56
570.707 635.802 482.625
570.707 641.975 480.695
570.707 648.148 480.695
570.707 654.321 476.834
570.707 660.494 476.834
575.758 327.16 779.923
575.758 333.333 231.66
575.758 339.506 646.718
575.758 345.679 611.969
575.758 351.852 166.023
575.758 358.025 50.1931
575.758 598.765 59.8456
575.758 604.938 256.757
575.758 611.111 393.822
575.758 617.284 584.942
575.758 623.457 899.614
575.758 629.63 787.645
575.758 635.802 482.625
575.758 641.975 480.695
575.758 648.148 476.834
580.808 327.16 810.811
580.808 333.333 233.591
580.808 339.506 646.718
580.808 345.679 542.471
580.808 351.852 30.888
580.808 358.025 17.3745
580.808 598.765 54.0541
580.808 604.938 233.591
580.808 611.111 418.919
580.808 617.284 652.51
580.808 623.457 897.683
580.808 629.63 787.645
580.808 635.802 484.556
580.808 641.975 476.834
585.859 320.988 476.834
585.859 327.16 779.923
585.859 333.333 316.602
585.859 339.506 685.328
585.859 345.679 482.625
585.859 351.852 63.7066
585.859 358.025 23.166
585.859 598.765 52.1236
585.859 604.938 166.023
585.859 611.111 463.32
585.859 617.284 629.344
585.859 623.457 888.031
585.859 629.63 787.645
585.859 635.802 652.51
590.909 320.988 476.834
590.909 327.16 581.081
590.909 333.333 409.266
590.909 339.506 536.68
590.909 345.679 442.085
590.909 351.852 79.1506
590.909 598.765 94.5946
590.909 604.938 175.676
590.909 611.111 534.749
590.909 617.284 673.745
590.909 623.457 888.031
590.909 629.63 737.452
590.909 635.802 652.51
595.96 320.988 476.834
595.96 327.16 581.081
595.96 333.333 409.266
595.96 339.506 480.695
595.96 345.679 442.085
595.96 598.765 131.274
595.96 604.938 194.981
595.96 611.111 407.336
595.96 617.284 718.147
595.96 623.457 903.475
595.96 629.63 737.452
595.96 635.802 652.51
601.01 320.988 729.73
601.01 327.16 581.081
601.01 333.333 355.212
601.01 339.506 418.919
601.01 345.679 501.931
601.01 598.765 131.274
601.01 604.938 194.981
601.01 611.111 353.282
601.01 617.284 735.521
601.01 623.457 903.475
601.01 629.63 737.452
601.01 635.802 652.51
606.061 320.988 729.73
606.061 327.16 231.66
606.061 333.333 312.741
606.061 339.506 418.919
606.061 345.679 519.305
606.061 598.765 167.954
606.061 604.938 183.398
606.061 611.111 353.282
606.061 617.284 629.344
606.061 623.457 903.475
606.061 629.63 737.452
606.061 635.802 652.51
611.111 320.988 729.73
611.111 327.16 231.66
611.111 333.333 181.467
611.111 339.506 544.402
611.111 345.679 521.236
611.111 598.765 156.371
611.111 604.938 150.579
611.111 611.111 459.459
611.111 617.284 548.263
611.111 623.457 903.475
611.111 629.63 787.645
611.111 635.802 652.51
616.162 320.988 644.788
616.162 327.16 233.591
616.162 333.333 229.73
616.162 339.506 752.896
616.162 345.679 503.861
616.162 351.852 36.6795
616.162 598.765 131.274
616.162 604.938 233.591
616.162 611.111 511.583
616.162 617.284 486.486
616.162 623.457 911.197
616.162 629.63 787.645
616.162 635.802 484.556
621.212 327.16 777.992
621.212 333.333 478.764
621.212 339.506 779.923
621.212 345.679 299.228
621.212 351.852 40.5405
621.212 598.765 117.761
621.212 604.938 220.077
621.212 611.111 536.68
621.212 617.284 548.263
621.212 623.457 916.988
621.212 629.63 787.645
621.212 635.802 484.556
626.263 327.16 810.811
626.263 333.333 646.718
626.263 339.506 781.853
626.263 345.679 218.147
626.263 351.852 40.5405
626.263 481.481 23.166
626.263 598.765 104.247
626.263 604.938 194.981
626.263 611.111 594.595
626.263 617.284 451.737
626.263 623.457 905.405
626.263 629.63 737.452
626.263 635.802 484.556
631.313 327.16 833.977
631.313 333.333 615.83
631.313 339.506 691.12
631.313 345.679 117.761
631.313 475.309 27.027
631.313 481.481 25.0965
631.313 487.654 23.166
631.313 598.765 117.761
631.313 604.938 127.413
631.313 611.111 563.707
631.313 617.284 401.544
631.313 623.457 835.907
631.313 629.63 820.463
631.313 635.802 484.556
636.364 327.16 833.977
636.364 333.333 519.305
636.364 339.506 575.29
636.364 345.679 94.5946
636.364 475.309 30.888
636.364 481.481 34.749
636.364 487.654 25.0965
636.364 598.765 131.274
636.364 604.938 84.9421
636.364 611.111 486.486
636.364 617.284 486.486
636.364 623.457 760.618
636.364 629.63 845.56
636.364 635.802 484.556
641.414 320.988 648.649
641.414 327.16 837.838
641.414 333.333 617.761
641.414 339.506 559.846
641.414 345.679 42.471
641.414 475.309 25.0965
641.414 481.481 28.9575
641.414 487.654 32.8185
641.414 598.765 142.857
641.414 604.938 135.135
641.414 611.111 403.475
641.414 617.284 486.486
641.414 623.457 808.88
641.414 629.63 845.56
641.414 635.802 484.556
646.465 320.988 648.649
646.465 327.16 781.853
646.465 333.333 758.687
646.465 339.506 635.135
646.465 345.679 50.1931
646.465 475.309 19.305
646.465 481.481 61.7761
646.465 487.654 54.0541
646.465 598.765 125.483
646.465 604.938 142.857
646.465 611.111 442.085
646.465 617.284 424.71
646.465 623.457 808.88
646.465 629.63 847.49
646.465 635.802 484.556
651.515 320.988 648.649
651.515 327.16 779.923
651.515 333.333 681.467
651.515 339.506 648.649
651.515 345.679 250.965
651.515 475.309 100.386
651.515 481.481 54.0541
651.515 487.654 17.3745
651.515 493.827 27.027
651.515 598.765 119.691
651.515 604.938 150.579
651.515 611.111 442.085
651.515 617.284 521.236
651.515 623.457 899.614
651.515 629.63 845.56
651.515 635.802 484.556
656.566 320.988 648.649
656.566 327.16 729.73
656.566 333.333 706.564
656.566 339.506 687.259
656.566 345.679 204.633
656.566 469.136 23.166
656.566 475.309 92.6641
656.566 481.481 19.305
656.566 487.654 17.3745
656.566 493.827 57.9151
656.566 598.765 133.205
656.566 604.938 277.992
656.566 611.111 654.44
656.566 617.284 845.56
656.566 623.457 899.614
656.566 629.63 820.463
656.566 635.802 484.556
661.616 327.16 781.853
661.616 333.333 833.977
661.616 339.506 731.66
661.616 345.679 204.633
661.616 469.136 19.305
661.616 475.309 84.9421
661.616 481.481 69.4981
661.616 487.654 54.0541
661.616 493.827 59.8456
661.616 598.765 218.147
661.616 604.938 384.17
661.616 611.111 787.645
661.616 617.284 897.683
661.616 623.457 876.448
661.616 629.63 787.645
666.667 327.16 781.853
666.667 333.333 776.062
666.667 339.506 832.046
666.667 345.679 194.981
666.667 469.136 81.0811
666.667 475.309 84.9421
666.667 481.481 67.5676
666.667 487.654 111.969
666.667 493.827 214.286
666.667 598.765 218.147
666.667 604.938 484.556
666.667 611.111 785.714
666.667 617.284 916.988
666.667 623.457 862.934
666.667 629.63 652.51
671.717 327.16 731.66
671.717 333.333 808.88
671.717 339.506 779.923
671.717 345.679 222.008
671.717 469.136 123.552
671.717 475.309 63.7066
671.717 481.481 191.12
671.717 487.654 225.869
671.717 493.827 488.417
671.717 500 50.1931
671.717 598.765 218.147
671.717 604.938 540.541
671.717 611.111 772.201
671.717 617.284 916.988
671.717 623.457 787.645
671.717 629.63 484.556
676.768 327.16 648.649
676.768 333.333 851.351
676.768 339.506 814.672
676.768 345.679 527.027
676.768 462.963 21.2355
676.768 469.136 262.548
676.768 475.309 102.317
676.768 481.481 283.784
676.768 487.654 345.56
676.768 493.827 604.247
676.768 500 254.826
676.768 598.765 245.174
676.768 604.938 534.749
676.768 611.111 750.965
676.768 617.284 911.197
676.768 623.457 737.452
681.818 327.16 480.695
681.818 333.333 864.865
681.818 339.506 731.66
681.818 345.679 571.429
681.818 456.79 19.305
681.818 462.963 256.757
681.818 469.136 492.278
681.818 475.309 606.178
681.818 481.481 619.691
681.818 487.654 656.371
681.818 493.827 449.807
681.818 500 388.031
681.818 592.593 30.888
681.818 598.765 364.865
681.818 604.938 530.888
681.818 611.111 870.656
681.818 617.284 876.448
681.818 623.457 652.51
686.869 333.333 876.448
686.869 339.506 758.687
686.869 345.679 581.081
686.869 456.79 113.9
686.869 462.963 322.394
686.869 469.136 594.595
686.869 475.309 787.645
686.869 481.481 888.031
686.869 487.654 723.938
686.869 493.827 341.699
686.869 500 247.104
686.869 506.173 17.3745
686.869 592.593 32.8185
686.869 598.765 428.571
686.869 604.938 673.745
686.869 611.111 855.212
686.869 617.284 845.56
686.869 623.457 652.51
691.919 333.333 876.448
691.919 339.506 708.494
691.919 345.679 565.637
691.919 450.617 28.9575
691.919 456.79 218.147
691.919 462.963 528.958
691.919 469.136 586.873
691.919 475.309 764.479
691.919 481.481 920.849
691.919 487.654 577.22
691.919 493.827 274.131
691.919 500 258.687
691.919 506.173 46.332
691.919 592.593 119.691
691.919 598.765 484.556
691.919 604.938 669.884
691.919 611.111 853.282
691.919 617.284 843.629
691.919 623.457 484.556
696.97 333.333 777.992
696.97 339.506 862.934
696.97 345.679 525.097
696.97 450.617 177.606
696.97 456.79 411.197
696.97 462.963 617.761
696.97 469.136 733.591
696.97 475.309 924.71
696.97 481.481 845.56
696.97 487.654 722.008
696.97 493.827 210.425
696.97 500 349.421
696.97 506.173 17.3745
696.97 592.593 222.008
696.97 598.765 445.946
696.97 604.938 565.637
696.97 611.111 774.131
696.97 617.284 787.645
702.02 333.333 729.73
702.02 339.506 882.239
702.02 345.679 631.274
702.02 444.444 59.8456
702.02 450.617 277.992
702.02 456.79 532.819
702.02 462.963 594.595
702.02 469.136 785.714
702.02 475.309 868.726
702.02 481.481 492.278
702.02 487.654 880.309
702.02 493.827 521.236
702.02 500 312.741
702.02 506.173 19.305
702.02 512.346 19.305
702.02 586.42 84.9421
702.02 592.593 318.533
702.02 598.765 465.251
702.02 604.938 611.969
702.02 611.111 737.452
702.02 617.284 789.575
707.071 333.333 642.857
707.071 339.506 891.892
707.071 345.679 608.108
707.071 444.444 171.815
707.071 450.617 380.309
707.071 456.79 509.653
707.071 462.963 857.143
707.071 469.136 907.336
707.071 475.309 791.506
707.071 481.481 488.417
707.071 487.654 826.255
707.071 493.827 704.633
707.071 500 328.185
707.071 506.173 59.8456
707.071 512.346 21.2355
707.071 586.42 162.162
707.071 592.593 420.849
707.071 598.765 486.486
707.071 604.938 635.135
707.071 611.111 822.394
707.071 617.284 789.575
712.121 333.333 642.857
712.121 339.506 882.239
712.121 345.679 507.722
712.121 444.444 216.216
712.121 450.617 395.753
712.121 456.79 517.375
712.121 462.963 857.143
712.121 469.136 851.351
712.121 475.309 658.301
712.121 487.654 830.116
712.121 493.827 598.456
712.121 500 389.961
712.121 506.173 90.7336
712.121 512.346 27.027
712.121 586.42 252.896
712.121 592.593 486.486
712.121 598.765 550.193
712.121 604.938 654.44
712.121 611.111 889.961
712.121 617.284 656.371
717.172 333.333 642.857
717.172 339.506 886.1
717.172 345.679 361.004
717.172 351.852 57.9151
717.172 444.444 332.046
717.172 450.617 550.193
717.172 456.79 662.162
717.172 462.963 781.853
717.172 469.136 789.575
717.172 475.309 488.417
717.172 487.654 799.228
717.172 493.827 598.456
717.172 500 426.641
717.172 506.173 104.247
717.172 512.346 34.749
717.172 586.42 279.923
717.172 592.593 465.251
717.172 598.765 586.873
717.172 604.938 631.274
717.172 611.111 864.865
717.172 617.284 486.486
722.222 333.333 476.834
722.222 339.506 874.517
722.222 345.679 361.004
722.222 351.852 133.205
722.222 444.444 357.143
722.222 450.617 600.386
722.222 456.79 729.73
722.222 462.963 660.232
722.222 469.136 739.382
722.222 487.654 803.089
722.222 493.827 538.61
722.222 500 729.73
722.222 506.173 179.537
722.222 512.346 63.7066
722.222 586.42 339.768
722.222 592.593 486.486
722.222 598.765 550.193
722.222 604.938 631.274
722.222 611.111 866.795
722.222 617.284 488.417
727.273 333.333 476.834
727.273 339.506 835.907
727.273 345.679 503.861
727.273 351.852 191.12
727.273 438.272 27.027
727.273 444.444 416.988
727.273 450.617 693.05
727.273 456.79 907.336
727.273 462.963 826.255
727.273 469.136 737.452
727.273 487.654 803.089
727.273 493.827 451.737
727.273 500 772.201
727.273 506.173 426.641
727.273 512.346 52.1236
727.273 586.42 335.907
727.273 592.593 486.486
727.273 598.765 654.44
727.273 604.938 631.274
727.273 611.111 826.255
732.323 333.333 476.834
732.323 339.506 864.865
732.323 345.679 660.232
732.323 351.852 191.12
732.323 438.272 28.9575
732.323 444.444 472.973
732.323 450.617 876.448
732.323 456.79 907.336
732.323 462.963 787.645
732.323 487.654 752.896
732.323 493.827 571.429
732.323 500 706.564
732.323 506.173 436.293
732.323 512.346 44.4015
732.323 586.42 444.015
732.323 592.593 442.085
732.323 598.765 486.486
732.323 604.938 656.371
732.323 611.111 882.239
737.374 339.506 862.934
737.374 345.679 673.745
737.374 351.852 289.575
737.374 438.272 21.2355
737.374 444.444 490.347
737.374 450.617 893.822
737.374 456.79 855.212
737.374 462.963 737.452
737.374 487.654 752.896
737.374 493.827 671.815
737.374 500 747.104
737.374 506.173 409.266
737.374 512.346 32.8185
737.374 580.247 59.8456
737.374 586.42 378.378
737.374 592.593 318.533
737.374 598.765 432.432
737.374 604.938 613.9
737.374 611.111 870.656
742.424 339.506 806.95
742.424 345.679 737.452
742.424 351.852 380.309
742.424 438.272 21.2355
742.424 444.444 359.073
742.424 450.617 909.266
742.424 456.79 895.753
742.424 462.963 737.452
742.424 487.654 496.139
742.424 493.827 857.143
742.424 500 644.788
742.424 506.173 214.286
742.424 512.346 44.4015
742.424 580.247 30.888
742.424 586.42 306.95
742.424 592.593 305.019
742.424 598.765 208.494
742.424 604.938 658.301
742.424 611.111 884.17
747.475 339.506 774.131
747.475 345.679 749.035
747.475 351.852 409.266
747.475 438.272 52.1236
747.475 444.444 274.131
747.475 450.617 754.826
747.475 456.79 884.17
747.475 462.963 484.556
747.475 493.827 942.085
747.475 500 689.189
747.475 506.173 98.4556
747.475 512.346 44.4015
747.475 580.247 83.0116
747.475 586.42 289.575
747.475 592.593 266.409
747.475 598.765 223.938
747.475 604.938 592.664
747.475 611.111 888.031
747.475 617.284 488.417
752.525 339.506 723.938
752.525 345.679 843.629
752.525 351.852 418.919
752.525 438.272 181.467
752.525 444.444 285.714
752.525 450.617 716.216
752.525 456.79 886.1
752.525 462.963 486.486
752.525 493.827 942.085
752.525 500 658.301
752.525 506.173 98.4556
752.525 580.247 164.093
752.525 586.42 277.992
752.525 592.593 239.382
752.525 598.765 198.842
752.525 604.938 554.054
752.525 611.111 888.031
752.525 617.284 490.347
757.576 339.506 640.927
757.576 345.679 886.1
757.576 351.852 303.089
757.576 432.099 15.444
757.576 438.272 250.965
757.576 444.444 339.768
757.576 450.617 801.158
757.576 456.79 888.031
757.576 462.963 490.347
757.576 493.827 936.293
757.576 500 525.097
757.576 506.173 233.591
757.576 580.247 318.533
757.576 586.42 306.95
757.576 592.593 225.869
757.576 598.765 252.896
757.576 604.938 581.081
757.576 611.111 888.031
757.576 617.284 488.417
762.626 333.333 476.834
762.626 339.506 640.927
762.626 345.679 886.1
762.626 351.852 301.158
762.626 432.099 148.649
762.626 438.272 239.382
762.626 444.444 538.61
762.626 450.617 868.726
762.626 456.79 830.116
762.626 462.963 492.278
762.626 493.827 901.544
762.626 500 675.676
762.626 506.173 316.602
762.626 574.074 185.328
762.626 580.247 484.556
762.626 586.42 339.768
762.626 592.593 264.479
762.626 598.765 388.031
762.626 604.938 658.301
762.626 611.111 870.656
762.626 617.284 492.278
767.677 333.333 476.834
767.677 339.506 640.927
767.677 345.679 832.046
767.677 351.852 642.857
767.677 425.926 17.3745
767.677 432.099 241.313
767.677 438.272 328.185
767.677 444.444 783.784
767.677 450.617 888.031
767.677 456.79 747.104
767.677 462.963 492.278
767.677 493.827 808.88
767.677 500 897.683
767.677 506.173 459.459
767.677 512.346 32.8185
767.677 574.074 250.965
767.677 580.247 631.274
767.677 586.42 341.699
767.677 592.593 372.587
767.677 598.765 604.247
767.677 604.938 760.618
767.677 611.111 849.421
767.677 617.284 488.417
772.727 333.333 476.834
772.727 339.506 642.857
772.727 345.679 787.645
772.727 351.852 590.734
772.727 425.926 19.305
772.727 432.099 243.243
772.727 438.272 498.069
772.727 444.444 837.838
772.727 450.617 891.892
772.727 456.79 664.093
772.727 493.827 496.139
772.727 500 888.031
772.727 506.173 584.942
772.727 512.346 231.66
772.727 574.074 233.591
772.727 580.247 650.579
772.727 586.42 530.888
772.727 592.593 430.502
772.727 598.765 604.247
772.727 604.938 808.88
772.727 611.111 789.575
777.778 339.506 644.788
777.778 345.679 870.656
777.778 351.852 565.637
777.778 425.926 21.2355
777.778 432.099 279.923
777.778 438.272 681.467
777.778 444.444 901.544
777.778 450.617 801.158
777.778 456.79 492.278
777.778 493.827 496.139
777.778 500 878.378
777.778 506.173 530.888
777.778 512.346 330.116
777.778 574.074 160.232
777.778 580.247 484.556
777.778 586.42 627.413
777.778 592.593 654.44
777.778 598.765 679.537
777.778 604.938 899.614
777.778 611.111 652.51
782.828 339.506 729.73
782.828 345.679 895.753
782.828 351.852 445.946
782.828 425.926 19.305
782.828 432.099 312.741
782.828 438.272 795.367
782.828 444.444 872.587
782.828 450.617 666.023
782.828 493.827 496.139
782.828 500 859.073
782.828 506.173 762.548
782.828 512.346 330.116
782.828 574.074 44.4015
782.828 580.247 333.977
782.828 586.42 534.749
782.828 592.593 586.873
782.828 598.765 679.537
782.828 604.938 889.961
782.828 611.111 652.51
787.879 339.506 835.907
787.879 345.679 893.822
787.879 351.852 277.992
787.879 432.099 200.772
787.879 438.272 810.811
787.879 444.444 951.737
787.879 450.617 666.023
787.879 493.827 667.954
787.879 500 810.811
787.879 506.173 772.201
787.879 512.346 38.61
787.879 580.247 171.815
787.879 586.42 484.556
787.879 592.593 486.486
787.879 598.765 654.44
787.879 604.938 766.409
787.879 611.111 656.371
792.929 339.506 913.127
792.929 345.679 793.436
792.929 351.852 314.672
792.929 432.099 77.2201
792.929 438.272 631.274
792.929 444.444 963.32
792.929 493.827 667.954
792.929 500 631.274
792.929 506.173 843.629
792.929 580.247 79.1506
792.929 586.42 401.544
792.929 592.593 461.39
792.929 598.765 619.691
792.929 604.938 689.189
792.929 611.111 656.371
797.98 333.333 480.695
797.98 339.506 918.919
797.98 345.679 486.486
797.98 351.852 345.56
797.98 438.272 445.946
797.98 444.444 972.973
797.98 450.617 500
797.98 493.827 496.139
797.98 500 789.575
797.98 506.173 874.517
797.98 580.247 21.2355
797.98 586.42 291.506
797.98 592.593 393.822
797.98 598.765 565.637
797.98 604.938 689.189
797.98 611.111 656.371
803.03 333.333 480.695
803.03 339.506 915.058
803.03 345.679 486.486
803.03 351.852 262.548
803.03 438.272 291.506
803.03 444.444 978.764
803.03 450.617 500
803.03 500 965.251
803.03 506.173 907.336
803.03 586.42 218.147
803.03 592.593 403.475
803.03 598.765 598.456
803.03 604.938 793.436
803.03 611.111 793.436
808.081 333.333 480.695
808.081 339.506 915.058
808.081 345.679 517.375
808.081 351.852 262.548
808.081 438.272 125.483
808.081 444.444 980.695
808.081 450.617 803.089
808.081 493.827 496.139
808.081 500 974.903
808.081 506.173 710.425
808.081 586.42 179.537
808.081 592.593 409.266
808.081 598.765 637.066
808.081 604.938 772.201
808.081 611.111 745.174
813.131 333.333 480.695
813.131 339.506 891.892
813.131 345.679 631.274
813.131 351.852 28.9575
813.131 438.272 222.008
813.131 444.444 920.849
813.131 450.617 839.768
813.131 493.827 496.139
813.131 500 934.363
813.131 506.173 762.548
813.131 512.346 79.1506
813.131 586.42 208.494
813.131 592.593 436.293
813.131 598.765 602.317
813.131 604.938 872.587
813.131 611.111 745.174
818.182 339.506 841.699
818.182 345.679 805.019
818.182 351.852 21.2355
818.182 438.272 171.815
818.182 444.444 920.849
818.182 450.617 899.614
818.182 493.827 496.139
818.182 500 926.641
818.182 506.173 677.606
818.182 512.346 88.8031
818.182 586.42 185.328
818.182 592.593 434.363
818.182 598.765 517.375
818.182 604.938 899.614
818.182 611.111 747.104
823.232 339.506 841.699
823.232 345.679 872.587
823.232 351.852 129.344
823.232 444.444 978.764
823.232 450.617 911.197
823.232 493.827 671.815
823.232 500 922.78
823.232 506.173 733.591
823.232 512.346 90.7336
823.232 586.42 218.147
823.232 592.593 471.042
823.232 598.765 515.444
823.232 604.938 911.197
823.232 611.111 747.104
