72.3404 94.5946 169.811
72.3404 108.108 477.987
72.3404 135.135 729.56
72.3404 148.649 245.283
72.3404 162.162 729.56
72.3404 175.676 842.767
72.3404 189.189 176.101
72.3404 202.703 849.057
72.3404 229.73 786.164
72.3404 243.243 220.126
72.3404 256.757 798.742
72.3404 270.27 610.063
72.3404 283.784 465.409
72.3404 297.297 616.352
72.3404 324.324 553.459
72.3404 337.838 553.459
72.3404 351.351 566.038
72.3404 378.378 220.126
72.3404 391.892 220.126
72.3404 405.405 220.126
76.5957 0 245.283
76.5957 13.5135 245.283
76.5957 27.027 245.283
76.5957 40.5405 245.283
76.5957 54.0541 245.283
76.5957 67.5676 245.283
76.5957 81.0811 389.937
76.5957 94.5946 389.937
76.5957 108.108 477.987
76.5957 135.135 660.377
76.5957 148.649 345.912
76.5957 162.162 729.56
76.5957 175.676 823.899
76.5957 189.189 176.101
76.5957 202.703 842.767
76.5957 229.73 811.321
76.5957 243.243 207.547
76.5957 256.757 792.453
76.5957 270.27 742.138
76.5957 283.784 566.038
76.5957 297.297 742.138
76.5957 324.324 553.459
76.5957 337.838 553.459
76.5957 351.351 553.459
76.5957 405.405 220.126
80.8511 27.027 245.283
80.8511 40.5405 245.283
80.8511 54.0541 245.283
80.8511 67.5676 245.283
80.8511 81.0811 389.937
80.8511 94.5946 207.547
80.8511 108.108 389.937
80.8511 135.135 660.377
80.8511 148.649 352.201
80.8511 162.162 660.377
80.8511 175.676 823.899
80.8511 189.189 345.912
80.8511 202.703 823.899
80.8511 229.73 874.214
80.8511 243.243 188.679
80.8511 256.757 855.346
80.8511 270.27 748.428
80.8511 283.784 459.119
80.8511 297.297 742.138
80.8511 324.324 893.082
80.8511 337.838 893.082
80.8511 351.351 893.082
85.1064 40.5405 245.283
85.1064 54.0541 245.283
85.1064 67.5676 245.283
85.1064 81.0811 251.572
85.1064 94.5946 251.572
85.1064 108.108 389.937
85.1064 135.135 477.987
85.1064 148.649 163.522
85.1064 162.162 660.377
85.1064 175.676 823.899
85.1064 189.189 176.101
85.1064 202.703 823.899
85.1064 229.73 886.792
85.1064 243.243 176.101
85.1064 256.757 874.214
85.1064 270.27 817.61
85.1064 283.784 528.302
85.1064 297.297 798.742
85.1064 324.324 798.742
85.1064 337.838 603.774
85.1064 351.351 798.742
85.1064 378.378 547.17
85.1064 391.892 547.17
85.1064 405.405 547.17
89.3617 40.5405 245.283
89.3617 54.0541 245.283
89.3617 67.5676 245.283
89.3617 81.0811 245.283
89.3617 94.5946 245.283
89.3617 108.108 245.283
89.3617 135.135 477.987
89.3617 148.649 163.522
89.3617 162.162 477.987
89.3617 175.676 767.296
89.3617 189.189 194.969
89.3617 202.703 823.899
89.3617 229.73 880.503
89.3617 243.243 157.233
89.3617 256.757 886.792
89.3617 270.27 849.057
89.3617 283.784 408.805
89.3617 297.297 823.899
89.3617 324.324 798.742
89.3617 337.838 496.855
89.3617 351.351 798.742
89.3617 378.378 547.17
89.3617 391.892 547.17
89.3617 405.405 547.17
93.617 67.5676 245.283
93.617 81.0811 339.623
93.617 94.5946 157.233
93.617 108.108 339.623
93.617 135.135 396.226
93.617 148.649 201.258
93.617 162.162 477.987
93.617 175.676 735.849
93.617 189.189 339.623
93.617 202.703 767.296
93.617 229.73 886.792
93.617 243.243 144.654
93.617 256.757 886.792
93.617 270.27 811.321
93.617 283.784 207.547
93.617 297.297 842.767
93.617 324.324 798.742
93.617 337.838 496.855
93.617 351.351 798.742
93.617 378.378 547.17
93.617 391.892 547.17
93.617 405.405 547.17
93.617 418.919 597.484
93.617 432.432 597.484
93.617 445.946 597.484
97.8723 81.0811 339.623
97.8723 94.5946 150.943
97.8723 108.108 339.623
97.8723 135.135 345.912
97.8723 148.649 176.101
97.8723 162.162 421.384
97.8723 175.676 723.27
97.8723 189.189 207.547
97.8723 202.703 735.849
97.8723 229.73 874.214
97.8723 243.243 69.1824
97.8723 256.757 886.792
97.8723 270.27 817.61
97.8723 283.784 188.679
97.8723 297.297 823.899
97.8723 324.324 786.164
97.8723 337.838 465.409
97.8723 351.351 786.164
97.8723 378.378 792.453
97.8723 391.892 792.453
97.8723 405.405 792.453
97.8723 418.919 597.484
97.8723 432.432 597.484
97.8723 445.946 597.484
97.8723 472.973 591.195
97.8723 486.486 591.195
97.8723 500 591.195
102.128 81.0811 333.333
102.128 94.5946 157.233
102.128 108.108 333.333
102.128 135.135 345.912
102.128 148.649 169.811
102.128 162.162 345.912
102.128 175.676 723.27
102.128 189.189 207.547
102.128 202.703 723.27
102.128 229.73 823.899
102.128 243.243 100.629
102.128 256.757 855.346
102.128 270.27 786.164
102.128 283.784 81.761
102.128 297.297 805.031
102.128 324.324 786.164
102.128 337.838 371.069
102.128 351.351 786.164
102.128 378.378 792.453
102.128 391.892 792.453
102.128 405.405 792.453
102.128 418.919 597.484
102.128 432.432 597.484
102.128 445.946 597.484
102.128 472.973 591.195
102.128 486.486 591.195
102.128 500 591.195
106.383 81.0811 213.836
106.383 94.5946 213.836
106.383 108.108 333.333
106.383 135.135 345.912
106.383 148.649 163.522
106.383 162.162 345.912
106.383 175.676 704.403
106.383 189.189 371.069
106.383 202.703 716.981
106.383 229.73 830.189
106.383 243.243 75.4717
106.383 256.757 830.189
106.383 270.27 767.296
106.383 283.784 176.101
106.383 297.297 798.742
106.383 324.324 786.164
106.383 337.838 276.73
106.383 351.351 817.61
106.383 378.378 905.66
106.383 391.892 597.484
106.383 405.405 905.66
106.383 418.919 597.484
106.383 432.432 597.484
106.383 445.946 597.484
106.383 472.973 591.195
106.383 486.486 591.195
106.383 500 591.195
110.638 81.0811 207.547
110.638 94.5946 207.547
110.638 108.108 213.836
110.638 135.135 345.912
110.638 148.649 157.233
110.638 162.162 345.912
110.638 175.676 710.692
110.638 189.189 213.836
110.638 202.703 716.981
110.638 229.73 842.767
110.638 243.243 88.0503
110.638 256.757 823.899
110.638 270.27 779.874
110.638 283.784 125.786
110.638 297.297 761.006
110.638 324.324 836.478
110.638 337.838 396.226
110.638 351.351 849.057
110.638 378.378 905.66
110.638 391.892 597.484
110.638 405.405 905.66
110.638 418.919 597.484
110.638 432.432 597.484
110.638 445.946 597.484
110.638 500 591.195
114.894 81.0811 207.547
114.894 94.5946 207.547
114.894 108.108 207.547
114.894 135.135 339.623
114.894 148.649 157.233
114.894 162.162 345.912
114.894 175.676 723.27
114.894 189.189 314.465
114.894 202.703 716.981
114.894 229.73 849.057
114.894 243.243 88.0503
114.894 256.757 842.767
114.894 270.27 761.006
114.894 283.784 226.415
114.894 297.297 761.006
114.894 324.324 911.95
114.894 337.838 276.73
114.894 351.351 823.899
114.894 378.378 911.95
114.894 391.892 603.774
114.894 405.405 905.66
114.894 418.919 597.484
114.894 432.432 597.484
114.894 445.946 597.484
119.149 40.5405 207.547
119.149 54.0541 207.547
119.149 67.5676 207.547
119.149 81.0811 207.547
119.149 94.5946 207.547
119.149 108.108 207.547
119.149 135.135 339.623
119.149 148.649 157.233
119.149 162.162 339.623
119.149 175.676 716.981
119.149 189.189 283.019
119.149 202.703 723.27
119.149 229.73 830.189
119.149 243.243 81.761
119.149 256.757 830.189
119.149 270.27 779.874
119.149 283.784 138.365
119.149 297.297 786.164
119.149 324.324 911.95
119.149 337.838 276.73
119.149 351.351 911.95
119.149 378.378 836.478
119.149 391.892 616.352
119.149 405.405 836.478
119.149 445.946 597.484
123.404 40.5405 207.547
123.404 54.0541 207.547
123.404 67.5676 207.547
123.404 108.108 207.547
123.404 135.135 220.126
123.404 148.649 220.126
123.404 162.162 339.623
123.404 175.676 735.849
123.404 189.189 251.572
123.404 202.703 735.849
123.404 229.73 836.478
123.404 243.243 81.761
123.404 256.757 830.189
123.404 270.27 805.031
123.404 283.784 113.208
123.404 297.297 786.164
123.404 324.324 880.503
123.404 337.838 283.019
123.404 351.351 880.503
123.404 378.378 792.453
123.404 391.892 509.434
123.404 405.405 792.453
127.66 67.5676 207.547
127.66 135.135 220.126
127.66 148.649 220.126
127.66 162.162 220.126
127.66 175.676 716.981
127.66 189.189 283.019
127.66 202.703 735.849
127.66 229.73 836.478
127.66 243.243 81.761
127.66 256.757 836.478
127.66 270.27 830.189
127.66 283.784 132.075
127.66 297.297 811.321
127.66 324.324 867.925
127.66 337.838 194.969
127.66 351.351 867.925
127.66 378.378 792.453
127.66 391.892 503.145
127.66 405.405 792.453
131.915 135.135 213.836
131.915 148.649 213.836
131.915 162.162 220.126
131.915 175.676 716.981
131.915 189.189 283.019
131.915 202.703 716.981
131.915 229.73 817.61
131.915 243.243 182.39
131.915 256.757 830.189
131.915 270.27 842.767
131.915 283.784 176.101
131.915 297.297 811.321
131.915 324.324 886.792
131.915 337.838 238.994
131.915 351.351 874.214
131.915 378.378 792.453
131.915 391.892 496.855
131.915 405.405 792.453
136.17 135.135 213.836
136.17 148.649 213.836
136.17 162.162 213.836
136.17 175.676 584.906
136.17 189.189 490.566
136.17 202.703 716.981
136.17 229.73 798.742
136.17 243.243 144.654
136.17 256.757 823.899
136.17 270.27 861.635
136.17 283.784 119.497
136.17 297.297 842.767
136.17 324.324 899.371
136.17 337.838 150.943
136.17 351.351 880.503
136.17 378.378 792.453
136.17 391.892 496.855
136.17 405.405 792.453
136.17 418.919 566.038
136.17 432.432 566.038
136.17 445.946 566.038
140.426 135.135 213.836
140.426 148.649 213.836
140.426 162.162 213.836
140.426 175.676 509.434
140.426 189.189 509.434
140.426 202.703 584.906
140.426 229.73 786.164
140.426 243.243 270.44
140.426 256.757 798.742
140.426 270.27 874.214
140.426 283.784 56.6038
140.426 297.297 867.925
140.426 324.324 899.371
140.426 337.838 157.233
140.426 351.351 893.082
140.426 378.378 836.478
140.426 391.892 528.302
140.426 405.405 836.478
140.426 418.919 572.327
140.426 432.432 698.113
140.426 445.946 572.327
144.681 162.162 213.836
144.681 175.676 371.069
144.681 189.189 371.069
144.681 202.703 509.434
144.681 229.73 817.61
144.681 243.243 270.44
144.681 256.757 786.164
144.681 270.27 874.214
144.681 283.784 88.0503
144.681 297.297 867.925
144.681 324.324 874.214
144.681 337.838 226.415
144.681 351.351 893.082
144.681 378.378 867.925
144.681 391.892 339.623
144.681 405.405 849.057
144.681 418.919 566.038
144.681 432.432 691.824
144.681 445.946 566.038
144.681 472.973 641.509
144.681 486.486 641.509
144.681 500 641.509
148.936 175.676 232.704
148.936 189.189 232.704
148.936 202.703 371.069
148.936 229.73 761.006
148.936 243.243 440.252
148.936 256.757 786.164
148.936 270.27 861.635
148.936 283.784 69.1824
148.936 297.297 880.503
148.936 324.324 893.082
148.936 337.838 207.547
148.936 351.351 880.503
148.936 378.378 880.503
148.936 391.892 314.465
148.936 405.405 842.767
148.936 418.919 559.748
148.936 432.432 672.956
148.936 445.946 566.038
148.936 472.973 641.509
148.936 486.486 641.509
148.936 500 641.509
153.191 175.676 220.126
153.191 189.189 220.126
153.191 202.703 226.415
153.191 229.73 666.667
153.191 243.243 465.409
153.191 256.757 761.006
153.191 270.27 798.742
153.191 283.784 88.0503
153.191 297.297 830.189
153.191 324.324 893.082
153.191 337.838 377.358
153.191 351.351 886.792
153.191 378.378 867.925
153.191 391.892 408.805
153.191 405.405 867.925
153.191 418.919 559.748
153.191 432.432 522.013
153.191 445.946 559.748
153.191 472.973 641.509
153.191 486.486 641.509
153.191 500 641.509
153.191 527.027 138.365
153.191 540.541 138.365
153.191 554.054 138.365
157.447 81.0811 176.101
157.447 94.5946 176.101
157.447 108.108 176.101
157.447 135.135 194.969
157.447 148.649 194.969
157.447 162.162 194.969
157.447 175.676 213.836
157.447 189.189 213.836
157.447 202.703 226.415
157.447 229.73 584.906
157.447 243.243 339.623
157.447 256.757 666.667
157.447 270.27 786.164
157.447 283.784 125.786
157.447 297.297 817.61
157.447 324.324 893.082
157.447 337.838 308.176
157.447 351.351 886.792
157.447 378.378 861.635
157.447 391.892 515.723
157.447 405.405 861.635
157.447 418.919 685.535
157.447 432.432 553.459
157.447 445.946 679.245
157.447 472.973 616.352
157.447 486.486 616.352
157.447 500 616.352
157.447 527.027 138.365
157.447 540.541 138.365
157.447 554.054 138.365
161.702 40.5405 169.811
161.702 54.0541 169.811
161.702 67.5676 169.811
161.702 81.0811 176.101
161.702 94.5946 176.101
161.702 108.108 176.101
161.702 135.135 194.969
161.702 148.649 194.969
161.702 162.162 194.969
161.702 175.676 188.679
161.702 189.189 188.679
161.702 202.703 289.308
161.702 229.73 220.126
161.702 243.243 220.126
161.702 256.757 584.906
161.702 270.27 817.61
161.702 283.784 207.547
161.702 297.297 792.453
161.702 324.324 899.371
161.702 337.838 163.522
161.702 351.351 899.371
161.702 378.378 861.635
161.702 391.892 503.145
161.702 405.405 861.635
161.702 418.919 742.138
161.702 432.432 610.063
161.702 445.946 742.138
161.702 472.973 622.642
161.702 486.486 490.566
161.702 500 622.642
161.702 527.027 289.308
161.702 540.541 289.308
161.702 554.054 289.308
165.957 40.5405 169.811
165.957 54.0541 169.811
165.957 67.5676 169.811
165.957 81.0811 188.679
165.957 94.5946 188.679
165.957 108.108 182.39
165.957 135.135 201.258
165.957 148.649 201.258
165.957 162.162 194.969
165.957 175.676 188.679
165.957 189.189 188.679
165.957 202.703 188.679
165.957 229.73 220.126
165.957 243.243 220.126
165.957 256.757 220.126
165.957 270.27 761.006
165.957 283.784 182.39
165.957 297.297 817.61
165.957 324.324 911.95
165.957 337.838 113.208
165.957 351.351 905.66
165.957 378.378 874.214
165.957 391.892 270.44
165.957 405.405 874.214
165.957 418.919 773.585
165.957 432.432 446.541
165.957 445.946 773.585
165.957 472.973 522.013
165.957 486.486 345.912
165.957 500 566.038
165.957 527.027 339.623
165.957 540.541 238.994
165.957 554.054 339.623
170.213 40.5405 163.522
170.213 54.0541 163.522
170.213 67.5676 169.811
170.213 81.0811 182.39
170.213 94.5946 182.39
170.213 108.108 176.101
170.213 135.135 201.258
170.213 148.649 201.258
170.213 162.162 201.258
170.213 175.676 194.969
170.213 189.189 194.969
170.213 202.703 188.679
170.213 229.73 220.126
170.213 243.243 220.126
170.213 256.757 220.126
170.213 270.27 761.006
170.213 283.784 182.39
170.213 297.297 761.006
170.213 324.324 905.66
170.213 337.838 44.0252
170.213 351.351 911.95
170.213 378.378 886.792
170.213 391.892 150.943
170.213 405.405 880.503
170.213 418.919 773.585
170.213 432.432 408.805
170.213 445.946 779.874
170.213 472.973 484.277
170.213 486.486 50.3145
170.213 500 559.748
170.213 527.027 345.912
170.213 540.541 100.629
170.213 554.054 345.912
174.468 40.5405 163.522
174.468 54.0541 163.522
174.468 67.5676 163.522
174.468 81.0811 163.522
174.468 94.5946 163.522
174.468 108.108 188.679
174.468 135.135 188.679
174.468 148.649 188.679
174.468 162.162 194.969
174.468 175.676 201.258
174.468 189.189 201.258
174.468 202.703 194.969
174.468 229.73 220.126
174.468 243.243 220.126
174.468 256.757 220.126
174.468 270.27 729.56
174.468 283.784 220.126
174.468 297.297 761.006
174.468 324.324 905.66
174.468 337.838 75.4717
174.468 351.351 905.66
174.468 378.378 886.792
174.468 391.892 25.1572
174.468 405.405 886.792
174.468 418.919 779.874
174.468 432.432 389.937
174.468 445.946 779.874
174.468 472.973 484.277
174.468 486.486 44.0252
174.468 500 484.277
174.468 527.027 352.201
174.468 540.541 106.918
174.468 554.054 345.912
178.723 40.5405 163.522
178.723 54.0541 163.522
178.723 67.5676 163.522
178.723 81.0811 163.522
178.723 94.5946 163.522
178.723 108.108 163.522
178.723 135.135 169.811
178.723 148.649 169.811
178.723 162.162 188.679
178.723 175.676 201.258
178.723 189.189 201.258
178.723 202.703 201.258
178.723 229.73 415.094
178.723 243.243 415.094
178.723 256.757 415.094
178.723 270.27 729.56
178.723 283.784 220.126
178.723 297.297 729.56
178.723 324.324 899.371
178.723 337.838 119.497
178.723 351.351 899.371
178.723 378.378 893.082
178.723 391.892 25.1572
178.723 405.405 886.792
178.723 418.919 817.61
178.723 432.432 320.755
178.723 445.946 805.031
178.723 472.973 477.987
178.723 486.486 37.7358
178.723 500 484.277
178.723 527.027 364.78
178.723 540.541 100.629
178.723 554.054 352.201
182.979 40.5405 163.522
182.979 54.0541 163.522
182.979 67.5676 163.522
182.979 81.0811 163.522
182.979 94.5946 163.522
182.979 108.108 163.522
182.979 135.135 169.811
182.979 148.649 169.811
182.979 162.162 169.811
182.979 175.676 201.258
182.979 189.189 201.258
182.979 202.703 201.258
182.979 229.73 421.384
182.979 243.243 308.176
182.979 256.757 421.384
182.979 270.27 729.56
182.979 283.784 226.415
182.979 297.297 729.56
182.979 324.324 886.792
182.979 337.838 138.365
182.979 351.351 899.371
182.979 378.378 905.66
182.979 405.405 899.371
182.979 418.919 855.346
182.979 432.432 264.151
182.979 445.946 830.189
182.979 472.973 622.642
182.979 486.486 421.384
182.979 500 635.22
182.979 527.027 371.069
182.979 540.541 100.629
182.979 554.054 364.78
187.234 67.5676 163.522
187.234 81.0811 163.522
187.234 94.5946 163.522
187.234 108.108 163.522
187.234 135.135 163.522
187.234 148.649 163.522
187.234 162.162 169.811
187.234 175.676 201.258
187.234 189.189 201.258
187.234 202.703 201.258
187.234 229.73 301.887
187.234 243.243 144.654
187.234 256.757 427.673
187.234 270.27 735.849
187.234 283.784 308.176
187.234 297.297 735.849
187.234 324.324 880.503
187.234 337.838 88.0503
187.234 351.351 880.503
187.234 378.378 918.239
187.234 391.892 37.7358
187.234 405.405 905.66
187.234 418.919 880.503
187.234 432.432 62.8931
187.234 445.946 861.635
187.234 472.973 754.717
187.234 486.486 496.855
187.234 500 748.428
187.234 527.027 371.069
187.234 540.541 100.629
187.234 554.054 371.069
191.489 108.108 163.522
191.489 135.135 163.522
191.489 148.649 163.522
191.489 162.162 163.522
191.489 175.676 188.679
191.489 189.189 188.679
191.489 202.703 194.969
191.489 229.73 301.887
191.489 243.243 138.365
191.489 256.757 301.887
191.489 270.27 641.509
191.489 283.784 641.509
191.489 297.297 735.849
191.489 324.324 874.214
191.489 337.838 125.786
191.489 351.351 880.503
191.489 378.378 918.239
191.489 391.892 50.3145
191.489 405.405 924.528
191.489 418.919 893.082
191.489 432.432 88.0503
191.489 445.946 880.503
191.489 472.973 773.585
191.489 486.486 314.465
191.489 500 761.006
191.489 527.027 433.962
191.489 540.541 213.836
191.489 554.054 433.962
195.745 162.162 163.522
195.745 175.676 169.811
195.745 189.189 169.811
195.745 202.703 188.679
195.745 229.73 301.887
195.745 243.243 138.365
195.745 256.757 301.887
195.745 270.27 572.327
195.745 283.784 572.327
195.745 297.297 641.509
195.745 324.324 867.925
195.745 337.838 132.075
195.745 351.351 874.214
195.745 378.378 924.528
195.745 391.892 31.4465
195.745 405.405 918.239
195.745 418.919 911.95
195.745 432.432 201.258
195.745 445.946 918.239
195.745 472.973 798.742
195.745 486.486 232.704
195.745 500 786.164
195.745 527.027 503.145
195.745 540.541 207.547
195.745 554.054 503.145
200 175.676 169.811
200 189.189 169.811
200 202.703 169.811
200 229.73 308.176
200 243.243 132.075
200 256.757 301.887
200 270.27 540.881
200 283.784 540.881
200 297.297 540.881
200 324.324 886.792
200 337.838 119.497
200 351.351 867.925
200 378.378 930.818
200 391.892 75.4717
200 405.405 930.818
200 418.919 911.95
200 432.432 150.943
200 445.946 911.95
200 472.973 836.478
200 486.486 270.44
200 500 830.189
200 527.027 572.327
200 540.541 314.465
200 554.054 584.906
204.255 175.676 169.811
204.255 189.189 169.811
204.255 202.703 169.811
204.255 229.73 207.547
204.255 243.243 207.547
204.255 256.757 308.176
204.255 270.27 301.887
204.255 283.784 138.365
204.255 297.297 540.881
204.255 324.324 861.635
204.255 337.838 106.918
204.255 351.351 867.925
204.255 378.378 937.107
204.255 391.892 113.208
204.255 405.405 930.818
204.255 418.919 918.239
204.255 432.432 157.233
204.255 445.946 911.95
204.255 472.973 861.635
204.255 486.486 276.73
204.255 500 849.057
204.255 527.027 603.774
204.255 540.541 289.308
204.255 554.054 597.484
208.511 175.676 169.811
208.511 189.189 169.811
208.511 202.703 169.811
208.511 229.73 194.969
208.511 243.243 194.969
208.511 256.757 201.258
208.511 270.27 194.969
208.511 283.784 194.969
208.511 297.297 301.887
208.511 324.324 849.057
208.511 337.838 144.654
208.511 351.351 861.635
208.511 378.378 937.107
208.511 391.892 75.4717
208.511 405.405 937.107
208.511 418.919 924.528
208.511 432.432 106.918
208.511 445.946 918.239
208.511 472.973 886.792
208.511 486.486 150.943
208.511 500 867.925
208.511 527.027 723.27
208.511 540.541 433.962
208.511 554.054 716.981
208.511 581.081 283.019
208.511 594.595 283.019
208.511 608.108 283.019
212.766 175.676 169.811
212.766 189.189 169.811
212.766 202.703 169.811
212.766 229.73 176.101
212.766 243.243 176.101
212.766 256.757 194.969
212.766 270.27 188.679
212.766 283.784 188.679
212.766 297.297 194.969
212.766 324.324 836.478
212.766 337.838 213.836
212.766 351.351 849.057
212.766 378.378 930.818
212.766 391.892 31.4465
212.766 405.405 930.818
212.766 418.919 918.239
212.766 432.432 125.786
212.766 445.946 918.239
212.766 472.973 899.371
212.766 486.486 157.233
212.766 500 886.792
212.766 527.027 742.138
212.766 540.541 144.654
212.766 554.054 729.56
212.766 581.081 402.516
212.766 594.595 402.516
212.766 608.108 402.516
217.021 175.676 176.101
217.021 189.189 176.101
217.021 202.703 169.811
217.021 229.73 176.101
217.021 243.243 176.101
217.021 256.757 176.101
217.021 270.27 182.39
217.021 283.784 182.39
217.021 297.297 188.679
217.021 324.324 830.189
217.021 337.838 308.176
217.021 351.351 849.057
217.021 378.378 905.66
217.021 391.892 12.5786
217.021 405.405 930.818
217.021 418.919 924.528
217.021 432.432 144.654
217.021 445.946 924.528
217.021 472.973 905.66
217.021 486.486 138.365
217.021 500 905.66
217.021 527.027 779.874
217.021 540.541 50.3145
217.021 554.054 742.138
217.021 581.081 528.302
217.021 594.595 452.83
217.021 608.108 528.302
221.277 175.676 182.39
221.277 189.189 182.39
221.277 202.703 176.101
221.277 229.73 176.101
221.277 243.243 176.101
221.277 256.757 176.101
221.277 270.27 402.516
221.277 283.784 402.516
221.277 297.297 402.516
221.277 324.324 798.742
221.277 337.838 421.384
221.277 351.351 830.189
221.277 378.378 911.95
221.277 391.892 25.1572
221.277 405.405 911.95
221.277 418.919 949.686
221.277 432.432 176.101
221.277 445.946 930.818
221.277 472.973 924.528
221.277 486.486 144.654
221.277 500 905.66
221.277 527.027 786.164
221.277 540.541 81.761
221.277 554.054 779.874
221.277 581.081 547.17
221.277 594.595 251.572
221.277 608.108 540.881
225.532 175.676 182.39
225.532 189.189 182.39
225.532 202.703 182.39
225.532 256.757 176.101
225.532 270.27 402.516
225.532 283.784 402.516
225.532 297.297 402.516
225.532 324.324 761.006
225.532 337.838 295.597
225.532 351.351 798.742
225.532 378.378 930.818
225.532 391.892 37.7358
225.532 405.405 911.95
225.532 418.919 962.264
225.532 432.432 176.101
225.532 445.946 943.396
225.532 472.973 949.686
225.532 486.486 81.761
225.532 500 930.818
225.532 527.027 779.874
225.532 540.541 18.8679
225.532 554.054 786.164
225.532 581.081 578.616
225.532 594.595 264.151
225.532 608.108 572.327
229.787 202.703 182.39
229.787 270.27 496.855
229.787 283.784 496.855
229.787 297.297 496.855
229.787 324.324 754.717
229.787 337.838 352.201
229.787 351.351 761.006
229.787 378.378 930.818
229.787 391.892 69.1824
229.787 405.405 918.239
229.787 418.919 955.975
229.787 432.432 169.811
229.787 445.946 955.975
229.787 472.973 981.132
229.787 486.486 100.629
229.787 500 949.686
229.787 527.027 830.189
229.787 540.541 50.3145
229.787 554.054 811.321
229.787 581.081 610.063
229.787 594.595 264.151
229.787 608.108 603.774
229.787 635.135 295.597
229.787 648.649 295.597
229.787 662.162 295.597
234.043 270.27 364.78
234.043 283.784 364.78
234.043 297.297 496.855
234.043 324.324 729.56
234.043 337.838 100.629
234.043 351.351 754.717
234.043 378.378 918.239
234.043 391.892 106.918
234.043 405.405 924.528
234.043 418.919 955.975
234.043 432.432 106.918
234.043 445.946 955.975
234.043 472.973 1000
234.043 486.486 106.918
234.043 500 974.843
234.043 527.027 867.925
234.043 540.541 56.6038
234.043 554.054 836.478
234.043 581.081 660.377
234.043 594.595 188.679
234.043 608.108 647.799
234.043 635.135 295.597
234.043 648.649 295.597
234.043 662.162 295.597
238.298 297.297 364.78
238.298 324.324 723.27
238.298 337.838 402.516
238.298 351.351 742.138
238.298 378.378 886.792
238.298 391.892 113.208
238.298 405.405 911.95
238.298 418.919 949.686
238.298 432.432 150.943
238.298 445.946 949.686
238.298 472.973 993.711
238.298 486.486 31.4465
238.298 500 993.711
238.298 527.027 899.371
238.298 540.541 62.8931
238.298 554.054 874.214
238.298 581.081 698.113
238.298 594.595 119.497
238.298 608.108 685.535
238.298 635.135 301.887
238.298 648.649 301.887
238.298 662.162 295.597
242.553 324.324 635.22
242.553 337.838 522.013
242.553 351.351 723.27
242.553 378.378 861.635
242.553 391.892 88.0503
242.553 405.405 886.792
242.553 418.919 937.107
242.553 432.432 150.943
242.553 445.946 937.107
242.553 472.973 955.975
242.553 486.486 213.836
242.553 500 968.553
242.553 527.027 930.818
242.553 540.541 62.8931
242.553 554.054 899.371
242.553 581.081 710.692
242.553 594.595 81.761
242.553 608.108 698.113
242.553 635.135 496.855
242.553 648.649 496.855
242.553 662.162 496.855
246.809 324.324 383.648
246.809 337.838 383.648
246.809 351.351 635.22
246.809 378.378 823.899
246.809 391.892 106.918
246.809 405.405 861.635
246.809 418.919 911.95
246.809 432.432 125.786
246.809 445.946 924.528
246.809 472.973 943.396
246.809 486.486 176.101
246.809 500 943.396
246.809 527.027 930.818
246.809 540.541 194.969
246.809 554.054 911.95
246.809 581.081 742.138
246.809 594.595 132.075
246.809 608.108 716.981
246.809 635.135 597.484
246.809 648.649 408.805
246.809 662.162 597.484
246.809 689.189 446.541
246.809 702.703 446.541
246.809 716.216 446.541
251.064 351.351 383.648
251.064 378.378 811.321
251.064 391.892 232.704
251.064 405.405 830.189
251.064 418.919 899.371
251.064 432.432 169.811
251.064 445.946 911.95
251.064 472.973 937.107
251.064 486.486 125.786
251.064 500 937.107
251.064 527.027 930.818
251.064 540.541 314.465
251.064 554.054 918.239
251.064 581.081 773.585
251.064 594.595 119.497
251.064 608.108 735.849
251.064 635.135 616.352
251.064 648.649 144.654
251.064 662.162 610.063
251.064 689.189 553.459
251.064 702.703 402.516
251.064 716.216 553.459
251.064 743.243 459.119
251.064 756.757 459.119
251.064 770.27 459.119
255.319 378.378 767.296
255.319 391.892 566.038
255.319 405.405 811.321
255.319 418.919 880.503
255.319 432.432 276.73
255.319 445.946 893.082
255.319 472.973 924.528
255.319 486.486 31.4465
255.319 500 937.107
255.319 527.027 949.686
255.319 540.541 56.6038
255.319 554.054 930.818
255.319 581.081 817.61
255.319 594.595 320.755
255.319 608.108 798.742
255.319 635.135 666.667
255.319 648.649 327.044
255.319 662.162 660.377
255.319 689.189 641.509
255.319 702.703 364.78
255.319 716.216 641.509
255.319 743.243 635.22
255.319 756.757 459.119
255.319 770.27 635.22
255.319 797.297 352.201
255.319 810.811 352.201
255.319 824.324 352.201
259.574 378.378 666.667
259.574 391.892 666.667
259.574 405.405 767.296
259.574 418.919 742.138
259.574 432.432 484.277
259.574 445.946 893.082
259.574 472.973 905.66
259.574 486.486 169.811
259.574 500 918.239
259.574 527.027 949.686
259.574 554.054 949.686
259.574 581.081 861.635
259.574 594.595 220.126
259.574 608.108 836.478
259.574 635.135 729.56
259.574 648.649 270.44
259.574 662.162 716.981
259.574 689.189 685.535
259.574 702.703 283.019
259.574 716.216 679.245
259.574 743.243 666.667
259.574 756.757 207.547
259.574 770.27 666.667
259.574 797.297 628.931
259.574 810.811 522.013
259.574 824.324 628.931
263.83 378.378 578.616
263.83 391.892 578.616
263.83 405.405 666.667
263.83 418.919 415.094
263.83 432.432 415.094
263.83 445.946 748.428
263.83 472.973 855.346
263.83 486.486 421.384
263.83 500 899.371
263.83 527.027 949.686
263.83 554.054 949.686
263.83 581.081 886.792
263.83 608.108 861.635
263.83 635.135 798.742
263.83 648.649 201.258
263.83 662.162 761.006
263.83 689.189 735.849
263.83 702.703 150.943
263.83 716.216 704.403
263.83 743.243 691.824
263.83 756.757 220.126
263.83 770.27 685.535
263.83 797.297 679.245
263.83 810.811 245.283
263.83 824.324 679.245
263.83 851.351 364.78
263.83 864.865 364.78
263.83 878.378 364.78
268.085 405.405 578.616
268.085 418.919 578.616
268.085 432.432 578.616
268.085 445.946 628.931
268.085 472.973 823.899
268.085 486.486 452.83
268.085 500 855.346
268.085 527.027 949.686
268.085 554.054 949.686
268.085 581.081 899.371
268.085 608.108 886.792
268.085 635.135 842.767
268.085 648.649 207.547
268.085 662.162 792.453
268.085 689.189 805.031
268.085 702.703 358.491
268.085 716.216 748.428
268.085 743.243 742.138
268.085 756.757 157.233
268.085 770.27 723.27
268.085 797.297 710.692
268.085 810.811 295.597
268.085 824.324 704.403
268.085 851.351 364.78
268.085 864.865 364.78
268.085 878.378 364.78
272.34 418.919 578.616
272.34 432.432 578.616
272.34 445.946 578.616
272.34 472.973 685.535
272.34 486.486 452.83
272.34 500 798.742
272.34 527.027 949.686
272.34 540.541 18.8679
272.34 554.054 949.686
272.34 581.081 918.239
272.34 608.108 899.371
272.34 635.135 849.057
272.34 648.649 169.811
272.34 662.162 830.189
272.34 689.189 836.478
272.34 702.703 119.497
272.34 716.216 817.61
272.34 743.243 798.742
272.34 756.757 18.8679
272.34 770.27 748.428
272.34 797.297 735.849
272.34 810.811 157.233
272.34 824.324 729.56
272.34 851.351 364.78
272.34 864.865 364.78
272.34 878.378 364.78
276.596 418.919 213.836
276.596 432.432 213.836
276.596 445.946 578.616
276.596 472.973 566.038
276.596 486.486 566.038
276.596 500 685.535
276.596 527.027 949.686
276.596 540.541 0
276.596 554.054 949.686
276.596 581.081 937.107
276.596 608.108 918.239
276.596 635.135 849.057
276.596 648.649 56.6038
276.596 662.162 842.767
276.596 689.189 855.346
276.596 702.703 113.208
276.596 716.216 823.899
276.596 743.243 830.189
276.596 756.757 100.629
276.596 770.27 798.742
276.596 797.297 748.428
276.596 810.811 50.3145
276.596 824.324 735.849
276.596 851.351 371.069
276.596 864.865 371.069
276.596 878.378 364.78
280.851 418.919 213.836
280.851 432.432 213.836
280.851 445.946 213.836
280.851 472.973 559.748
280.851 486.486 559.748
280.851 500 566.038
280.851 527.027 930.818
280.851 540.541 81.761
280.851 554.054 943.396
280.851 581.081 955.975
280.851 608.108 937.107
280.851 635.135 861.635
280.851 648.649 44.0252
280.851 662.162 855.346
280.851 689.189 855.346
280.851 702.703 75.4717
280.851 716.216 842.767
280.851 743.243 836.478
280.851 756.757 31.4465
280.851 770.27 823.899
280.851 797.297 761.006
280.851 810.811 62.8931
280.851 824.324 748.428
280.851 851.351 371.069
280.851 864.865 371.069
280.851 878.378 371.069
285.106 418.919 213.836
285.106 432.432 213.836
285.106 445.946 213.836
285.106 472.973 547.17
285.106 486.486 547.17
285.106 500 559.748
285.106 527.027 924.528
285.106 540.541 62.8931
285.106 554.054 930.818
285.106 581.081 962.264
285.106 608.108 955.975
285.106 635.135 874.214
285.106 662.162 861.635
285.106 689.189 861.635
285.106 702.703 69.1824
285.106 716.216 861.635
285.106 743.243 842.767
285.106 770.27 836.478
285.106 797.297 767.296
285.106 810.811 88.0503
285.106 824.324 761.006
285.106 878.378 371.069
289.362 418.919 220.126
289.362 432.432 220.126
289.362 445.946 213.836
289.362 472.973 547.17
289.362 486.486 547.17
289.362 500 547.17
289.362 527.027 905.66
289.362 540.541 138.365
289.362 554.054 924.528
289.362 581.081 974.843
289.362 608.108 968.553
289.362 635.135 880.503
289.362 662.162 874.214
289.362 689.189 867.925
289.362 702.703 62.8931
289.362 716.216 861.635
289.362 743.243 842.767
289.362 770.27 842.767
289.362 797.297 761.006
289.362 810.811 251.572
289.362 824.324 767.296
293.617 445.946 220.126
293.617 472.973 220.126
293.617 486.486 220.126
293.617 500 547.17
293.617 527.027 880.503
293.617 540.541 56.6038
293.617 554.054 911.95
293.617 581.081 974.843
293.617 608.108 974.843
293.617 635.135 886.792
293.617 662.162 880.503
293.617 689.189 867.925
293.617 702.703 50.3145
293.617 716.216 867.925
293.617 743.243 836.478
293.617 770.27 842.767
293.617 797.297 723.27
293.617 810.811 490.566
293.617 824.324 767.296
297.872 472.973 396.226
297.872 486.486 396.226
297.872 500 433.962
297.872 527.027 886.792
297.872 540.541 119.497
297.872 554.054 880.503
297.872 581.081 981.132
297.872 608.108 974.843
297.872 635.135 899.371
297.872 648.649 31.4465
297.872 662.162 880.503
297.872 689.189 867.925
297.872 702.703 6.28931
297.872 716.216 867.925
297.872 743.243 817.61
297.872 756.757 44.0252
297.872 770.27 836.478
297.872 797.297 440.252
297.872 810.811 440.252
297.872 824.324 723.27
302.128 270.27 169.811
302.128 283.784 169.811
302.128 297.297 169.811
302.128 472.973 716.981
302.128 486.486 584.906
302.128 500 716.981
302.128 527.027 886.792
302.128 540.541 113.208
302.128 554.054 880.503
302.128 581.081 974.843
302.128 608.108 981.132
302.128 635.135 905.66
302.128 648.649 50.3145
302.128 662.162 905.66
302.128 689.189 874.214
302.128 702.703 6.28931
302.128 716.216 867.925
302.128 743.243 805.031
302.128 756.757 100.629
302.128 770.27 817.61
302.128 824.324 440.252
306.383 270.27 169.811
306.383 283.784 169.811
306.383 297.297 169.811
306.383 324.324 176.101
306.383 337.838 176.101
306.383 351.351 176.101
306.383 472.973 761.006
306.383 486.486 352.201
306.383 500 761.006
306.383 527.027 893.082
306.383 540.541 37.7358
306.383 554.054 886.792
306.383 581.081 962.264
306.383 608.108 974.843
306.383 635.135 918.239
306.383 648.649 44.0252
306.383 662.162 911.95
306.383 689.189 874.214
306.383 702.703 18.8679
306.383 716.216 867.925
306.383 743.243 779.874
306.383 756.757 207.547
306.383 770.27 798.742
306.383 797.297 308.176
306.383 810.811 308.176
306.383 824.324 308.176
310.638 175.676 138.365
310.638 189.189 138.365
310.638 202.703 138.365
310.638 297.297 169.811
310.638 324.324 176.101
310.638 337.838 176.101
310.638 351.351 176.101
310.638 378.378 182.39
310.638 391.892 182.39
310.638 405.405 182.39
310.638 472.973 792.453
310.638 486.486 232.704
310.638 500 792.453
310.638 527.027 911.95
310.638 540.541 25.1572
310.638 554.054 893.082
310.638 581.081 955.975
310.638 594.595 18.8679
310.638 608.108 968.553
310.638 635.135 924.528
310.638 648.649 56.6038
310.638 662.162 918.239
310.638 689.189 867.925
310.638 702.703 50.3145
310.638 716.216 867.925
310.638 743.243 786.164
310.638 756.757 257.862
310.638 770.27 779.874
310.638 797.297 308.176
310.638 810.811 308.176
310.638 824.324 308.176
314.894 175.676 138.365
314.894 189.189 138.365
314.894 202.703 138.365
314.894 324.324 157.233
314.894 337.838 157.233
314.894 351.351 169.811
314.894 378.378 188.679
314.894 391.892 188.679
314.894 405.405 188.679
314.894 418.919 396.226
314.894 432.432 396.226
314.894 445.946 396.226
314.894 472.973 811.321
314.894 486.486 88.0503
314.894 500 805.031
314.894 527.027 943.396
314.894 540.541 100.629
314.894 554.054 937.107
314.894 581.081 955.975
314.894 608.108 955.975
314.894 635.135 899.371
314.894 648.649 113.208
314.894 662.162 899.371
314.894 689.189 880.503
314.894 702.703 25.1572
314.894 716.216 874.214
314.894 743.243 811.321
314.894 756.757 308.176
314.894 770.27 805.031
314.894 797.297 314.465
314.894 810.811 314.465
314.894 824.324 308.176
319.149 175.676 138.365
319.149 189.189 138.365
319.149 202.703 138.365
319.149 324.324 138.365
319.149 337.838 138.365
319.149 351.351 157.233
319.149 378.378 182.39
319.149 391.892 182.39
319.149 405.405 182.39
319.149 418.919 610.063
319.149 432.432 610.063
319.149 445.946 610.063
319.149 472.973 805.031
319.149 486.486 94.3396
319.149 500 798.742
319.149 527.027 949.686
319.149 540.541 37.7358
319.149 554.054 943.396
319.149 581.081 962.264
319.149 608.108 962.264
319.149 635.135 874.214
319.149 648.649 75.4717
319.149 662.162 880.503
319.149 689.189 874.214
319.149 702.703 88.0503
319.149 716.216 867.925
319.149 743.243 817.61
319.149 756.757 333.333
319.149 770.27 805.031
319.149 797.297 314.465
319.149 810.811 314.465
319.149 824.324 314.465
323.404 202.703 138.365
323.404 324.324 138.365
323.404 337.838 138.365
323.404 351.351 138.365
323.404 378.378 169.811
323.404 391.892 169.811
323.404 405.405 182.39
323.404 418.919 710.692
323.404 432.432 534.591
323.404 445.946 710.692
323.404 472.973 830.189
323.404 486.486 144.654
323.404 500 811.321
323.404 527.027 943.396
323.404 540.541 31.4465
323.404 554.054 949.686
323.404 581.081 968.553
323.404 608.108 955.975
323.404 635.135 880.503
323.404 648.649 75.4717
323.404 662.162 874.214
323.404 689.189 867.925
323.404 702.703 150.943
323.404 716.216 867.925
323.404 743.243 811.321
323.404 756.757 226.415
323.404 770.27 817.61
323.404 797.297 314.465
323.404 810.811 314.465
323.404 824.324 314.465
327.66 270.27 138.365
327.66 283.784 138.365
327.66 297.297 138.365
327.66 324.324 138.365
327.66 337.838 138.365
327.66 351.351 138.365
327.66 378.378 169.811
327.66 391.892 169.811
327.66 405.405 169.811
327.66 418.919 735.849
327.66 432.432 276.73
327.66 445.946 729.56
327.66 472.973 855.346
327.66 486.486 182.39
327.66 500 842.767
327.66 527.027 937.107
327.66 540.541 106.918
327.66 554.054 930.818
327.66 581.081 968.553
327.66 608.108 968.553
327.66 635.135 899.371
327.66 648.649 56.6038
327.66 662.162 880.503
327.66 689.189 861.635
327.66 702.703 94.3396
327.66 716.216 855.346
327.66 743.243 798.742
327.66 756.757 289.308
327.66 770.27 805.031
327.66 797.297 440.252
327.66 810.811 440.252
327.66 824.324 440.252
331.915 270.27 138.365
331.915 283.784 138.365
331.915 297.297 138.365
331.915 324.324 138.365
331.915 337.838 138.365
331.915 351.351 138.365
331.915 378.378 377.358
331.915 391.892 377.358
331.915 405.405 383.648
331.915 418.919 773.585
331.915 432.432 226.415
331.915 445.946 767.296
331.915 472.973 867.925
331.915 486.486 150.943
331.915 500 855.346
331.915 527.027 937.107
331.915 540.541 25.1572
331.915 554.054 937.107
331.915 581.081 968.553
331.915 608.108 968.553
331.915 635.135 905.66
331.915 648.649 75.4717
331.915 662.162 899.371
331.915 689.189 874.214
331.915 702.703 56.6038
331.915 716.216 861.635
331.915 743.243 798.742
331.915 756.757 257.862
331.915 770.27 792.453
331.915 797.297 547.17
331.915 810.811 396.226
331.915 824.324 547.17
336.17 297.297 138.365
336.17 324.324 138.365
336.17 337.838 138.365
336.17 351.351 138.365
336.17 378.378 672.956
336.17 391.892 559.748
336.17 405.405 672.956
336.17 418.919 786.164
336.17 432.432 50.3145
336.17 445.946 779.874
336.17 472.973 874.214
336.17 486.486 88.0503
336.17 500 867.925
336.17 527.027 930.818
336.17 540.541 62.8931
336.17 554.054 924.528
336.17 581.081 962.264
336.17 608.108 968.553
336.17 635.135 905.66
336.17 648.649 81.761
336.17 662.162 911.95
336.17 689.189 886.792
336.17 702.703 69.1824
336.17 716.216 867.925
336.17 743.243 811.321
336.17 756.757 257.862
336.17 770.27 798.742
336.17 797.297 591.195
336.17 810.811 320.755
336.17 824.324 591.195
340.426 324.324 144.654
340.426 337.838 144.654
340.426 351.351 138.365
340.426 378.378 735.849
340.426 391.892 352.201
340.426 405.405 735.849
340.426 418.919 805.031
340.426 432.432 119.497
340.426 445.946 798.742
340.426 472.973 874.214
340.426 486.486 25.1572
340.426 500 867.925
340.426 527.027 918.239
340.426 540.541 119.497
340.426 554.054 924.528
340.426 581.081 962.264
340.426 608.108 962.264
340.426 635.135 943.396
340.426 648.649 44.0252
340.426 662.162 911.95
340.426 689.189 899.371
340.426 702.703 50.3145
340.426 716.216 886.792
340.426 743.243 811.321
340.426 756.757 220.126
340.426 770.27 805.031
340.426 797.297 622.642
340.426 810.811 377.358
340.426 824.324 616.352
344.681 324.324 144.654
344.681 337.838 144.654
344.681 351.351 144.654
344.681 378.378 742.138
344.681 391.892 62.8931
344.681 405.405 735.849
344.681 418.919 817.61
344.681 432.432 125.786
344.681 445.946 811.321
344.681 472.973 867.925
344.681 486.486 0
344.681 500 874.214
344.681 527.027 918.239
344.681 540.541 50.3145
344.681 554.054 911.95
344.681 581.081 955.975
344.681 608.108 962.264
344.681 635.135 949.686
344.681 648.649 31.4465
344.681 662.162 937.107
344.681 689.189 905.66
344.681 702.703 50.3145
344.681 716.216 899.371
344.681 743.243 836.478
344.681 756.757 188.679
344.681 770.27 817.61
344.681 797.297 647.799
344.681 810.811 402.516
344.681 824.324 647.799
348.936 351.351 144.654
348.936 378.378 754.717
348.936 405.405 748.428
348.936 418.919 830.189
348.936 432.432 201.258
348.936 445.946 830.189
348.936 472.973 874.214
348.936 486.486 25.1572
348.936 500 867.925
348.936 527.027 930.818
348.936 554.054 918.239
348.936 581.081 962.264
348.936 594.595 0
348.936 608.108 962.264
348.936 635.135 937.107
348.936 648.649 50.3145
348.936 662.162 949.686
348.936 689.189 905.66
348.936 702.703 31.4465
348.936 716.216 905.66
348.936 743.243 880.503
348.936 756.757 182.39
348.936 770.27 842.767
348.936 797.297 647.799
348.936 810.811 132.075
348.936 824.324 647.799
353.191 378.378 761.006
353.191 405.405 754.717
353.191 418.919 836.478
353.191 432.432 50.3145
353.191 445.946 836.478
353.191 472.973 874.214
353.191 500 874.214
353.191 527.027 937.107
353.191 554.054 924.528
353.191 581.081 968.553
353.191 594.595 6.28931
353.191 608.108 962.264
353.191 635.135 911.95
353.191 648.649 75.4717
353.191 662.162 924.528
353.191 689.189 918.239
353.191 702.703 100.629
353.191 716.216 905.66
353.191 743.243 930.818
353.191 756.757 188.679
353.191 770.27 880.503
353.191 797.297 647.799
353.191 810.811 81.761
353.191 824.324 647.799
353.191 851.351 446.541
353.191 864.865 446.541
353.191 878.378 446.541
357.447 378.378 779.874
357.447 405.405 773.585
357.447 418.919 849.057
357.447 432.432 0
357.447 445.946 842.767
357.447 472.973 886.792
357.447 500 874.214
357.447 527.027 937.107
357.447 554.054 937.107
357.447 581.081 968.553
357.447 594.595 0
357.447 608.108 968.553
357.447 635.135 905.66
357.447 648.649 69.1824
357.447 662.162 918.239
357.447 689.189 905.66
357.447 702.703 138.365
357.447 716.216 911.95
357.447 743.243 949.686
357.447 756.757 132.075
357.447 770.27 930.818
357.447 797.297 647.799
357.447 810.811 88.0503
357.447 824.324 654.088
357.447 851.351 446.541
357.447 864.865 320.755
357.447 878.378 446.541
361.702 378.378 811.321
361.702 391.892 150.943
361.702 405.405 805.031
361.702 418.919 874.214
361.702 432.432 31.4465
361.702 445.946 849.057
361.702 472.973 893.082
361.702 486.486 56.6038
361.702 500 886.792
361.702 527.027 937.107
361.702 554.054 937.107
361.702 581.081 968.553
361.702 594.595 6.28931
361.702 608.108 968.553
361.702 635.135 905.66
361.702 648.649 75.4717
361.702 662.162 899.371
361.702 689.189 905.66
361.702 702.703 125.786
361.702 716.216 905.66
361.702 743.243 962.264
361.702 756.757 44.0252
361.702 770.27 949.686
361.702 797.297 672.956
361.702 810.811 100.629
361.702 824.324 672.956
361.702 851.351 547.17
361.702 864.865 245.283
361.702 878.378 547.17
365.957 378.378 830.189
365.957 391.892 201.258
365.957 405.405 823.899
365.957 418.919 874.214
365.957 445.946 874.214
365.957 472.973 893.082
365.957 486.486 56.6038
365.957 500 893.082
365.957 527.027 937.107
365.957 554.054 937.107
365.957 581.081 968.553
365.957 608.108 968.553
365.957 635.135 899.371
365.957 648.649 88.0503
365.957 662.162 899.371
365.957 689.189 905.66
365.957 702.703 119.497
365.957 716.216 905.66
365.957 743.243 949.686
365.957 756.757 62.8931
365.957 770.27 943.396
365.957 797.297 723.27
365.957 810.811 119.497
365.957 824.324 685.535
365.957 851.351 547.17
365.957 864.865 94.3396
365.957 878.378 547.17
370.213 378.378 855.346
370.213 391.892 50.3145
370.213 405.405 830.189
370.213 418.919 880.503
370.213 445.946 874.214
370.213 472.973 893.082
370.213 486.486 125.786
370.213 500 886.792
370.213 527.027 937.107
370.213 554.054 937.107
370.213 581.081 962.264
370.213 608.108 968.553
370.213 635.135 893.082
370.213 648.649 50.3145
370.213 662.162 893.082
370.213 689.189 918.239
370.213 702.703 69.1824
370.213 716.216 905.66
370.213 743.243 949.686
370.213 756.757 75.4717
370.213 770.27 949.686
370.213 797.297 742.138
370.213 810.811 157.233
370.213 824.324 716.981
370.213 851.351 547.17
370.213 864.865 132.075
370.213 878.378 547.17
370.213 905.405 320.755
370.213 918.919 320.755
370.213 932.432 320.755
374.468 324.324 389.937
374.468 337.838 389.937
374.468 351.351 389.937
374.468 378.378 855.346
374.468 391.892 132.075
374.468 405.405 855.346
374.468 418.919 880.503
374.468 432.432 25.1572
374.468 445.946 880.503
374.468 472.973 886.792
374.468 486.486 119.497
374.468 500 886.792
374.468 527.027 943.396
374.468 554.054 943.396
374.468 581.081 968.553
374.468 608.108 968.553
374.468 635.135 880.503
374.468 648.649 81.761
374.468 662.162 880.503
374.468 689.189 899.371
374.468 702.703 94.3396
374.468 716.216 905.66
374.468 743.243 949.686
374.468 756.757 119.497
374.468 770.27 949.686
374.468 797.297 748.428
374.468 810.811 207.547
374.468 824.324 742.138
374.468 851.351 572.327
374.468 864.865 245.283
374.468 878.378 572.327
374.468 905.405 320.755
374.468 918.919 320.755
374.468 932.432 320.755
378.723 324.324 540.881
378.723 337.838 245.283
378.723 351.351 540.881
378.723 378.378 855.346
378.723 391.892 100.629
378.723 405.405 855.346
378.723 418.919 880.503
378.723 432.432 31.4465
378.723 445.946 880.503
378.723 472.973 886.792
378.723 486.486 44.0252
378.723 500 886.792
378.723 527.027 943.396
378.723 554.054 943.396
378.723 581.081 974.843
378.723 608.108 968.553
378.723 635.135 874.214
378.723 648.649 56.6038
378.723 662.162 880.503
378.723 689.189 911.95
378.723 702.703 194.969
378.723 716.216 905.66
378.723 743.243 924.528
378.723 756.757 144.654
378.723 770.27 930.818
378.723 797.297 767.296
378.723 810.811 270.44
378.723 824.324 761.006
378.723 851.351 591.195
378.723 864.865 157.233
378.723 878.378 591.195
378.723 905.405 320.755
378.723 918.919 320.755
378.723 932.432 320.755
382.979 324.324 610.063
382.979 337.838 169.811
382.979 351.351 610.063
382.979 378.378 855.346
382.979 391.892 44.0252
382.979 405.405 855.346
382.979 418.919 880.503
382.979 445.946 880.503
382.979 472.973 886.792
382.979 486.486 50.3145
382.979 500 886.792
382.979 527.027 943.396
382.979 554.054 943.396
382.979 581.081 962.264
382.979 594.595 0
382.979 608.108 968.553
382.979 635.135 867.925
382.979 648.649 100.629
382.979 662.162 867.925
382.979 689.189 905.66
382.979 702.703 182.39
382.979 716.216 905.66
382.979 743.243 905.66
382.979 756.757 201.258
382.979 770.27 911.95
382.979 797.297 767.296
382.979 810.811 270.44
382.979 824.324 761.006
382.979 851.351 572.327
382.979 864.865 69.1824
382.979 878.378 591.195
382.979 905.405 446.541
382.979 918.919 194.969
382.979 932.432 446.541
387.234 324.324 723.27
387.234 337.838 452.83
387.234 351.351 723.27
387.234 378.378 855.346
387.234 405.405 855.346
387.234 418.919 880.503
387.234 432.432 18.8679
387.234 445.946 880.503
387.234 472.973 886.792
387.234 500 886.792
387.234 527.027 943.396
387.234 554.054 943.396
387.234 581.081 949.686
387.234 594.595 0
387.234 608.108 962.264
387.234 635.135 874.214
387.234 648.649 106.918
387.234 662.162 861.635
387.234 689.189 899.371
387.234 702.703 194.969
387.234 716.216 905.66
387.234 743.243 905.66
387.234 756.757 157.233
387.234 770.27 905.66
387.234 797.297 779.874
387.234 810.811 157.233
387.234 824.324 767.296
387.234 851.351 584.906
387.234 864.865 320.755
387.234 878.378 591.195
387.234 905.405 446.541
387.234 918.919 194.969
387.234 932.432 446.541
391.489 324.324 754.717
391.489 337.838 295.597
391.489 351.351 754.717
391.489 378.378 861.635
391.489 405.405 855.346
391.489 418.919 880.503
391.489 432.432 50.3145
391.489 445.946 880.503
391.489 472.973 886.792
391.489 500 886.792
391.489 527.027 943.396
391.489 554.054 943.396
391.489 581.081 949.686
391.489 594.595 6.28931
391.489 608.108 949.686
391.489 635.135 880.503
391.489 648.649 37.7358
391.489 662.162 880.503
391.489 689.189 911.95
391.489 702.703 94.3396
391.489 716.216 899.371
391.489 743.243 893.082
391.489 756.757 157.233
391.489 770.27 899.371
391.489 797.297 754.717
391.489 810.811 201.258
391.489 824.324 773.585
391.489 851.351 547.17
391.489 864.865 320.755
391.489 878.378 584.906
391.489 905.405 446.541
391.489 918.919 320.755
391.489 932.432 446.541
395.745 324.324 767.296
395.745 351.351 761.006
395.745 378.378 861.635
395.745 405.405 861.635
395.745 418.919 880.503
395.745 432.432 12.5786
395.745 445.946 880.503
395.745 472.973 893.082
395.745 500 893.082
395.745 527.027 943.396
395.745 554.054 943.396
395.745 581.081 949.686
395.745 594.595 0
395.745 608.108 949.686
395.745 635.135 886.792
395.745 648.649 50.3145
395.745 662.162 880.503
