185.654 702.128 362.573
185.654 712.766 362.573
185.654 723.404 362.573
185.654 734.043 368.421
185.654 744.681 122.807
185.654 755.319 385.965
189.873 170.213 356.725
189.873 180.851 456.14
189.873 191.489 415.205
189.873 202.128 403.509
189.873 212.766 345.029
189.873 223.404 233.918
189.873 234.043 426.901
189.873 244.681 415.205
189.873 255.319 292.398
189.873 265.957 450.292
189.873 276.596 409.357
189.873 287.234 298.246
189.873 297.872 543.86
189.873 308.511 426.901
189.873 319.149 549.708
189.873 329.787 549.708
189.873 340.426 485.38
189.873 351.064 549.708
189.873 361.702 678.363
189.873 372.34 520.468
189.873 382.979 619.883
189.873 393.617 742.69
189.873 404.255 567.251
189.873 414.894 538.012
189.873 425.532 637.427
189.873 436.17 596.491
189.873 446.809 690.058
189.873 457.447 649.123
189.873 468.085 596.491
189.873 478.723 684.211
189.873 489.362 619.883
189.873 500 619.883
189.873 510.638 567.251
189.873 521.277 415.205
189.873 531.915 526.316
189.873 542.553 637.427
189.873 553.191 637.427
189.873 563.83 654.971
189.873 574.468 573.099
189.873 585.106 637.427
189.873 595.745 491.228
189.873 606.383 602.339
189.873 617.021 532.164
189.873 627.66 210.526
189.873 638.298 362.573
189.873 648.936 362.573
189.873 659.574 362.573
189.873 670.213 362.573
189.873 680.851 362.573
189.873 691.489 362.573
189.873 702.128 362.573
189.873 712.766 362.573
189.873 723.404 362.573
189.873 734.043 368.421
189.873 744.681 122.807
189.873 755.319 385.965
189.873 765.957 385.965
194.093 170.213 327.485
194.093 180.851 444.444
194.093 191.489 403.509
194.093 202.128 345.029
194.093 212.766 228.07
194.093 223.404 426.901
194.093 234.043 415.205
194.093 244.681 409.357
194.093 255.319 292.398
194.093 265.957 450.292
194.093 276.596 409.357
194.093 287.234 292.398
194.093 297.872 461.988
194.093 308.511 543.86
194.093 319.149 467.836
194.093 329.787 485.38
194.093 340.426 526.316
194.093 351.064 520.468
194.093 361.702 666.667
194.093 372.34 619.883
194.093 382.979 736.842
194.093 393.617 695.906
194.093 404.255 666.667
194.093 414.894 596.491
194.093 425.532 578.947
194.093 436.17 695.906
194.093 446.809 678.363
194.093 457.447 619.883
194.093 468.085 701.754
194.093 478.723 643.275
194.093 489.362 444.444
194.093 500 602.339
194.093 510.638 567.251
194.093 521.277 543.86
194.093 531.915 543.86
194.093 542.553 602.339
194.093 553.191 637.427
194.093 563.83 637.427
194.093 574.468 491.228
194.093 585.106 602.339
194.093 595.745 631.579
194.093 606.383 561.404
194.093 617.021 538.012
194.093 627.66 374.269
194.093 638.298 362.573
194.093 648.936 362.573
194.093 659.574 362.573
194.093 670.213 362.573
194.093 680.851 362.573
194.093 691.489 362.573
194.093 702.128 362.573
194.093 712.766 362.573
194.093 723.404 362.573
194.093 734.043 368.421
194.093 744.681 122.807
194.093 755.319 385.965
194.093 765.957 385.965
198.312 159.574 409.357
198.312 170.213 409.357
198.312 180.851 473.684
198.312 191.489 403.509
198.312 202.128 286.55
198.312 212.766 450.292
198.312 223.404 415.205
198.312 234.043 409.357
198.312 244.681 350.877
198.312 255.319 233.918
198.312 265.957 432.749
198.312 276.596 409.357
198.312 287.234 292.398
198.312 297.872 456.14
198.312 308.511 479.532
198.312 319.149 327.485
198.312 329.787 608.187
198.312 340.426 561.404
198.312 351.064 719.298
198.312 361.702 561.404
198.312 372.34 573.099
198.312 382.979 654.971
198.312 393.617 625.731
198.312 404.255 619.883
198.312 414.894 508.772
198.312 425.532 485.38
198.312 436.17 695.906
198.312 446.809 684.211
198.312 457.447 619.883
198.312 468.085 701.754
198.312 478.723 619.883
198.312 489.362 479.532
198.312 500 573.099
198.312 510.638 543.86
198.312 521.277 561.404
198.312 531.915 631.579
198.312 542.553 567.251
198.312 553.191 637.427
198.312 563.83 637.427
198.312 574.468 631.579
198.312 585.106 573.099
198.312 595.745 631.579
198.312 606.383 497.076
198.312 617.021 538.012
198.312 627.66 561.404
198.312 638.298 362.573
198.312 648.936 362.573
198.312 659.574 362.573
198.312 670.213 362.573
198.312 680.851 362.573
198.312 691.489 362.573
198.312 702.128 362.573
198.312 712.766 362.573
198.312 723.404 362.573
198.312 734.043 368.421
198.312 744.681 122.807
198.312 755.319 385.965
198.312 765.957 385.965
198.312 776.596 385.965
202.532 159.574 409.357
202.532 170.213 456.14
202.532 180.851 298.246
202.532 191.489 345.029
202.532 202.128 228.07
202.532 212.766 432.749
202.532 223.404 409.357
202.532 234.043 409.357
202.532 244.681 292.398
202.532 255.319 450.292
202.532 265.957 421.053
202.532 276.596 409.357
202.532 287.234 292.398
202.532 297.872 456.14
202.532 308.511 409.357
202.532 319.149 304.094
202.532 329.787 573.099
202.532 340.426 690.058
202.532 351.064 637.427
202.532 361.702 555.556
202.532 372.34 690.058
202.532 382.979 690.058
202.532 393.617 549.708
202.532 404.255 584.795
202.532 414.894 590.643
202.532 425.532 403.509
202.532 436.17 690.058
202.532 446.809 649.123
202.532 457.447 596.491
202.532 468.085 690.058
202.532 478.723 619.883
202.532 489.362 467.836
202.532 500 502.924
202.532 510.638 543.86
202.532 521.277 631.579
202.532 531.915 631.579
202.532 542.553 485.38
202.532 553.191 596.491
202.532 563.83 637.427
202.532 574.468 637.427
202.532 585.106 502.924
202.532 595.745 637.427
202.532 606.383 485.38
202.532 617.021 491.228
202.532 627.66 561.404
202.532 638.298 362.573
202.532 648.936 362.573
202.532 659.574 362.573
202.532 670.213 362.573
202.532 680.851 362.573
202.532 691.489 362.573
202.532 702.128 362.573
202.532 712.766 368.421
202.532 723.404 368.421
202.532 734.043 368.421
202.532 744.681 122.807
202.532 755.319 385.965
202.532 765.957 385.965
202.532 776.596 385.965
206.751 159.574 409.357
206.751 170.213 456.14
206.751 180.851 292.398
206.751 191.489 350.877
206.751 202.128 450.292
206.751 212.766 421.053
206.751 223.404 409.357
206.751 234.043 350.877
206.751 244.681 233.918
206.751 255.319 432.749
206.751 265.957 409.357
206.751 276.596 409.357
206.751 287.234 292.398
206.751 297.872 456.14
206.751 308.511 350.877
206.751 319.149 280.702
206.751 329.787 608.187
206.751 340.426 561.404
206.751 351.064 684.211
206.751 361.702 497.076
206.751 372.34 608.187
206.751 382.979 619.883
206.751 393.617 584.795
206.751 404.255 538.012
206.751 414.894 561.404
206.751 425.532 479.532
206.751 436.17 684.211
206.751 446.809 619.883
206.751 457.447 701.754
206.751 468.085 654.971
206.751 478.723 602.339
206.751 489.362 403.509
206.751 500 467.836
206.751 510.638 573.099
206.751 521.277 608.187
206.751 531.915 637.427
206.751 542.553 631.579
206.751 553.191 573.099
206.751 563.83 637.427
206.751 574.468 637.427
206.751 585.106 502.924
206.751 595.745 637.427
206.751 606.383 631.579
206.751 617.021 467.836
206.751 627.66 561.404
206.751 638.298 362.573
206.751 648.936 362.573
206.751 659.574 362.573
206.751 670.213 362.573
206.751 680.851 362.573
206.751 691.489 368.421
206.751 702.128 368.421
206.751 712.766 368.421
206.751 723.404 368.421
206.751 734.043 374.269
206.751 744.681 175.439
206.751 755.319 385.965
206.751 765.957 385.965
206.751 776.596 385.965
210.97 170.213 456.14
210.97 180.851 292.398
210.97 191.489 350.877
210.97 202.128 450.292
210.97 212.766 409.357
210.97 223.404 409.357
210.97 234.043 292.398
210.97 244.681 450.292
210.97 255.319 421.053
210.97 265.957 409.357
210.97 276.596 350.877
210.97 287.234 233.918
210.97 297.872 432.749
210.97 308.511 298.246
210.97 319.149 473.684
210.97 329.787 631.579
210.97 340.426 578.947
210.97 351.064 567.251
210.97 361.702 380.117
210.97 372.34 520.468
210.97 382.979 555.556
210.97 393.617 684.211
210.97 404.255 497.076
210.97 414.894 561.404
210.97 425.532 473.684
210.97 436.17 654.971
210.97 446.809 619.883
210.97 457.447 701.754
210.97 468.085 625.731
210.97 478.723 619.883
210.97 489.362 549.708
210.97 500 426.901
210.97 510.638 619.883
210.97 521.277 584.795
210.97 531.915 637.427
210.97 542.553 631.579
210.97 553.191 502.924
210.97 563.83 643.275
210.97 574.468 637.427
210.97 585.106 502.924
210.97 595.745 637.427
210.97 606.383 532.164
210.97 617.021 409.357
210.97 627.66 631.579
210.97 638.298 368.421
210.97 648.936 362.573
210.97 659.574 362.573
210.97 670.213 368.421
210.97 680.851 368.421
210.97 691.489 368.421
210.97 702.128 368.421
210.97 712.766 368.421
210.97 723.404 368.421
210.97 734.043 122.807
210.97 744.681 228.07
210.97 755.319 385.965
210.97 765.957 385.965
210.97 776.596 385.965
210.97 787.234 385.965
215.19 170.213 491.228
215.19 180.851 292.398
215.19 191.489 350.877
215.19 202.128 450.292
215.19 212.766 409.357
215.19 223.404 409.357
215.19 234.043 292.398
215.19 244.681 450.292
215.19 255.319 409.357
215.19 265.957 409.357
215.19 276.596 292.398
215.19 287.234 456.14
215.19 297.872 421.053
215.19 308.511 298.246
215.19 319.149 590.643
215.19 329.787 625.731
215.19 340.426 666.667
215.19 351.064 532.164
215.19 361.702 567.251
215.19 372.34 467.836
215.19 382.979 578.947
215.19 393.617 684.211
215.19 404.255 421.053
215.19 414.894 561.404
215.19 425.532 473.684
215.19 436.17 602.339
215.19 446.809 596.491
215.19 457.447 695.906
215.19 468.085 625.731
215.19 478.723 596.491
215.19 489.362 520.468
215.19 500 269.006
215.19 510.638 614.035
215.19 521.277 561.404
215.19 531.915 608.187
215.19 542.553 637.427
215.19 553.191 502.924
215.19 563.83 643.275
215.19 574.468 643.275
215.19 585.106 491.228
215.19 595.745 602.339
215.19 606.383 538.012
215.19 617.021 502.924
215.19 627.66 631.579
215.19 638.298 368.421
215.19 648.936 368.421
215.19 659.574 368.421
215.19 670.213 368.421
215.19 680.851 368.421
215.19 691.489 368.421
215.19 702.128 368.421
215.19 712.766 368.421
215.19 723.404 368.421
215.19 734.043 122.807
215.19 744.681 385.965
215.19 755.319 385.965
215.19 765.957 385.965
215.19 776.596 385.965
215.19 787.234 385.965
219.409 170.213 450.292
219.409 180.851 292.398
219.409 191.489 350.877
219.409 202.128 456.14
219.409 212.766 409.357
219.409 223.404 409.357
219.409 234.043 292.398
219.409 244.681 450.292
219.409 255.319 409.357
219.409 265.957 409.357
219.409 276.596 292.398
219.409 287.234 456.14
219.409 297.872 409.357
219.409 308.511 298.246
219.409 319.149 631.579
219.409 329.787 608.187
219.409 340.426 684.211
219.409 351.064 532.164
219.409 361.702 584.795
219.409 372.34 467.836
219.409 382.979 555.556
219.409 393.617 660.819
219.409 404.255 391.813
219.409 414.894 549.708
219.409 425.532 473.684
219.409 436.17 520.468
219.409 446.809 701.754
219.409 457.447 690.058
219.409 468.085 666.667
219.409 478.723 578.947
219.409 489.362 497.076
219.409 500 397.661
219.409 510.638 608.187
219.409 521.277 608.187
219.409 531.915 590.643
219.409 542.553 637.427
219.409 553.191 508.772
219.409 563.83 643.275
219.409 574.468 643.275
219.409 585.106 643.275
219.409 595.745 573.099
219.409 606.383 538.012
219.409 617.021 508.772
219.409 627.66 637.427
219.409 638.298 403.509
219.409 648.936 368.421
219.409 659.574 368.421
219.409 670.213 368.421
219.409 680.851 368.421
219.409 691.489 368.421
219.409 702.128 368.421
219.409 712.766 368.421
219.409 723.404 380.117
219.409 734.043 169.591
219.409 744.681 385.965
219.409 755.319 385.965
219.409 765.957 385.965
219.409 776.596 385.965
219.409 787.234 385.965
223.629 159.574 456.14
223.629 170.213 426.901
223.629 180.851 292.398
223.629 191.489 356.725
223.629 202.128 456.14
223.629 212.766 409.357
223.629 223.404 409.357
223.629 234.043 350.877
223.629 244.681 473.684
223.629 255.319 409.357
223.629 265.957 409.357
223.629 276.596 292.398
223.629 287.234 456.14
223.629 297.872 409.357
223.629 308.511 292.398
223.629 319.149 619.883
223.629 329.787 578.947
223.629 340.426 684.211
223.629 351.064 532.164
223.629 361.702 584.795
223.629 372.34 467.836
223.629 382.979 508.772
223.629 393.617 567.251
223.629 404.255 304.094
223.629 414.894 532.164
223.629 425.532 479.532
223.629 436.17 514.62
223.629 446.809 678.363
223.629 457.447 690.058
223.629 468.085 666.667
223.629 478.723 578.947
223.629 489.362 491.228
223.629 500 409.357
223.629 510.638 561.404
223.629 521.277 631.579
223.629 531.915 584.795
223.629 542.553 637.427
223.629 553.191 520.468
223.629 563.83 643.275
223.629 574.468 643.275
223.629 585.106 643.275
223.629 595.745 508.772
223.629 606.383 538.012
223.629 617.021 508.772
223.629 627.66 643.275
223.629 638.298 502.924
223.629 648.936 432.749
223.629 659.574 368.421
223.629 670.213 368.421
223.629 680.851 368.421
223.629 691.489 368.421
223.629 702.128 374.269
223.629 712.766 374.269
223.629 723.404 116.959
223.629 734.043 222.222
223.629 744.681 385.965
223.629 755.319 385.965
223.629 765.957 385.965
223.629 776.596 385.965
223.629 787.234 385.965
227.848 148.936 292.398
227.848 159.574 461.988
227.848 170.213 350.877
227.848 180.851 233.918
227.848 191.489 327.485
227.848 202.128 456.14
227.848 212.766 409.357
227.848 223.404 409.357
227.848 234.043 409.357
227.848 244.681 292.398
227.848 255.319 409.357
227.848 265.957 409.357
227.848 276.596 292.398
227.848 287.234 456.14
227.848 297.872 409.357
227.848 308.511 292.398
227.848 319.149 654.971
227.848 329.787 625.731
227.848 340.426 713.45
227.848 351.064 532.164
227.848 361.702 584.795
227.848 372.34 467.836
227.848 382.979 508.772
227.848 393.617 514.62
227.848 404.255 479.532
227.848 414.894 520.468
227.848 425.532 479.532
227.848 436.17 514.62
227.848 446.809 660.819
227.848 457.447 766.082
227.848 468.085 684.211
227.848 478.723 555.556
227.848 489.362 467.836
227.848 500 385.965
227.848 510.638 561.404
227.848 521.277 654.971
227.848 531.915 549.708
227.848 542.553 391.813
227.848 553.191 549.708
227.848 563.83 643.275
227.848 574.468 643.275
227.848 585.106 643.275
227.848 595.745 514.62
227.848 606.383 543.86
227.848 617.021 514.62
227.848 627.66 643.275
227.848 638.298 590.643
227.848 648.936 432.749
227.848 659.574 368.421
227.848 670.213 368.421
227.848 680.851 374.269
227.848 691.489 374.269
227.848 702.128 374.269
227.848 712.766 374.269
227.848 723.404 116.959
227.848 734.043 380.117
227.848 744.681 385.965
227.848 755.319 385.965
227.848 765.957 385.965
227.848 776.596 385.965
227.848 787.234 385.965
232.068 148.936 292.398
232.068 159.574 456.14
232.068 170.213 292.398
232.068 180.851 450.292
232.068 191.489 309.942
232.068 202.128 456.14
232.068 212.766 409.357
232.068 223.404 409.357
232.068 234.043 409.357
232.068 244.681 292.398
232.068 255.319 450.292
232.068 265.957 409.357
232.068 276.596 292.398
232.068 287.234 456.14
232.068 297.872 409.357
232.068 308.511 292.398
232.068 319.149 614.035
232.068 329.787 526.316
232.068 340.426 590.643
232.068 351.064 602.339
232.068 361.702 614.035
232.068 372.34 508.772
232.068 382.979 543.86
232.068 393.617 514.62
232.068 404.255 479.532
232.068 414.894 514.62
232.068 425.532 479.532
232.068 436.17 514.62
232.068 446.809 619.883
232.068 457.447 690.058
232.068 468.085 690.058
232.068 478.723 526.316
232.068 489.362 561.404
232.068 500 380.117
232.068 510.638 549.708
232.068 521.277 631.579
232.068 531.915 649.123
232.068 542.553 461.988
232.068 553.191 637.427
232.068 563.83 649.123
232.068 574.468 643.275
232.068 585.106 649.123
232.068 595.745 514.62
232.068 606.383 549.708
232.068 617.021 532.164
232.068 627.66 520.468
232.068 638.298 608.187
232.068 648.936 532.164
232.068 659.574 368.421
232.068 670.213 374.269
232.068 680.851 374.269
232.068 691.489 374.269
232.068 702.128 374.269
232.068 712.766 374.269
232.068 723.404 111.111
232.068 734.043 380.117
232.068 744.681 380.117
232.068 755.319 385.965
232.068 765.957 385.965
232.068 776.596 385.965
232.068 787.234 385.965
232.068 851.064 444.444
232.068 861.702 444.444
236.287 148.936 292.398
236.287 159.574 456.14
236.287 170.213 292.398
236.287 180.851 450.292
236.287 191.489 350.877
236.287 202.128 479.532
236.287 212.766 409.357
236.287 223.404 409.357
236.287 234.043 409.357
236.287 244.681 350.877
236.287 255.319 473.684
236.287 265.957 409.357
236.287 276.596 350.877
236.287 287.234 479.532
236.287 297.872 409.357
236.287 308.511 292.398
236.287 319.149 643.275
236.287 329.787 555.556
236.287 340.426 614.035
236.287 351.064 666.667
236.287 361.702 596.491
236.287 372.34 596.491
236.287 382.979 456.14
236.287 393.617 520.468
236.287 404.255 497.076
236.287 414.894 514.62
236.287 425.532 479.532
236.287 436.17 514.62
236.287 446.809 625.731
236.287 457.447 690.058
236.287 468.085 690.058
236.287 478.723 555.556
236.287 489.362 578.947
236.287 500 403.509
236.287 510.638 549.708
236.287 521.277 608.187
236.287 531.915 654.971
236.287 542.553 391.813
236.287 553.191 660.819
236.287 563.83 619.883
236.287 574.468 649.123
236.287 585.106 654.971
236.287 595.745 532.164
236.287 606.383 380.117
236.287 617.021 561.404
236.287 627.66 520.468
236.287 638.298 561.404
236.287 648.936 543.86
236.287 659.574 374.269
236.287 670.213 374.269
236.287 680.851 374.269
236.287 691.489 374.269
236.287 702.128 374.269
236.287 712.766 374.269
236.287 723.404 111.111
236.287 734.043 380.117
236.287 744.681 380.117
236.287 755.319 385.965
236.287 765.957 385.965
236.287 776.596 555.556
236.287 787.234 602.339
236.287 797.872 450.292
236.287 829.787 380.117
236.287 840.426 444.444
236.287 851.064 444.444
236.287 861.702 444.444
236.287 872.34 444.444
236.287 882.979 444.444
240.506 148.936 350.877
240.506 159.574 479.532
240.506 170.213 350.877
240.506 180.851 479.532
240.506 191.489 409.357
240.506 202.128 292.398
240.506 212.766 409.357
240.506 223.404 409.357
240.506 234.043 409.357
240.506 244.681 409.357
240.506 255.319 350.877
240.506 265.957 415.205
240.506 276.596 409.357
240.506 287.234 292.398
240.506 297.872 409.357
240.506 308.511 350.877
240.506 319.149 602.339
240.506 329.787 561.404
240.506 340.426 608.187
240.506 351.064 678.363
240.506 361.702 654.971
240.506 372.34 590.643
240.506 382.979 584.795
240.506 393.617 380.117
240.506 404.255 520.468
240.506 414.894 514.62
240.506 425.532 479.532
240.506 436.17 514.62
240.506 446.809 619.883
240.506 457.447 695.906
240.506 468.085 690.058
240.506 478.723 549.708
240.506 489.362 432.749
240.506 500 432.749
240.506 510.638 549.708
240.506 521.277 561.404
240.506 531.915 654.971
240.506 542.553 415.205
240.506 553.191 660.819
240.506 563.83 625.731
240.506 574.468 666.667
240.506 585.106 520.468
240.506 595.745 555.556
240.506 606.383 380.117
240.506 617.021 520.468
240.506 627.66 520.468
240.506 638.298 508.772
240.506 648.936 549.708
240.506 659.574 508.772
240.506 670.213 374.269
240.506 680.851 374.269
240.506 691.489 374.269
240.506 702.128 374.269
240.506 712.766 374.269
240.506 723.404 111.111
240.506 734.043 555.556
240.506 744.681 602.339
240.506 755.319 602.339
240.506 765.957 619.883
240.506 776.596 473.684
240.506 787.234 555.556
240.506 797.872 456.14
240.506 808.511 456.14
240.506 819.149 456.14
240.506 829.787 257.31
240.506 840.426 380.117
240.506 851.064 444.444
240.506 861.702 444.444
240.506 872.34 444.444
240.506 882.979 444.444
240.506 893.617 444.444
244.726 159.574 292.398
244.726 170.213 409.357
244.726 180.851 292.398
244.726 191.489 409.357
244.726 202.128 350.877
244.726 212.766 473.684
244.726 223.404 409.357
244.726 234.043 409.357
244.726 244.681 409.357
244.726 255.319 409.357
244.726 265.957 286.55
244.726 276.596 409.357
244.726 287.234 350.877
244.726 297.872 479.532
244.726 308.511 409.357
244.726 319.149 292.398
244.726 329.787 555.556
244.726 340.426 608.187
244.726 351.064 561.404
244.726 361.702 578.947
244.726 372.34 555.556
244.726 382.979 619.883
244.726 393.617 485.38
244.726 404.255 637.427
244.726 414.894 514.62
244.726 425.532 479.532
244.726 436.17 514.62
244.726 446.809 619.883
244.726 457.447 695.906
244.726 468.085 690.058
244.726 478.723 549.708
244.726 489.362 438.596
244.726 500 549.708
244.726 510.638 549.708
244.726 521.277 561.404
244.726 531.915 543.86
244.726 542.553 450.292
244.726 553.191 666.667
244.726 563.83 619.883
244.726 574.468 666.667
244.726 585.106 543.86
244.726 595.745 654.971
244.726 606.383 415.205
244.726 617.021 543.86
244.726 627.66 543.86
244.726 638.298 508.772
244.726 648.936 508.772
244.726 659.574 514.62
244.726 670.213 508.772
244.726 680.851 374.269
244.726 691.489 374.269
244.726 702.128 508.772
244.726 712.766 549.708
244.726 723.404 497.076
244.726 734.043 444.444
244.726 744.681 473.684
244.726 755.319 514.62
244.726 765.957 555.556
244.726 776.596 602.339
244.726 787.234 473.684
244.726 797.872 391.813
244.726 808.511 456.14
244.726 819.149 456.14
244.726 829.787 456.14
244.726 840.426 257.31
244.726 851.064 380.117
244.726 861.702 444.444
244.726 872.34 444.444
244.726 882.979 444.444
244.726 893.617 444.444
244.726 904.255 52.6316
248.945 159.574 292.398
248.945 170.213 456.14
248.945 180.851 350.877
248.945 191.489 479.532
248.945 202.128 409.357
248.945 212.766 350.877
248.945 223.404 415.205
248.945 234.043 409.357
248.945 244.681 409.357
248.945 255.319 403.509
248.945 265.957 345.029
248.945 276.596 479.532
248.945 287.234 409.357
248.945 297.872 292.398
248.945 308.511 409.357
248.945 319.149 350.877
248.945 329.787 643.275
248.945 340.426 561.404
248.945 351.064 520.468
248.945 361.702 590.643
248.945 372.34 614.035
248.945 382.979 543.86
248.945 393.617 409.357
248.945 404.255 514.62
248.945 414.894 514.62
248.945 425.532 479.532
248.945 436.17 514.62
248.945 446.809 619.883
248.945 457.447 660.819
248.945 468.085 614.035
248.945 478.723 339.181
248.945 489.362 461.988
248.945 500 555.556
248.945 510.638 549.708
248.945 521.277 561.404
248.945 531.915 561.404
248.945 542.553 561.404
248.945 553.191 666.667
248.945 563.83 625.731
248.945 574.468 561.404
248.945 585.106 567.251
248.945 595.745 543.86
248.945 606.383 385.965
248.945 617.021 526.316
248.945 627.66 508.772
248.945 638.298 508.772
248.945 648.936 672.515
248.945 659.574 602.339
248.945 670.213 514.62
248.945 680.851 532.164
248.945 691.489 385.965
248.945 702.128 409.357
248.945 712.766 438.596
248.945 723.404 356.725
248.945 734.043 555.556
248.945 744.681 608.187
248.945 755.319 614.035
248.945 765.957 473.684
248.945 776.596 555.556
248.945 787.234 602.339
248.945 797.872 263.158
248.945 808.511 391.813
248.945 819.149 456.14
248.945 829.787 456.14
248.945 840.426 456.14
248.945 851.064 321.637
248.945 861.702 444.444
248.945 872.34 444.444
248.945 882.979 444.444
248.945 893.617 444.444
248.945 904.255 444.444
248.945 914.894 304.094
248.945 925.532 426.901
253.165 170.213 479.532
253.165 180.851 409.357
253.165 191.489 350.877
253.165 202.128 415.205
253.165 212.766 409.357
253.165 223.404 350.877
253.165 234.043 415.205
253.165 244.681 403.509
253.165 255.319 403.509
253.165 265.957 403.509
253.165 276.596 345.029
253.165 287.234 415.205
253.165 297.872 350.877
253.165 308.511 479.532
253.165 319.149 409.357
253.165 329.787 520.468
253.165 340.426 561.404
253.165 351.064 520.468
253.165 361.702 450.292
253.165 372.34 608.187
253.165 382.979 467.836
253.165 393.617 432.749
253.165 404.255 456.14
253.165 414.894 502.924
253.165 425.532 403.509
253.165 436.17 485.38
253.165 446.809 573.099
253.165 457.447 578.947
253.165 468.085 502.924
253.165 478.723 421.053
253.165 489.362 555.556
253.165 500 555.556
253.165 510.638 549.708
253.165 521.277 403.509
253.165 531.915 578.947
253.165 542.553 561.404
253.165 553.191 643.275
253.165 563.83 479.532
253.165 574.468 573.099
253.165 585.106 549.708
253.165 595.745 567.251
253.165 606.383 415.205
253.165 617.021 508.772
253.165 627.66 508.772
253.165 638.298 508.772
253.165 648.936 672.515
253.165 659.574 637.427
253.165 670.213 578.947
253.165 680.851 520.468
253.165 691.489 374.269
253.165 702.128 374.269
253.165 712.766 374.269
253.165 723.404 198.83
253.165 734.043 473.684
253.165 744.681 555.556
253.165 755.319 602.339
253.165 765.957 602.339
253.165 776.596 473.684
253.165 787.234 555.556
253.165 797.872 485.38
253.165 808.511 327.485
253.165 819.149 456.14
253.165 829.787 456.14
253.165 840.426 456.14
253.165 851.064 64.3275
253.165 861.702 380.117
253.165 872.34 444.444
253.165 882.979 444.444
253.165 893.617 444.444
253.165 904.255 444.444
253.165 914.894 116.959
253.165 925.532 432.749
253.165 936.17 426.901
257.384 170.213 350.877
257.384 180.851 421.053
257.384 191.489 409.357
257.384 202.128 350.877
257.384 212.766 415.205
257.384 223.404 409.357
257.384 234.043 350.877
257.384 244.681 415.205
257.384 255.319 403.509
257.384 265.957 403.509
257.384 276.596 403.509
257.384 287.234 292.398
257.384 297.872 409.357
257.384 308.511 350.877
257.384 319.149 421.053
257.384 329.787 491.228
257.384 340.426 555.556
257.384 351.064 584.795
257.384 361.702 397.661
257.384 372.34 619.883
257.384 382.979 426.901
257.384 393.617 461.988
257.384 404.255 473.684
257.384 414.894 578.947
257.384 425.532 286.55
257.384 436.17 538.012
257.384 446.809 491.228
257.384 457.447 467.836
257.384 468.085 473.684
257.384 478.723 362.573
257.384 489.362 555.556
257.384 500 555.556
257.384 510.638 555.556
257.384 521.277 426.901
257.384 531.915 666.667
257.384 542.553 567.251
257.384 553.191 508.772
257.384 563.83 584.795
257.384 574.468 538.012
257.384 585.106 573.099
257.384 595.745 549.708
257.384 606.383 409.357
257.384 617.021 514.62
257.384 627.66 514.62
257.384 638.298 514.62
257.384 648.936 695.906
257.384 659.574 672.515
257.384 670.213 602.339
257.384 680.851 514.62
257.384 691.489 514.62
257.384 702.128 374.269
257.384 712.766 374.269
257.384 723.404 111.111
257.384 734.043 380.117
257.384 744.681 514.62
257.384 755.319 602.339
257.384 765.957 602.339
257.384 776.596 602.339
257.384 787.234 479.532
257.384 797.872 426.901
257.384 808.511 70.1754
257.384 819.149 391.813
257.384 829.787 456.14
257.384 840.426 456.14
257.384 851.064 456.14
257.384 861.702 321.637
257.384 872.34 444.444
257.384 882.979 444.444
257.384 893.617 444.444
257.384 904.255 444.444
257.384 914.894 58.4795
257.384 925.532 368.421
257.384 936.17 432.749
257.384 946.809 426.901
261.603 180.851 292.398
261.603 191.489 409.357
261.603 202.128 409.357
261.603 212.766 350.877
261.603 223.404 415.205
261.603 234.043 409.357
261.603 244.681 350.877
261.603 255.319 415.205
261.603 265.957 403.509
261.603 276.596 403.509
261.603 287.234 292.398
261.603 297.872 450.292
261.603 308.511 409.357
261.603 319.149 292.398
261.603 329.787 514.62
261.603 340.426 543.86
261.603 351.064 502.924
261.603 361.702 532.164
261.603 372.34 543.86
261.603 382.979 345.029
261.603 393.617 350.877
261.603 404.255 298.246
261.603 414.894 426.901
261.603 425.532 309.942
261.603 436.17 444.444
261.603 446.809 444.444
261.603 457.447 432.749
261.603 468.085 432.749
261.603 478.723 251.462
261.603 489.362 526.316
261.603 500 555.556
261.603 510.638 385.965
261.603 521.277 456.14
261.603 531.915 666.667
261.603 542.553 362.573
261.603 553.191 508.772
261.603 563.83 666.667
261.603 574.468 549.708
261.603 585.106 532.164
261.603 595.745 538.012
261.603 606.383 356.725
261.603 617.021 514.62
261.603 627.66 514.62
261.603 638.298 514.62
261.603 648.936 713.45
261.603 659.574 672.515
261.603 670.213 637.427
261.603 680.851 578.947
261.603 691.489 514.62
261.603 702.128 374.269
261.603 712.766 380.117
261.603 723.404 163.743
261.603 734.043 380.117
261.603 744.681 391.813
261.603 755.319 555.556
261.603 765.957 602.339
261.603 776.596 602.339
261.603 787.234 602.339
261.603 797.872 368.421
261.603 808.511 625.731
261.603 819.149 263.158
261.603 829.787 391.813
261.603 840.426 456.14
261.603 851.064 456.14
261.603 861.702 64.3275
261.603 872.34 380.117
261.603 882.979 444.444
261.603 893.617 444.444
261.603 904.255 444.444
261.603 914.894 444.444
261.603 925.532 304.094
261.603 936.17 432.749
261.603 946.809 432.749
265.823 191.489 479.532
265.823 202.128 409.357
265.823 212.766 409.357
265.823 223.404 292.398
265.823 234.043 409.357
265.823 244.681 409.357
265.823 255.319 350.877
265.823 265.957 415.205
265.823 276.596 409.357
265.823 287.234 432.749
265.823 297.872 543.86
265.823 308.511 456.14
265.823 319.149 461.988
265.823 329.787 543.86
265.823 340.426 590.643
265.823 351.064 538.012
265.823 361.702 409.357
265.823 372.34 345.029
265.823 382.979 385.965
265.823 393.617 333.333
265.823 404.255 274.854
265.823 414.894 304.094
265.823 425.532 274.854
265.823 436.17 339.181
265.823 446.809 426.901
265.823 457.447 426.901
265.823 468.085 426.901
265.823 478.723 140.351
265.823 489.362 461.988
265.823 500 526.316
265.823 510.638 415.205
265.823 521.277 543.86
265.823 531.915 625.731
265.823 542.553 292.398
265.823 553.191 631.579
265.823 563.83 467.836
265.823 574.468 508.772
265.823 585.106 467.836
265.823 595.745 467.836
265.823 606.383 321.637
265.823 617.021 514.62
265.823 627.66 514.62
265.823 638.298 514.62
265.823 648.936 514.62
265.823 659.574 672.515
265.823 670.213 672.515
265.823 680.851 608.187
265.823 691.489 514.62
265.823 702.128 514.62
265.823 712.766 111.111
265.823 723.404 216.374
265.823 734.043 380.117
265.823 744.681 380.117
265.823 755.319 444.444
265.823 765.957 514.62
265.823 776.596 561.404
265.823 787.234 602.339
265.823 797.872 175.439
265.823 808.511 584.795
265.823 819.149 625.731
265.823 829.787 198.83
265.823 840.426 327.485
265.823 851.064 391.813
265.823 861.702 456.14
265.823 872.34 321.637
265.823 882.979 444.444
265.823 893.617 444.444
265.823 904.255 444.444
265.823 914.894 444.444
265.823 925.532 122.807
265.823 936.17 432.749
265.823 946.809 432.749
265.823 957.447 432.749
270.042 202.128 421.053
270.042 212.766 409.357
270.042 223.404 350.877
270.042 234.043 479.532
270.042 244.681 479.532
270.042 255.319 479.532
270.042 265.957 397.661
270.042 276.596 485.38
270.042 287.234 444.444
270.042 297.872 362.573
270.042 308.511 491.228
270.042 319.149 479.532
270.042 329.787 473.684
270.042 340.426 561.404
270.042 351.064 385.965
270.042 361.702 456.14
270.042 372.34 368.421
270.042 382.979 315.789
270.042 393.617 280.702
270.042 404.255 187.135
270.042 414.894 146.199
270.042 425.532 64.3275
270.042 436.17 64.3275
270.042 446.809 368.421
270.042 457.447 426.901
270.042 468.085 426.901
270.042 478.723 122.807
270.042 489.362 432.749
270.042 500 204.678
270.042 510.638 327.485
270.042 521.277 461.988
270.042 531.915 432.749
270.042 542.553 345.029
270.042 553.191 631.579
270.042 563.83 520.468
270.042 574.468 649.123
270.042 585.106 520.468
270.042 595.745 514.62
270.042 606.383 245.614
270.042 617.021 438.596
270.042 627.66 461.988
270.042 638.298 485.38
270.042 648.936 514.62
270.042 659.574 643.275
270.042 670.213 672.515
270.042 680.851 637.427
270.042 691.489 578.947
270.042 702.128 514.62
270.042 712.766 111.111
270.042 723.404 380.117
270.042 734.043 380.117
270.042 744.681 380.117
270.042 755.319 380.117
270.042 765.957 421.053
270.042 776.596 479.532
270.042 787.234 555.556
270.042 797.872 479.532
270.042 808.511 538.012
270.042 819.149 625.731
270.042 829.787 625.731
270.042 840.426 485.38
270.042 851.064 263.158
270.042 861.702 391.813
270.042 872.34 64.3275
270.042 882.979 380.117
270.042 893.617 444.444
270.042 904.255 444.444
270.042 914.894 444.444
270.042 925.532 58.4795
270.042 936.17 368.421
270.042 946.809 432.749
270.042 957.447 432.749
270.042 968.085 52.6316
274.262 212.766 421.053
274.262 223.404 608.187
274.262 234.043 526.316
274.262 244.681 596.491
274.262 255.319 561.404
274.262 265.957 456.14
274.262 276.596 538.012
274.262 287.234 368.421
274.262 297.872 479.532
274.262 308.511 485.38
274.262 319.149 397.661
274.262 329.787 409.357
274.262 340.426 508.772
274.262 351.064 345.029
274.262 361.702 415.205
274.262 372.34 263.158
274.262 382.979 187.135
274.262 393.617 146.199
274.262 446.809 187.135
274.262 457.447 309.942
274.262 468.085 368.421
274.262 478.723 122.807
274.262 489.362 426.901
274.262 500 157.895
274.262 510.638 438.596
274.262 521.277 432.749
274.262 531.915 333.333
274.262 542.553 456.14
274.262 553.191 584.795
274.262 563.83 456.14
274.262 574.468 485.38
274.262 585.106 502.924
274.262 595.745 333.333
274.262 606.383 385.965
274.262 617.021 502.924
274.262 627.66 508.772
274.262 638.298 421.053
274.262 648.936 461.988
274.262 659.574 660.819
274.262 670.213 614.035
274.262 680.851 672.515
274.262 691.489 608.187
274.262 702.128 520.468
274.262 712.766 163.743
274.262 723.404 380.117
274.262 734.043 380.117
274.262 744.681 380.117
274.262 755.319 380.117
274.262 765.957 385.965
274.262 776.596 385.965
274.262 787.234 444.444
274.262 797.872 368.421
274.262 808.511 426.901
274.262 819.149 578.947
274.262 829.787 625.731
274.262 840.426 456.14
274.262 851.064 456.14
274.262 861.702 263.158
274.262 872.34 391.813
274.262 882.979 251.462
274.262 893.617 380.117
274.262 904.255 444.444
274.262 914.894 444.444
274.262 925.532 444.444
274.262 936.17 304.094
274.262 946.809 432.749
274.262 957.447 432.749
274.262 968.085 432.749
274.262 978.723 292.398
278.481 202.128 415.205
278.481 212.766 520.468
278.481 223.404 514.62
278.481 234.043 391.813
278.481 244.681 502.924
278.481 255.319 397.661
278.481 265.957 491.228
278.481 276.596 415.205
278.481 287.234 304.094
278.481 297.872 538.012
278.481 308.511 444.444
278.481 319.149 403.509
278.481 329.787 461.988
278.481 340.426 321.637
278.481 351.064 315.789
278.481 361.702 251.462
278.481 372.34 111.111
278.481 457.447 128.655
278.481 468.085 192.982
278.481 478.723 128.655
278.481 489.362 426.901
278.481 500 111.111
278.481 510.638 368.421
278.481 521.277 426.901
278.481 531.915 187.135
278.481 542.553 450.292
278.481 553.191 584.795
278.481 563.83 450.292
278.481 574.468 421.053
278.481 585.106 415.205
278.481 595.745 181.287
278.481 606.383 415.205
278.481 617.021 409.357
278.481 627.66 432.749
278.481 638.298 461.988
278.481 648.936 526.316
278.481 659.574 467.836
278.481 670.213 643.275
278.481 680.851 713.45
278.481 691.489 637.427
278.481 702.128 461.988
278.481 712.766 216.374
278.481 723.404 380.117
278.481 734.043 380.117
278.481 744.681 380.117
278.481 755.319 380.117
278.481 765.957 385.965
278.481 776.596 385.965
278.481 787.234 391.813
278.481 797.872 263.158
278.481 808.511 538.012
278.481 819.149 502.924
278.481 829.787 578.947
278.481 840.426 619.883
278.481 851.064 456.14
278.481 861.702 456.14
278.481 872.34 327.485
278.481 882.979 456.14
278.481 893.617 251.462
278.481 904.255 380.117
278.481 914.894 444.444
278.481 925.532 444.444
278.481 936.17 58.4795
278.481 946.809 368.421
278.481 957.447 432.749
278.481 968.085 432.749
278.481 978.723 111.111
282.7 191.489 239.766
282.7 202.128 257.31
282.7 212.766 239.766
282.7 223.404 403.509
282.7 234.043 625.731
282.7 244.681 526.316
282.7 255.319 362.573
282.7 265.957 491.228
282.7 276.596 339.181
282.7 287.234 561.404
282.7 297.872 444.444
282.7 308.511 339.181
282.7 319.149 444.444
282.7 329.787 304.094
282.7 340.426 304.094
282.7 351.064 228.07
282.7 361.702 111.111
282.7 478.723 70.1754
282.7 489.362 368.421
282.7 500 426.901
282.7 510.638 309.942
282.7 521.277 497.076
282.7 531.915 152.047
282.7 542.553 391.813
282.7 553.191 584.795
282.7 563.83 426.901
282.7 574.468 456.14
282.7 585.106 450.292
282.7 595.745 315.789
282.7 606.383 514.62
282.7 617.021 432.749
282.7 627.66 461.988
282.7 638.298 391.813
282.7 648.936 432.749
282.7 659.574 397.661
282.7 670.213 497.076
282.7 680.851 643.275
282.7 691.489 672.515
282.7 702.128 514.62
282.7 712.766 380.117
282.7 723.404 380.117
282.7 734.043 380.117
282.7 744.681 380.117
282.7 755.319 385.965
282.7 765.957 385.965
282.7 776.596 385.965
282.7 787.234 391.813
282.7 797.872 140.351
282.7 808.511 426.901
282.7 819.149 573.099
282.7 829.787 538.012
282.7 840.426 619.883
282.7 851.064 456.14
282.7 861.702 456.14
282.7 872.34 70.1754
282.7 882.979 391.813
282.7 893.617 456.14
282.7 904.255 251.462
282.7 914.894 380.117
282.7 925.532 444.444
282.7 936.17 444.444
282.7 946.809 304.094
282.7 957.447 432.749
282.7 968.085 432.749
282.7 978.723 111.111
282.7 989.362 415.205
286.92 180.851 444.444
286.92 191.489 432.749
286.92 202.128 432.749
286.92 212.766 497.076
286.92 223.404 543.86
286.92 234.043 590.643
286.92 244.681 397.661
286.92 255.319 567.251
286.92 265.957 421.053
286.92 276.596 321.637
286.92 287.234 415.205
286.92 297.872 280.702
286.92 308.511 298.246
286.92 319.149 251.462
286.92 329.787 257.31
286.92 340.426 181.287
286.92 351.064 111.111
286.92 478.723 5.84795
286.92 489.362 309.942
286.92 500 426.901
286.92 510.638 128.655
286.92 521.277 426.901
286.92 531.915 514.62
286.92 542.553 339.181
286.92 553.191 584.795
286.92 563.83 421.053
286.92 574.468 438.596
286.92 585.106 111.111
286.92 595.745 280.702
286.92 606.383 456.14
286.92 617.021 432.749
286.92 627.66 467.836
286.92 638.298 514.62
286.92 648.936 432.749
286.92 659.574 415.205
286.92 670.213 467.836
286.92 680.851 526.316
286.92 691.489 514.62
286.92 702.128 532.164
286.92 712.766 438.596
286.92 723.404 380.117
286.92 734.043 380.117
286.92 744.681 385.965
286.92 755.319 385.965
286.92 765.957 385.965
286.92 776.596 385.965
286.92 787.234 385.965
286.92 797.872 134.503
286.92 808.511 415.205
286.92 819.149 497.076
286.92 829.787 426.901
286.92 840.426 578.947
286.92 851.064 456.14
286.92 861.702 456.14
286.92 872.34 456.14
286.92 882.979 263.158
286.92 893.617 391.813
286.92 904.255 456.14
286.92 914.894 315.789
286.92 925.532 444.444
286.92 936.17 444.444
286.92 946.809 122.807
286.92 957.447 432.749
286.92 968.085 432.749
286.92 978.723 116.959
286.92 989.362 421.053
291.139 170.213 444.444
291.139 180.851 432.749
291.139 191.489 426.901
291.139 202.128 543.86
291.139 212.766 578.947
291.139 223.404 467.836
291.139 234.043 485.38
291.139 244.681 345.029
291.139 255.319 391.813
291.139 265.957 315.789
291.139 276.596 397.661
291.139 287.234 263.158
291.139 297.872 239.766
291.139 308.511 298.246
291.139 319.149 198.83
291.139 329.787 140.351
291.139 340.426 64.3275
291.139 489.362 70.1754
291.139 500 368.421
291.139 510.638 64.3275
291.139 521.277 368.421
291.139 531.915 432.749
291.139 542.553 333.333
291.139 553.191 654.971
291.139 563.83 578.947
291.139 574.468 578.947
291.139 585.106 111.111
291.139 595.745 385.965
291.139 606.383 385.965
291.139 617.021 397.661
291.139 627.66 421.053
291.139 638.298 479.532
291.139 648.936 461.988
291.139 659.574 549.708
291.139 670.213 397.661
291.139 680.851 339.181
291.139 691.489 573.099
291.139 702.128 690.058
291.139 712.766 473.684
291.139 723.404 385.965
291.139 734.043 385.965
291.139 744.681 385.965
291.139 755.319 385.965
291.139 765.957 385.965
291.139 776.596 385.965
291.139 787.234 385.965
291.139 797.872 134.503
291.139 808.511 409.357
291.139 819.149 415.205
291.139 829.787 497.076
291.139 840.426 497.076
291.139 851.064 391.813
291.139 861.702 456.14
291.139 872.34 456.14
291.139 882.979 461.988
291.139 893.617 327.485
291.139 904.255 456.14
291.139 914.894 58.4795
291.139 925.532 380.117
291.139 936.17 444.444
291.139 946.809 64.3275
291.139 957.447 374.269
291.139 968.085 432.749
291.139 978.723 116.959
291.139 989.362 421.053
291.139 1000 421.053
295.359 159.574 421.053
295.359 170.213 374.269
295.359 180.851 304.094
295.359 191.489 461.988
295.359 202.128 479.532
295.359 212.766 485.38
295.359 223.404 596.491
295.359 234.043 467.836
295.359 244.681 491.228
295.359 255.319 321.637
295.359 265.957 426.901
295.359 276.596 269.006
295.359 287.234 309.942
295.359 297.872 216.374
295.359 308.511 163.743
295.359 319.149 64.3275
295.359 500 245.614
295.359 510.638 368.421
295.359 521.277 304.094
295.359 531.915 426.901
295.359 542.553 152.047
295.359 553.191 549.708
295.359 563.83 473.684
295.359 574.468 538.012
295.359 585.106 368.421
295.359 595.745 502.924
295.359 606.383 385.965
295.359 617.021 385.965
295.359 627.66 385.965
295.359 638.298 385.965
295.359 648.936 461.988
295.359 659.574 461.988
295.359 670.213 538.012
295.359 680.851 321.637
295.359 691.489 532.164
295.359 702.128 619.883
295.359 712.766 508.772
295.359 723.404 385.965
295.359 734.043 385.965
295.359 744.681 385.965
295.359 755.319 385.965
295.359 765.957 385.965
295.359 776.596 385.965
295.359 787.234 397.661
295.359 797.872 187.135
295.359 808.511 409.357
295.359 819.149 409.357
295.359 829.787 415.205
295.359 840.426 532.164
295.359 851.064 269.006
295.359 861.702 391.813
295.359 872.34 456.14
295.359 882.979 456.14
295.359 893.617 70.1754
295.359 904.255 391.813
295.359 914.894 456.14
295.359 925.532 315.789
295.359 936.17 444.444
295.359 946.809 444.444
295.359 957.447 309.942
295.359 968.085 432.749
295.359 978.723 116.959
295.359 989.362 421.053
295.359 1000 421.053
299.578 148.936 362.573
299.578 159.574 309.942
299.578 170.213 181.287
299.578 180.851 596.491
299.578 191.489 578.947
299.578 202.128 549.708
299.578 212.766 561.404
299.578 223.404 526.316
299.578 234.043 362.573
299.578 244.681 397.661
299.578 255.319 245.614
299.578 265.957 315.789
299.578 276.596 239.766
299.578 287.234 187.135
299.578 297.872 70.1754
299.578 510.638 187.135
299.578 521.277 64.3275
299.578 531.915 368.421
299.578 542.553 450.292
299.578 553.191 479.532
299.578 563.83 409.357
299.578 574.468 403.509
299.578 585.106 409.357
299.578 595.745 491.228
299.578 606.383 520.468
299.578 617.021 514.62
299.578 627.66 438.596
299.578 638.298 385.965
299.578 648.936 385.965
299.578 659.574 461.988
299.578 670.213 280.702
299.578 680.851 444.444
299.578 691.489 555.556
299.578 702.128 532.164
299.578 712.766 573.099
299.578 723.404 444.444
299.578 734.043 385.965
299.578 744.681 385.965
299.578 755.319 385.965
299.578 765.957 385.965
299.578 776.596 385.965
299.578 787.234 134.503
299.578 797.872 245.614
299.578 808.511 409.357
299.578 819.149 409.357
299.578 829.787 409.357
299.578 840.426 421.053
299.578 851.064 391.813
299.578 861.702 333.333
299.578 872.34 456.14
299.578 882.979 456.14
299.578 893.617 461.988
299.578 904.255 327.485
299.578 914.894 456.14
299.578 925.532 58.4795
299.578 936.17 380.117
299.578 946.809 444.444
299.578 957.447 58.4795
299.578 968.085 374.269
299.578 978.723 116.959
299.578 989.362 421.053
299.578 1000 421.053
303.797 148.936 239.766
303.797 159.574 450.292
303.797 170.213 637.427
303.797 180.851 614.035
303.797 191.489 467.836
303.797 202.128 491.228
303.797 212.766 508.772
303.797 223.404 444.444
303.797 234.043 438.596
303.797 244.681 263.158
303.797 255.319 333.333
303.797 265.957 204.678
303.797 276.596 105.263
303.797 521.277 70.1754
303.797 531.915 192.982
303.797 542.553 263.158
303.797 553.191 432.749
303.797 563.83 473.684
303.797 574.468 479.532
303.797 585.106 152.047
303.797 595.745 479.532
303.797 606.383 549.708
303.797 617.021 602.339
303.797 627.66 596.491
303.797 638.298 619.883
303.797 648.936 438.596
303.797 659.574 385.965
303.797 670.213 280.702
303.797 680.851 467.836
303.797 691.489 561.404
303.797 702.128 461.988
303.797 712.766 508.772
303.797 723.404 421.053
303.797 734.043 385.965
303.797 744.681 385.965
303.797 755.319 385.965
303.797 765.957 385.965
303.797 776.596 397.661
303.797 787.234 187.135
303.797 797.872 409.357
303.797 808.511 409.357
303.797 819.149 409.357
303.797 829.787 409.357
303.797 840.426 415.205
303.797 851.064 497.076
303.797 861.702 76.0234
303.797 872.34 391.813
303.797 882.979 456.14
303.797 893.617 456.14
303.797 904.255 70.1754
303.797 914.894 391.813
303.797 925.532 456.14
303.797 936.17 315.789
303.797 946.809 444.444
303.797 957.447 444.444
303.797 968.085 245.614
303.797 978.723 52.6316
303.797 989.362 356.725
303.797 1000 421.053
308.017 138.298 239.766
308.017 148.936 456.14
308.017 159.574 444.444
308.017 170.213 584.795
308.017 180.851 502.924
308.017 191.489 421.053
308.017 202.128 578.947
308.017 212.766 485.38
308.017 223.404 327.485
308.017 234.043 286.55
308.017 244.681 426.901
308.017 255.319 204.678
308.017 531.915 5.84795
308.017 542.553 152.047
308.017 553.191 304.094
308.017 563.83 409.357
308.017 574.468 450.292
308.017 585.106 269.006
308.017 595.745 479.532
308.017 606.383 473.684
308.017 617.021 555.556
308.017 627.66 590.643
308.017 638.298 596.491
308.017 648.936 596.491
308.017 659.574 614.035
308.017 670.213 163.743
308.017 680.851 467.836
308.017 691.489 467.836
308.017 702.128 538.012
308.017 712.766 385.965
308.017 723.404 532.164
308.017 734.043 385.965
308.017 744.681 385.965
308.017 755.319 385.965
308.017 765.957 391.813
308.017 776.596 134.503
308.017 787.234 245.614
308.017 797.872 409.357
308.017 808.511 409.357
308.017 819.149 409.357
308.017 829.787 409.357
308.017 840.426 415.205
308.017 851.064 438.596
308.017 861.702 333.333
308.017 872.34 333.333
308.017 882.979 456.14
308.017 893.617 456.14
308.017 904.255 461.988
308.017 914.894 327.485
308.017 925.532 456.14
308.017 936.17 58.4795
308.017 946.809 380.117
308.017 957.447 444.444
308.017 968.085 444.444
308.017 978.723 309.942
308.017 989.362 298.246
308.017 1000 421.053
312.236 138.298 467.836
312.236 148.936 432.749
312.236 159.574 567.251
312.236 170.213 584.795
312.236 180.851 444.444
312.236 191.489 549.708
312.236 202.128 549.708
312.236 212.766 508.772
312.236 223.404 298.246
312.236 234.043 362.573
312.236 244.681 304.094
312.236 531.915 5.84795
312.236 542.553 122.807
312.236 553.191 116.959
312.236 563.83 403.509
312.236 574.468 111.111
312.236 585.106 274.854
312.236 595.745 467.836
312.236 606.383 514.62
312.236 617.021 473.684
312.236 627.66 549.708
312.236 638.298 596.491
312.236 648.936 590.643
312.236 659.574 461.988
312.236 670.213 502.924
312.236 680.851 385.965
312.236 691.489 467.836
312.236 702.128 467.836
312.236 712.766 538.012
312.236 723.404 432.749
312.236 734.043 491.228
312.236 744.681 385.965
312.236 755.319 385.965
312.236 765.957 403.509
312.236 776.596 187.135
312.236 787.234 409.357
312.236 797.872 409.357
312.236 808.511 409.357
312.236 819.149 409.357
312.236 829.787 409.357
312.236 840.426 415.205
312.236 851.064 438.596
312.236 861.702 146.199
312.236 872.34 76.0234
312.236 882.979 391.813
312.236 893.617 456.14
312.236 904.255 461.988
312.236 914.894 134.503
312.236 925.532 456.14
312.236 936.17 456.14
312.236 946.809 321.637
312.236 957.447 444.444
312.236 968.085 444.444
312.236 978.723 64.3275
312.236 989.362 111.111
312.236 1000 421.053
316.456 127.66 467.836
316.456 138.298 444.444
316.456 148.936 368.421
316.456 159.574 514.62
316.456 170.213 573.099
316.456 180.851 555.556
316.456 191.489 643.275
316.456 202.128 532.164
316.456 212.766 426.901
316.456 223.404 304.094
316.456 234.043 397.661
316.456 244.681 175.439
316.456 531.915 5.84795
316.456 542.553 122.807
316.456 553.191 116.959
316.456 563.83 403.509
316.456 574.468 111.111
316.456 585.106 397.661
316.456 595.745 397.661
316.456 606.383 409.357
316.456 617.021 485.38
316.456 627.66 526.316
316.456 638.298 590.643
316.456 648.936 538.012
316.456 659.574 397.661
316.456 670.213 508.772
316.456 680.851 555.556
316.456 691.489 391.813
316.456 702.128 467.836
316.456 712.766 502.924
316.456 723.404 397.661
316.456 734.043 432.749
316.456 744.681 491.228
316.456 755.319 403.509
316.456 765.957 187.135
316.456 776.596 245.614
316.456 787.234 409.357
316.456 797.872 409.357
316.456 808.511 409.357
316.456 819.149 409.357
316.456 829.787 409.357
316.456 840.426 409.357
316.456 851.064 421.053
316.456 861.702 81.8713
316.456 872.34 391.813
316.456 882.979 333.333
316.456 893.617 456.14
316.456 904.255 456.14
316.456 914.894 134.503
316.456 925.532 456.14
316.456 936.17 456.14
316.456 946.809 64.3275
316.456 957.447 380.117
316.456 968.085 444.444
316.456 978.723 444.444
316.456 989.362 111.111
316.456 1000 421.053
320.675 127.66 491.228
320.675 138.298 368.421
320.675 148.936 473.684
320.675 159.574 508.772
320.675 170.213 631.579
320.675 180.851 514.62
320.675 191.489 532.164
320.675 202.128 543.86
320.675 212.766 380.117
320.675 223.404 409.357
320.675 234.043 397.661
320.675 531.915 5.84795
320.675 542.553 122.807
320.675 553.191 122.807
320.675 563.83 403.509
320.675 574.468 111.111
320.675 585.106 397.661
320.675 595.745 397.661
320.675 606.383 397.661
320.675 617.021 397.661
320.675 627.66 403.509
320.675 638.298 426.901
320.675 648.936 432.749
320.675 659.574 374.269
320.675 670.213 502.924
320.675 680.851 561.404
320.675 691.489 391.813
320.675 702.128 391.813
320.675 712.766 403.509
320.675 723.404 538.012
320.675 734.043 491.228
320.675 744.681 485.38
320.675 755.319 409.357
320.675 765.957 245.614
320.675 776.596 409.357
320.675 787.234 409.357
