510.823 759.398 292.181
510.823 766.917 160.494
510.823 774.436 257.202
510.823 781.955 273.663
510.823 789.474 230.453
510.823 796.992 310.7
510.823 804.511 448.56
510.823 812.03 411.523
510.823 819.549 467.078
510.823 827.068 713.992
510.823 834.586 637.86
510.823 842.105 477.366
510.823 849.624 337.449
510.823 857.143 339.506
510.823 864.662 337.449
510.823 872.18 337.449
510.823 879.699 337.449
510.823 887.218 335.391
510.823 894.737 335.391
510.823 902.256 335.391
510.823 909.774 333.333
510.823 917.293 333.333
510.823 924.812 333.333
510.823 932.331 331.276
515.152 120.301 415.638
515.152 127.82 415.638
515.152 135.338 631.687
515.152 142.857 557.613
515.152 150.376 224.28
515.152 157.895 302.469
515.152 165.414 294.239
515.152 172.932 135.802
515.152 180.451 121.399
515.152 187.97 45.2675
515.152 195.489 45.2675
515.152 203.008 41.1523
515.152 210.526 32.9218
515.152 218.045 32.9218
515.152 225.564 131.687
515.152 233.083 224.28
515.152 240.602 113.169
515.152 248.12 59.6708
515.152 255.639 18.5185
515.152 263.158 49.3827
515.152 270.677 80.2469
515.152 278.195 154.321
515.152 285.714 8.23045
515.152 293.233 137.86
515.152 300.752 6.17284
515.152 308.271 6.17284
515.152 315.789 6.17284
515.152 323.308 32.9218
515.152 330.827 30.8642
515.152 616.541 69.9588
515.152 624.06 28.8066
515.152 631.579 55.5556
515.152 639.098 49.3827
515.152 646.617 37.037
515.152 654.135 49.3827
515.152 661.654 104.938
515.152 669.173 189.3
515.152 676.692 129.63
515.152 684.211 343.621
515.152 691.729 444.444
515.152 699.248 300.412
515.152 706.767 181.07
515.152 714.286 203.704
515.152 721.805 329.218
515.152 729.323 370.37
515.152 736.842 162.551
515.152 744.361 193.416
515.152 751.88 100.823
515.152 759.398 257.202
515.152 766.917 150.206
515.152 774.436 255.144
515.152 781.955 271.605
515.152 789.474 230.453
515.152 796.992 310.7
515.152 804.511 479.424
515.152 812.03 485.597
515.152 819.549 465.021
515.152 827.068 751.029
515.152 834.586 637.86
515.152 842.105 477.366
515.152 864.662 337.449
515.152 872.18 337.449
515.152 879.699 337.449
515.152 887.218 335.391
515.152 894.737 335.391
515.152 902.256 335.391
515.152 909.774 335.391
515.152 917.293 335.391
515.152 924.812 333.333
519.481 120.301 415.638
519.481 127.82 415.638
519.481 135.338 672.84
519.481 142.857 473.251
519.481 150.376 265.432
519.481 157.895 310.7
519.481 165.414 242.798
519.481 172.932 135.802
519.481 180.451 65.8436
519.481 187.97 51.4403
519.481 195.489 41.1523
519.481 203.008 45.2675
519.481 210.526 37.037
519.481 218.045 37.037
519.481 225.564 131.687
519.481 233.083 166.667
519.481 240.602 106.996
519.481 248.12 76.1317
519.481 255.639 57.6132
519.481 263.158 47.3251
519.481 270.677 49.3827
519.481 278.195 98.7654
519.481 285.714 37.037
519.481 293.233 125.514
519.481 300.752 4.11523
519.481 308.271 4.11523
519.481 315.789 4.11523
519.481 323.308 28.8066
519.481 330.827 26.749
519.481 609.023 6.17284
519.481 616.541 86.4198
519.481 624.06 32.9218
519.481 631.579 55.5556
519.481 639.098 69.9588
519.481 646.617 10.2881
519.481 654.135 45.2675
519.481 661.654 104.938
519.481 669.173 189.3
519.481 676.692 139.918
519.481 684.211 253.086
519.481 691.729 393.004
519.481 699.248 230.453
519.481 706.767 218.107
519.481 714.286 251.029
519.481 721.805 267.49
519.481 729.323 279.835
519.481 736.842 185.185
519.481 744.361 141.975
519.481 751.88 74.0741
519.481 759.398 228.395
519.481 766.917 131.687
519.481 774.436 255.144
519.481 781.955 300.412
519.481 789.474 323.045
519.481 796.992 310.7
519.481 804.511 440.329
519.481 812.03 467.078
519.481 819.549 310.7
519.481 827.068 751.029
519.481 834.586 637.86
519.481 842.105 477.366
519.481 902.256 335.391
519.481 909.774 335.391
523.81 120.301 415.638
523.81 127.82 415.638
523.81 135.338 500
523.81 142.857 349.794
523.81 150.376 325.103
523.81 157.895 310.7
523.81 165.414 135.802
523.81 172.932 55.5556
523.81 180.451 63.786
523.81 187.97 76.1317
523.81 195.489 49.3827
523.81 203.008 57.6132
523.81 210.526 47.3251
523.81 218.045 88.4774
523.81 225.564 131.687
523.81 233.083 166.667
523.81 240.602 106.996
523.81 248.12 61.7284
523.81 255.639 49.3827
523.81 263.158 51.4403
523.81 270.677 78.1893
523.81 278.195 96.7078
523.81 285.714 88.4774
523.81 293.233 106.996
523.81 300.752 2.05761
523.81 308.271 4.11523
523.81 315.789 6.17284
523.81 323.308 24.6914
523.81 330.827 26.749
523.81 609.023 6.17284
523.81 616.541 72.0165
523.81 624.06 34.9794
523.81 631.579 26.749
523.81 639.098 69.9588
523.81 646.617 10.2881
523.81 654.135 41.1523
523.81 661.654 102.881
523.81 669.173 162.551
523.81 676.692 170.782
523.81 684.211 222.222
523.81 691.729 380.658
523.81 699.248 232.51
523.81 706.767 306.584
523.81 714.286 306.584
523.81 721.805 234.568
523.81 729.323 300.412
523.81 736.842 207.819
523.81 744.361 174.897
523.81 751.88 111.111
523.81 759.398 228.395
523.81 766.917 187.243
523.81 774.436 279.835
523.81 781.955 300.412
523.81 789.474 281.893
523.81 796.992 279.835
523.81 804.511 360.082
523.81 812.03 467.078
523.81 819.549 308.642
523.81 827.068 748.971
523.81 834.586 709.877
528.139 120.301 415.638
528.139 127.82 415.638
528.139 135.338 413.58
528.139 142.857 411.523
528.139 150.376 409.465
528.139 157.895 265.432
528.139 165.414 63.786
528.139 172.932 55.5556
528.139 180.451 49.3827
528.139 187.97 45.2675
528.139 195.489 39.0947
528.139 203.008 39.0947
528.139 210.526 102.881
528.139 218.045 80.2469
528.139 225.564 84.3621
528.139 233.083 166.667
528.139 240.602 106.996
528.139 248.12 96.7078
528.139 255.639 86.4198
528.139 263.158 53.4979
528.139 270.677 86.4198
528.139 278.195 67.9012
528.139 285.714 141.975
528.139 293.233 59.6708
528.139 300.752 74.0741
528.139 308.271 4.11523
528.139 315.789 6.17284
528.139 323.308 26.749
528.139 330.827 22.6337
528.139 609.023 6.17284
528.139 616.541 69.9588
528.139 624.06 32.9218
528.139 631.579 26.749
528.139 639.098 69.9588
528.139 646.617 10.2881
528.139 654.135 47.3251
528.139 661.654 106.996
528.139 669.173 109.053
528.139 676.692 164.609
528.139 684.211 222.222
528.139 691.729 380.658
528.139 699.248 325.103
528.139 706.767 323.045
528.139 714.286 318.93
528.139 721.805 234.568
528.139 729.323 343.621
528.139 736.842 240.741
528.139 744.361 211.934
528.139 751.88 191.358
528.139 759.398 255.144
528.139 766.917 195.473
528.139 774.436 304.527
528.139 781.955 298.354
528.139 789.474 259.259
528.139 796.992 360.082
528.139 804.511 386.831
528.139 812.03 465.021
528.139 819.549 380.658
528.139 827.068 557.613
528.139 834.586 625.514
532.468 127.82 415.638
532.468 135.338 415.638
532.468 142.857 458.848
532.468 150.376 370.37
532.468 157.895 135.802
532.468 165.414 55.5556
532.468 172.932 55.5556
532.468 180.451 43.2099
532.468 187.97 45.2675
532.468 195.489 45.2675
532.468 203.008 51.4403
532.468 210.526 94.6502
532.468 218.045 39.0947
532.468 225.564 84.3621
532.468 233.083 125.514
532.468 240.602 111.111
532.468 248.12 131.687
532.468 255.639 51.4403
532.468 263.158 57.6132
532.468 270.677 106.996
532.468 278.195 131.687
532.468 285.714 98.7654
532.468 293.233 65.8436
532.468 300.752 102.881
532.468 308.271 4.11523
532.468 315.789 6.17284
532.468 323.308 26.749
532.468 330.827 22.6337
532.468 601.504 6.17284
532.468 609.023 6.17284
532.468 616.541 72.0165
532.468 624.06 28.8066
532.468 631.579 49.3827
532.468 639.098 51.4403
532.468 646.617 14.4033
532.468 654.135 47.3251
532.468 661.654 102.881
532.468 669.173 133.745
532.468 676.692 179.012
532.468 684.211 300.412
532.468 691.729 483.539
532.468 699.248 384.774
532.468 706.767 395.062
532.468 714.286 362.14
532.468 721.805 339.506
532.468 729.323 382.716
532.468 736.842 224.28
532.468 744.361 162.551
532.468 751.88 362.14
532.468 759.398 333.333
532.468 766.917 269.547
532.468 774.436 366.255
532.468 781.955 279.835
532.468 789.474 201.646
532.468 796.992 360.082
532.468 804.511 329.218
532.468 812.03 518.519
532.468 819.549 380.658
532.468 827.068 557.613
532.468 834.586 625.514
536.797 127.82 415.638
536.797 135.338 559.671
536.797 142.857 555.556
536.797 150.376 323.045
536.797 157.895 170.782
536.797 165.414 55.5556
536.797 172.932 43.2099
536.797 180.451 43.2099
536.797 187.97 51.4403
536.797 195.489 51.4403
536.797 203.008 57.6132
536.797 210.526 104.938
536.797 218.045 43.2099
536.797 225.564 34.9794
536.797 233.083 90.535
536.797 240.602 185.185
536.797 248.12 139.918
536.797 255.639 96.7078
536.797 263.158 61.7284
536.797 270.677 61.7284
536.797 278.195 144.033
536.797 285.714 45.2675
536.797 293.233 121.399
536.797 300.752 37.037
536.797 308.271 61.7284
536.797 315.789 8.23045
536.797 323.308 30.8642
536.797 330.827 4.11523
536.797 338.346 28.8066
536.797 601.504 4.11523
536.797 609.023 6.17284
536.797 616.541 65.8436
536.797 624.06 26.749
536.797 631.579 67.9012
536.797 639.098 28.8066
536.797 646.617 14.4033
536.797 654.135 43.2099
536.797 661.654 104.938
536.797 669.173 170.782
536.797 676.692 283.951
536.797 684.211 409.465
536.797 691.729 520.576
536.797 699.248 458.848
536.797 706.767 421.811
536.797 714.286 417.695
536.797 721.805 298.354
536.797 729.323 395.062
536.797 736.842 238.683
536.797 744.361 209.877
536.797 751.88 409.465
536.797 759.398 238.683
536.797 766.917 318.93
536.797 774.436 393.004
536.797 781.955 279.835
536.797 789.474 279.835
536.797 796.992 355.967
536.797 804.511 421.811
536.797 812.03 565.844
536.797 819.549 598.765
536.797 827.068 596.708
536.797 834.586 621.399
541.126 135.338 557.613
541.126 142.857 520.576
541.126 150.376 409.465
541.126 157.895 135.802
541.126 165.414 63.786
541.126 172.932 49.3827
541.126 180.451 57.6132
541.126 187.97 59.6708
541.126 195.489 59.6708
541.126 203.008 51.4403
541.126 210.526 104.938
541.126 218.045 39.0947
541.126 225.564 39.0947
541.126 233.083 90.535
541.126 240.602 150.206
541.126 248.12 160.494
541.126 255.639 146.091
541.126 263.158 115.226
541.126 270.677 63.786
541.126 278.195 86.4198
541.126 285.714 102.881
541.126 293.233 67.9012
541.126 300.752 96.7078
541.126 308.271 96.7078
541.126 315.789 63.786
541.126 323.308 10.2881
541.126 330.827 28.8066
541.126 338.346 24.6914
541.126 601.504 6.17284
541.126 609.023 24.6914
541.126 616.541 24.6914
541.126 624.06 45.2675
541.126 631.579 72.0165
541.126 639.098 6.17284
541.126 646.617 10.2881
541.126 654.135 67.9012
541.126 661.654 76.1317
541.126 669.173 218.107
541.126 676.692 302.469
541.126 684.211 368.313
541.126 691.729 584.362
541.126 699.248 452.675
541.126 706.767 292.181
541.126 714.286 298.354
541.126 721.805 341.564
541.126 729.323 341.564
541.126 736.842 329.218
541.126 744.361 395.062
541.126 751.88 446.502
541.126 759.398 460.905
541.126 766.917 393.004
541.126 774.436 358.025
541.126 781.955 216.049
541.126 789.474 279.835
541.126 796.992 302.469
541.126 804.511 333.333
541.126 812.03 516.461
541.126 819.549 596.708
541.126 827.068 534.979
541.126 834.586 565.844
545.455 135.338 407.407
545.455 142.857 718.107
545.455 150.376 446.502
545.455 157.895 137.86
545.455 165.414 51.4403
545.455 172.932 39.0947
545.455 180.451 39.0947
545.455 187.97 37.037
545.455 195.489 45.2675
545.455 203.008 45.2675
545.455 210.526 96.7078
545.455 218.045 34.9794
545.455 225.564 30.8642
545.455 233.083 30.8642
545.455 240.602 90.535
545.455 248.12 220.165
545.455 255.639 139.918
545.455 263.158 102.881
545.455 270.677 61.7284
545.455 278.195 59.6708
545.455 285.714 88.4774
545.455 293.233 84.3621
545.455 300.752 76.1317
545.455 308.271 74.0741
545.455 315.789 94.6502
545.455 323.308 6.17284
545.455 330.827 32.9218
545.455 338.346 4.11523
545.455 345.865 26.749
545.455 601.504 6.17284
545.455 609.023 24.6914
545.455 616.541 6.17284
545.455 624.06 65.8436
545.455 631.579 47.3251
545.455 639.098 8.23045
545.455 646.617 10.2881
545.455 654.135 67.9012
545.455 661.654 137.86
545.455 669.173 218.107
545.455 676.692 339.506
545.455 684.211 452.675
545.455 691.729 586.42
545.455 699.248 376.543
545.455 706.767 316.872
545.455 714.286 269.547
545.455 721.805 339.506
545.455 729.323 374.486
545.455 736.842 393.004
545.455 744.361 452.675
545.455 751.88 384.774
545.455 759.398 370.37
545.455 766.917 306.584
545.455 774.436 306.584
545.455 781.955 216.049
545.455 789.474 331.276
545.455 796.992 403.292
545.455 804.511 514.403
545.455 812.03 514.403
545.455 819.549 596.708
545.455 827.068 534.979
545.455 834.586 565.844
549.784 142.857 625.514
549.784 150.376 602.881
549.784 157.895 135.802
549.784 165.414 113.169
549.784 172.932 49.3827
549.784 180.451 39.0947
549.784 187.97 37.037
549.784 195.489 37.037
549.784 203.008 43.2099
549.784 210.526 43.2099
549.784 218.045 90.535
549.784 225.564 32.9218
549.784 233.083 34.9794
549.784 240.602 84.3621
549.784 248.12 139.918
549.784 255.639 152.263
549.784 263.158 148.148
549.784 270.677 102.881
549.784 278.195 61.7284
549.784 285.714 59.6708
549.784 293.233 113.169
549.784 300.752 106.996
549.784 308.271 74.0741
549.784 315.789 41.1523
549.784 323.308 84.3621
549.784 330.827 6.17284
549.784 338.346 32.9218
549.784 345.865 28.8066
549.784 353.383 4.11523
549.784 601.504 6.17284
549.784 609.023 26.749
549.784 616.541 6.17284
549.784 624.06 67.9012
549.784 631.579 49.3827
549.784 639.098 8.23045
549.784 646.617 10.2881
549.784 654.135 98.7654
549.784 661.654 154.321
549.784 669.173 240.741
549.784 676.692 399.177
549.784 684.211 495.885
549.784 691.729 561.728
549.784 699.248 325.103
549.784 706.767 347.737
549.784 714.286 341.564
549.784 721.805 376.543
549.784 729.323 339.506
549.784 736.842 380.658
549.784 744.361 534.979
549.784 751.88 413.58
549.784 759.398 364.198
549.784 766.917 267.49
549.784 774.436 197.531
549.784 781.955 216.049
549.784 789.474 277.778
549.784 796.992 353.909
549.784 804.511 462.963
549.784 812.03 378.601
549.784 819.549 594.65
549.784 827.068 534.979
549.784 834.586 565.844
549.784 842.105 386.831
554.113 142.857 623.457
554.113 150.376 619.342
554.113 157.895 335.391
554.113 165.414 51.4403
554.113 172.932 125.514
554.113 180.451 57.6132
554.113 187.97 47.3251
554.113 195.489 37.037
554.113 203.008 43.2099
554.113 210.526 39.0947
554.113 218.045 90.535
554.113 225.564 30.8642
554.113 233.083 30.8642
554.113 240.602 30.8642
554.113 248.12 131.687
554.113 255.639 234.568
554.113 263.158 115.226
554.113 270.677 69.9588
554.113 278.195 59.6708
554.113 285.714 49.3827
554.113 293.233 47.3251
554.113 300.752 106.996
554.113 308.271 45.2675
554.113 315.789 78.1893
554.113 323.308 65.8436
554.113 330.827 32.9218
554.113 338.346 32.9218
554.113 345.865 6.17284
554.113 353.383 28.8066
554.113 601.504 28.8066
554.113 609.023 72.0165
554.113 616.541 4.11523
554.113 624.06 49.3827
554.113 631.579 49.3827
554.113 639.098 10.2881
554.113 646.617 63.786
554.113 654.135 65.8436
554.113 661.654 125.514
554.113 669.173 269.547
554.113 676.692 427.984
554.113 684.211 557.613
554.113 691.729 584.362
554.113 699.248 358.025
554.113 706.767 347.737
554.113 714.286 403.292
554.113 721.805 417.695
554.113 729.323 454.733
554.113 736.842 362.14
554.113 744.361 347.737
554.113 751.88 298.354
554.113 759.398 343.621
554.113 766.917 409.465
554.113 774.436 181.07
554.113 781.955 197.531
554.113 789.474 257.202
554.113 796.992 382.716
554.113 804.511 407.407
554.113 812.03 508.23
554.113 819.549 592.593
554.113 827.068 660.494
554.113 834.586 563.786
554.113 842.105 384.774
554.113 849.624 384.774
558.442 142.857 621.399
558.442 150.376 664.609
558.442 157.895 475.309
558.442 165.414 51.4403
558.442 172.932 57.6132
558.442 180.451 125.514
558.442 187.97 53.4979
558.442 195.489 47.3251
558.442 203.008 43.2099
558.442 210.526 39.0947
558.442 218.045 39.0947
558.442 225.564 90.535
558.442 233.083 32.9218
558.442 240.602 32.9218
558.442 248.12 131.687
558.442 255.639 187.243
558.442 263.158 172.84
558.442 270.677 61.7284
558.442 278.195 61.7284
558.442 285.714 51.4403
558.442 293.233 47.3251
558.442 300.752 80.2469
558.442 308.271 72.0165
558.442 315.789 74.0741
558.442 323.308 74.0741
558.442 330.827 59.6708
558.442 338.346 30.8642
558.442 345.865 8.23045
558.442 353.383 32.9218
558.442 601.504 6.17284
558.442 609.023 53.4979
558.442 616.541 4.11523
558.442 624.06 49.3827
558.442 631.579 72.0165
558.442 639.098 10.2881
558.442 646.617 61.7284
558.442 654.135 47.3251
558.442 661.654 86.4198
558.442 669.173 226.337
558.442 676.692 343.621
558.442 684.211 425.926
558.442 691.729 553.498
558.442 699.248 419.753
558.442 706.767 440.329
558.442 714.286 489.712
558.442 721.805 419.753
558.442 729.323 479.424
558.442 736.842 388.889
558.442 744.361 368.313
558.442 751.88 279.835
558.442 759.398 339.506
558.442 766.917 323.045
558.442 774.436 216.049
558.442 781.955 197.531
558.442 789.474 329.218
558.442 796.992 467.078
558.442 804.511 405.35
558.442 812.03 427.984
558.442 819.549 421.811
558.442 827.068 658.436
558.442 834.586 384.774
558.442 842.105 384.774
558.442 849.624 384.774
558.442 857.143 384.774
562.771 142.857 545.267
562.771 150.376 621.399
562.771 157.895 471.193
562.771 165.414 333.333
562.771 172.932 57.6132
562.771 180.451 51.4403
562.771 187.97 113.169
562.771 195.489 47.3251
562.771 203.008 43.2099
562.771 210.526 39.0947
562.771 218.045 39.0947
562.771 225.564 45.2675
562.771 233.083 90.535
562.771 240.602 32.9218
562.771 248.12 131.687
562.771 255.639 166.667
562.771 263.158 146.091
562.771 270.677 61.7284
562.771 278.195 63.786
562.771 285.714 53.4979
562.771 293.233 53.4979
562.771 300.752 88.4774
562.771 308.271 135.802
562.771 315.789 72.0165
562.771 323.308 61.7284
562.771 330.827 63.786
562.771 338.346 53.4979
562.771 345.865 8.23045
562.771 353.383 34.9794
562.771 360.902 8.23045
562.771 601.504 8.23045
562.771 609.023 72.0165
562.771 616.541 43.2099
562.771 624.06 30.8642
562.771 631.579 78.1893
562.771 639.098 37.037
562.771 646.617 96.7078
562.771 654.135 74.0741
562.771 661.654 119.342
562.771 669.173 201.646
562.771 676.692 355.967
562.771 684.211 430.041
562.771 691.729 493.827
562.771 699.248 617.284
562.771 706.767 485.597
562.771 714.286 370.37
562.771 721.805 444.444
562.771 729.323 454.733
562.771 736.842 520.576
562.771 744.361 423.868
562.771 751.88 298.354
562.771 759.398 345.679
562.771 766.917 236.626
562.771 774.436 197.531
562.771 781.955 181.07
562.771 789.474 355.967
562.771 796.992 514.403
562.771 804.511 510.288
562.771 812.03 427.984
562.771 819.549 423.868
562.771 827.068 656.379
562.771 834.586 386.831
562.771 842.105 384.774
562.771 849.624 384.774
562.771 857.143 382.716
562.771 864.662 382.716
567.1 135.338 543.21
567.1 142.857 543.21
567.1 150.376 551.44
567.1 157.895 493.827
567.1 165.414 452.675
567.1 172.932 236.626
567.1 180.451 51.4403
567.1 187.97 51.4403
567.1 195.489 113.169
567.1 203.008 39.0947
567.1 210.526 43.2099
567.1 218.045 47.3251
567.1 225.564 49.3827
567.1 233.083 90.535
567.1 240.602 32.9218
567.1 248.12 90.535
567.1 255.639 216.049
567.1 263.158 106.996
567.1 270.677 102.881
567.1 278.195 63.786
567.1 285.714 59.6708
567.1 293.233 53.4979
567.1 300.752 88.4774
567.1 308.271 131.687
567.1 315.789 96.7078
567.1 323.308 6.17284
567.1 330.827 67.9012
567.1 338.346 55.5556
567.1 345.865 32.9218
567.1 353.383 34.9794
567.1 360.902 6.17284
567.1 609.023 28.8066
567.1 616.541 45.2675
567.1 624.06 28.8066
567.1 631.579 78.1893
567.1 639.098 76.1317
567.1 646.617 69.9588
567.1 654.135 43.2099
567.1 661.654 86.4198
567.1 669.173 170.782
567.1 676.692 244.856
567.1 684.211 405.35
567.1 691.729 417.695
567.1 699.248 512.346
567.1 706.767 440.329
567.1 714.286 308.642
567.1 721.805 483.539
567.1 729.323 446.502
567.1 736.842 563.786
567.1 744.361 454.733
567.1 751.88 366.255
567.1 759.398 300.412
567.1 766.917 275.72
567.1 774.436 216.049
567.1 781.955 197.531
567.1 789.474 353.909
567.1 796.992 514.403
567.1 804.511 425.926
567.1 812.03 337.449
567.1 819.549 654.321
567.1 827.068 654.321
567.1 834.586 386.831
567.1 842.105 384.774
567.1 849.624 384.774
567.1 857.143 382.716
567.1 864.662 382.716
571.429 135.338 543.21
571.429 142.857 259.259
571.429 150.376 401.235
571.429 157.895 493.827
571.429 165.414 263.374
571.429 172.932 473.251
571.429 180.451 45.2675
571.429 187.97 45.2675
571.429 195.489 113.169
571.429 203.008 47.3251
571.429 210.526 43.2099
571.429 218.045 197.531
571.429 225.564 125.514
571.429 233.083 39.0947
571.429 240.602 90.535
571.429 248.12 34.9794
571.429 255.639 211.934
571.429 263.158 168.724
571.429 270.677 61.7284
571.429 278.195 113.169
571.429 285.714 20.5761
571.429 293.233 55.5556
571.429 300.752 86.4198
571.429 308.271 106.996
571.429 315.789 123.457
571.429 323.308 8.23045
571.429 330.827 59.6708
571.429 338.346 55.5556
571.429 345.865 32.9218
571.429 353.383 8.23045
571.429 360.902 32.9218
571.429 609.023 26.749
571.429 616.541 45.2675
571.429 624.06 51.4403
571.429 631.579 76.1317
571.429 639.098 67.9012
571.429 646.617 43.2099
571.429 654.135 39.0947
571.429 661.654 74.0741
571.429 669.173 115.226
571.429 676.692 164.609
571.429 684.211 292.181
571.429 691.729 370.37
571.429 699.248 462.963
571.429 706.767 448.56
571.429 714.286 362.14
571.429 721.805 450.617
571.429 729.323 516.461
571.429 736.842 425.926
571.429 744.361 460.905
571.429 751.88 403.292
571.429 759.398 232.51
571.429 766.917 275.72
571.429 774.436 216.049
571.429 781.955 275.72
571.429 789.474 384.774
571.429 796.992 462.963
571.429 804.511 425.926
571.429 812.03 339.506
571.429 819.549 654.321
571.429 827.068 567.901
571.429 834.586 384.774
571.429 842.105 384.774
571.429 849.624 384.774
571.429 857.143 382.716
571.429 864.662 380.658
571.429 872.18 380.658
575.758 135.338 541.152
575.758 142.857 259.259
575.758 150.376 257.202
575.758 157.895 318.93
575.758 165.414 261.317
575.758 172.932 440.329
575.758 180.451 121.399
575.758 187.97 45.2675
575.758 195.489 123.457
575.758 203.008 51.4403
575.758 210.526 179.012
575.758 218.045 195.473
575.758 225.564 164.609
575.758 233.083 43.2099
575.758 240.602 96.7078
575.758 248.12 39.0947
575.758 255.639 199.588
575.758 263.158 127.572
575.758 270.677 119.342
575.758 278.195 106.996
575.758 285.714 72.0165
575.758 293.233 20.5761
575.758 300.752 59.6708
575.758 308.271 49.3827
575.758 315.789 74.0741
575.758 323.308 65.8436
575.758 330.827 57.6132
575.758 338.346 57.6132
575.758 345.865 61.7284
575.758 353.383 8.23045
575.758 360.902 32.9218
575.758 368.421 6.17284
575.758 609.023 24.6914
575.758 616.541 47.3251
575.758 624.06 51.4403
575.758 631.579 53.4979
575.758 639.098 80.2469
575.758 646.617 41.1523
575.758 654.135 39.0947
575.758 661.654 78.1893
575.758 669.173 82.3045
575.758 676.692 158.436
575.758 684.211 277.778
575.758 691.729 351.852
575.758 699.248 411.523
575.758 706.767 403.292
575.758 714.286 312.757
575.758 721.805 448.56
575.758 729.323 500
575.758 736.842 388.889
575.758 744.361 460.905
575.758 751.88 318.93
575.758 759.398 197.531
575.758 766.917 275.72
575.758 774.436 213.992
575.758 781.955 277.778
575.758 789.474 382.716
575.758 796.992 462.963
575.758 804.511 427.984
575.758 812.03 339.506
575.758 819.549 652.263
575.758 827.068 567.901
575.758 834.586 384.774
575.758 842.105 384.774
575.758 849.624 384.774
575.758 857.143 382.716
575.758 864.662 380.658
575.758 872.18 380.658
575.758 879.699 380.658
580.087 135.338 539.095
580.087 142.857 257.202
580.087 150.376 257.202
580.087 157.895 189.3
580.087 165.414 318.93
580.087 172.932 438.272
580.087 180.451 121.399
580.087 187.97 45.2675
580.087 195.489 111.111
580.087 203.008 57.6132
580.087 210.526 121.399
580.087 218.045 135.802
580.087 225.564 162.551
580.087 233.083 162.551
580.087 240.602 100.823
580.087 248.12 104.938
580.087 255.639 211.934
580.087 263.158 92.5926
580.087 270.677 176.955
580.087 278.195 61.7284
580.087 285.714 96.7078
580.087 293.233 24.6914
580.087 300.752 18.5185
580.087 308.271 86.4198
580.087 315.789 43.2099
580.087 323.308 67.9012
580.087 330.827 8.23045
580.087 338.346 59.6708
580.087 345.865 86.4198
580.087 353.383 8.23045
580.087 360.902 32.9218
580.087 368.421 8.23045
580.087 601.504 10.2881
580.087 609.023 65.8436
580.087 616.541 45.2675
580.087 624.06 47.3251
580.087 631.579 26.749
580.087 639.098 82.3045
580.087 646.617 67.9012
580.087 654.135 43.2099
580.087 661.654 51.4403
580.087 669.173 90.535
580.087 676.692 183.128
580.087 684.211 246.914
580.087 691.729 339.506
580.087 699.248 390.947
580.087 706.767 444.444
580.087 714.286 376.543
580.087 721.805 446.502
580.087 729.323 434.156
580.087 736.842 329.218
580.087 744.361 310.7
580.087 751.88 318.93
580.087 759.398 197.531
580.087 766.917 300.412
580.087 774.436 213.992
580.087 781.955 353.909
580.087 789.474 382.716
580.087 796.992 405.35
580.087 804.511 425.926
580.087 812.03 339.506
580.087 819.549 652.263
580.087 827.068 388.889
580.087 834.586 384.774
580.087 842.105 384.774
580.087 849.624 382.716
580.087 857.143 382.716
580.087 864.662 380.658
580.087 872.18 378.601
580.087 879.699 378.601
580.087 887.218 376.543
584.416 135.338 539.095
584.416 142.857 259.259
584.416 150.376 259.259
584.416 157.895 189.3
584.416 165.414 316.872
584.416 172.932 341.564
584.416 180.451 329.218
584.416 187.97 49.3827
584.416 195.489 57.6132
584.416 203.008 174.897
584.416 210.526 121.399
584.416 218.045 135.802
584.416 225.564 160.494
584.416 233.083 111.111
584.416 240.602 100.823
584.416 248.12 96.7078
584.416 255.639 45.2675
584.416 263.158 226.337
584.416 270.677 133.745
584.416 278.195 117.284
584.416 285.714 100.823
584.416 293.233 24.6914
584.416 300.752 18.5185
584.416 308.271 86.4198
584.416 315.789 14.4033
584.416 323.308 72.0165
584.416 330.827 65.8436
584.416 338.346 59.6708
584.416 345.865 90.535
584.416 353.383 8.23045
584.416 360.902 30.8642
584.416 368.421 8.23045
584.416 601.504 26.749
584.416 609.023 47.3251
584.416 616.541 2.05761
584.416 624.06 43.2099
584.416 631.579 49.3827
584.416 639.098 59.6708
584.416 646.617 76.1317
584.416 654.135 47.3251
584.416 661.654 47.3251
584.416 669.173 123.457
584.416 676.692 164.609
584.416 684.211 246.914
584.416 691.729 323.045
584.416 699.248 390.947
584.416 706.767 329.218
584.416 714.286 473.251
584.416 721.805 569.959
584.416 729.323 432.099
584.416 736.842 403.292
584.416 744.361 413.58
584.416 751.88 316.872
584.416 759.398 320.988
584.416 766.917 300.412
584.416 774.436 275.72
584.416 781.955 353.909
584.416 789.474 362.14
584.416 796.992 333.333
584.416 804.511 425.926
584.416 812.03 337.449
584.416 819.549 652.263
584.416 827.068 559.671
584.416 834.586 386.831
584.416 842.105 384.774
584.416 849.624 382.716
584.416 857.143 382.716
584.416 864.662 380.658
584.416 872.18 380.658
584.416 879.699 378.601
584.416 887.218 378.601
584.416 894.737 378.601
584.416 902.256 376.543
588.745 135.338 397.119
588.745 142.857 541.152
588.745 150.376 259.259
588.745 157.895 189.3
588.745 165.414 316.872
588.745 172.932 257.202
588.745 180.451 399.177
588.745 187.97 65.8436
588.745 195.489 57.6132
588.745 203.008 162.551
588.745 210.526 109.053
588.745 218.045 111.111
588.745 225.564 174.897
588.745 233.083 121.399
588.745 240.602 100.823
588.745 248.12 96.7078
588.745 255.639 45.2675
588.745 263.158 174.897
588.745 270.677 150.206
588.745 278.195 166.667
588.745 285.714 72.0165
588.745 293.233 115.226
588.745 300.752 20.5761
588.745 308.271 121.399
588.745 315.789 14.4033
588.745 323.308 41.1523
588.745 330.827 72.0165
588.745 338.346 41.1523
588.745 345.865 90.535
588.745 353.383 37.037
588.745 360.902 32.9218
588.745 368.421 8.23045
588.745 593.985 2.05761
588.745 601.504 43.2099
588.745 609.023 49.3827
588.745 616.541 4.11523
588.745 624.06 24.6914
588.745 631.579 51.4403
588.745 639.098 61.7284
588.745 646.617 102.881
588.745 654.135 72.0165
588.745 661.654 49.3827
588.745 669.173 94.6502
588.745 676.692 181.07
588.745 684.211 339.506
588.745 691.729 442.387
588.745 699.248 467.078
588.745 706.767 415.638
588.745 714.286 512.346
588.745 721.805 512.346
588.745 729.323 333.333
588.745 736.842 401.235
588.745 744.361 355.967
588.745 751.88 211.934
588.745 759.398 320.988
588.745 766.917 216.049
588.745 774.436 277.778
588.745 781.955 384.774
588.745 789.474 362.14
588.745 796.992 238.683
588.745 804.511 427.984
588.745 812.03 337.449
588.745 819.549 419.753
588.745 827.068 559.671
588.745 834.586 386.831
588.745 842.105 384.774
588.745 849.624 382.716
588.745 857.143 382.716
588.745 864.662 382.716
588.745 872.18 380.658
588.745 879.699 380.658
588.745 887.218 378.601
588.745 894.737 378.601
588.745 902.256 378.601
588.745 909.774 376.543
593.074 142.857 543.21
593.074 150.376 191.358
593.074 157.895 189.3
593.074 165.414 314.815
593.074 172.932 146.091
593.074 180.451 469.136
593.074 187.97 51.4403
593.074 195.489 51.4403
593.074 203.008 176.955
593.074 210.526 109.053
593.074 218.045 111.111
593.074 225.564 100.823
593.074 233.083 47.3251
593.074 240.602 47.3251
593.074 248.12 43.2099
593.074 255.639 104.938
593.074 263.158 49.3827
593.074 270.677 160.494
593.074 278.195 131.687
593.074 285.714 187.243
593.074 293.233 121.399
593.074 300.752 26.749
593.074 308.271 18.5185
593.074 315.789 82.3045
593.074 323.308 39.0947
593.074 330.827 12.3457
593.074 338.346 100.823
593.074 345.865 100.823
593.074 353.383 92.5926
593.074 360.902 37.037
593.074 368.421 30.8642
593.074 593.985 20.5761
593.074 601.504 24.6914
593.074 609.023 30.8642
593.074 616.541 6.17284
593.074 624.06 28.8066
593.074 631.579 74.0741
593.074 639.098 61.7284
593.074 646.617 69.9588
593.074 654.135 94.6502
593.074 661.654 78.1893
593.074 669.173 94.6502
593.074 676.692 139.918
593.074 684.211 265.432
593.074 691.729 390.947
593.074 699.248 522.634
593.074 706.767 444.444
593.074 714.286 518.519
593.074 721.805 403.292
593.074 729.323 358.025
593.074 736.842 372.428
593.074 744.361 355.967
593.074 751.88 265.432
593.074 759.398 320.988
593.074 766.917 216.049
593.074 774.436 216.049
593.074 781.955 382.716
593.074 789.474 292.181
593.074 796.992 236.626
593.074 804.511 364.198
593.074 812.03 337.449
593.074 819.549 419.753
593.074 827.068 559.671
593.074 834.586 386.831
593.074 842.105 384.774
593.074 849.624 384.774
593.074 857.143 382.716
593.074 864.662 382.716
593.074 872.18 380.658
593.074 879.699 380.658
593.074 887.218 380.658
593.074 894.737 380.658
593.074 902.256 378.601
593.074 909.774 378.601
593.074 917.293 380.658
597.403 142.857 397.119
597.403 150.376 401.235
597.403 157.895 189.3
597.403 165.414 189.3
597.403 172.932 316.872
597.403 180.451 436.214
597.403 187.97 121.399
597.403 195.489 45.2675
597.403 203.008 111.111
597.403 210.526 176.955
597.403 218.045 111.111
597.403 225.564 94.6502
597.403 233.083 37.037
597.403 240.602 47.3251
597.403 248.12 41.1523
597.403 255.639 47.3251
597.403 263.158 104.938
597.403 270.677 39.0947
597.403 278.195 139.918
597.403 285.714 150.206
597.403 293.233 209.877
597.403 300.752 67.9012
597.403 308.271 20.5761
597.403 315.789 86.4198
597.403 323.308 49.3827
597.403 330.827 10.2881
597.403 338.346 100.823
597.403 345.865 41.1523
597.403 353.383 96.7078
597.403 360.902 34.9794
597.403 368.421 32.9218
597.403 593.985 22.6337
597.403 601.504 26.749
597.403 609.023 30.8642
597.403 616.541 28.8066
597.403 624.06 4.11523
597.403 631.579 53.4979
597.403 639.098 37.037
597.403 646.617 41.1523
597.403 654.135 74.0741
597.403 661.654 90.535
597.403 669.173 106.996
597.403 676.692 150.206
597.403 684.211 230.453
597.403 691.729 471.193
597.403 699.248 522.634
597.403 706.767 421.811
597.403 714.286 405.35
597.403 721.805 318.93
597.403 729.323 401.235
597.403 736.842 386.831
597.403 744.361 355.967
597.403 751.88 265.432
597.403 759.398 269.547
597.403 766.917 269.547
597.403 774.436 298.354
597.403 781.955 382.716
597.403 789.474 205.761
597.403 796.992 364.198
597.403 804.511 364.198
597.403 812.03 337.449
597.403 819.549 419.753
597.403 827.068 559.671
597.403 834.586 386.831
597.403 842.105 384.774
597.403 849.624 384.774
597.403 857.143 382.716
597.403 864.662 382.716
597.403 872.18 382.716
597.403 879.699 382.716
597.403 887.218 380.658
597.403 894.737 380.658
597.403 902.256 380.658
597.403 909.774 378.601
597.403 917.293 380.658
597.403 924.812 380.658
601.732 142.857 397.119
601.732 150.376 257.202
601.732 157.895 401.235
601.732 165.414 259.259
601.732 172.932 259.259
601.732 180.451 504.115
601.732 187.97 318.93
601.732 195.489 51.4403
601.732 203.008 121.399
601.732 210.526 133.745
601.732 218.045 176.955
601.732 225.564 94.6502
601.732 233.083 39.0947
601.732 240.602 41.1523
601.732 248.12 41.1523
601.732 255.639 47.3251
601.732 263.158 104.938
601.732 270.677 39.0947
601.732 278.195 37.037
601.732 285.714 137.86
601.732 293.233 150.206
601.732 300.752 253.086
601.732 308.271 18.5185
601.732 315.789 18.5185
601.732 323.308 119.342
601.732 330.827 16.4609
601.732 338.346 72.0165
601.732 345.865 12.3457
601.732 353.383 102.881
601.732 360.902 65.8436
601.732 368.421 8.23045
601.732 375.94 8.23045
601.732 586.466 2.05761
601.732 593.985 22.6337
601.732 601.504 26.749
601.732 609.023 6.17284
601.732 616.541 30.8642
601.732 624.06 4.11523
601.732 631.579 49.3827
601.732 639.098 53.4979
601.732 646.617 63.786
601.732 654.135 67.9012
601.732 661.654 84.3621
601.732 669.173 137.86
601.732 676.692 183.128
601.732 684.211 240.741
601.732 691.729 493.827
601.732 699.248 489.712
601.732 706.767 425.926
601.732 714.286 405.35
601.732 721.805 487.654
601.732 729.323 401.235
601.732 736.842 355.967
601.732 744.361 434.156
601.732 751.88 471.193
601.732 759.398 228.395
601.732 766.917 345.679
601.732 774.436 382.716
601.732 781.955 419.753
601.732 789.474 205.761
601.732 796.992 364.198
601.732 804.511 446.502
601.732 812.03 528.807
601.732 819.549 652.263
601.732 827.068 559.671
601.732 834.586 386.831
601.732 842.105 384.774
601.732 849.624 384.774
601.732 857.143 384.774
601.732 864.662 384.774
601.732 872.18 382.716
601.732 879.699 382.716
601.732 887.218 382.716
601.732 894.737 382.716
601.732 902.256 382.716
601.732 909.774 380.658
601.732 917.293 380.658
601.732 924.812 380.658
606.061 150.376 399.177
606.061 157.895 259.259
606.061 165.414 399.177
606.061 172.932 189.3
606.061 180.451 339.506
606.061 187.97 360.082
606.061 195.489 135.802
606.061 203.008 152.263
606.061 210.526 121.399
606.061 218.045 121.399
606.061 225.564 152.263
606.061 233.083 43.2099
606.061 240.602 47.3251
606.061 248.12 47.3251
606.061 255.639 47.3251
606.061 263.158 41.1523
606.061 270.677 94.6502
606.061 278.195 32.9218
606.061 285.714 32.9218
606.061 293.233 90.535
606.061 300.752 228.395
606.061 308.271 246.914
606.061 315.789 57.6132
606.061 323.308 92.5926
606.061 330.827 84.3621
606.061 338.346 80.2469
606.061 345.865 69.9588
606.061 353.383 63.786
606.061 360.902 57.6132
606.061 368.421 30.8642
606.061 375.94 6.17284
606.061 586.466 4.11523
606.061 593.985 2.05761
606.061 601.504 26.749
606.061 609.023 4.11523
606.061 616.541 26.749
606.061 624.06 6.17284
606.061 631.579 26.749
606.061 639.098 28.8066
606.061 646.617 67.9012
606.061 654.135 67.9012
606.061 661.654 80.2469
606.061 669.173 164.609
606.061 676.692 199.588
606.061 684.211 304.527
606.061 691.729 448.56
606.061 699.248 500
606.061 706.767 388.889
606.061 714.286 419.753
606.061 721.805 440.329
606.061 729.323 316.872
606.061 736.842 516.461
606.061 744.361 473.251
606.061 751.88 413.58
606.061 759.398 469.136
606.061 766.917 347.737
606.061 774.436 327.16
606.061 781.955 294.239
606.061 789.474 364.198
606.061 796.992 364.198
606.061 804.511 444.444
606.061 812.03 419.753
606.061 819.549 559.671
606.061 827.068 388.889
606.061 834.586 388.889
606.061 842.105 386.831
606.061 849.624 384.774
606.061 857.143 384.774
606.061 864.662 384.774
606.061 872.18 384.774
606.061 879.699 384.774
606.061 887.218 382.716
606.061 894.737 382.716
606.061 902.256 382.716
606.061 909.774 382.716
606.061 917.293 380.658
606.061 924.812 380.658
606.061 932.331 380.658
610.39 157.895 537.037
610.39 165.414 259.259
610.39 172.932 259.259
610.39 180.451 399.177
610.39 187.97 539.095
610.39 195.489 471.193
610.39 203.008 288.066
610.39 210.526 135.802
610.39 218.045 135.802
610.39 225.564 164.609
610.39 233.083 104.938
610.39 240.602 37.037
610.39 248.12 37.037
610.39 255.639 32.9218
610.39 263.158 41.1523
610.39 270.677 41.1523
610.39 278.195 94.6502
610.39 285.714 30.8642
610.39 293.233 84.3621
610.39 300.752 84.3621
610.39 308.271 228.395
610.39 315.789 199.588
610.39 323.308 100.823
610.39 330.827 86.4198
610.39 338.346 45.2675
610.39 345.865 121.399
610.39 353.383 32.9218
610.39 360.902 55.5556
610.39 368.421 28.8066
610.39 375.94 6.17284
610.39 586.466 4.11523
610.39 593.985 28.8066
610.39 601.504 28.8066
610.39 609.023 4.11523
610.39 616.541 28.8066
610.39 624.06 6.17284
610.39 631.579 26.749
610.39 639.098 34.9794
610.39 646.617 88.4774
610.39 654.135 90.535
610.39 661.654 74.0741
610.39 669.173 209.877
610.39 676.692 234.568
610.39 684.211 335.391
610.39 691.729 547.325
610.39 699.248 528.807
610.39 706.767 337.449
610.39 714.286 277.778
610.39 721.805 384.774
610.39 729.323 415.638
610.39 736.842 528.807
610.39 744.361 637.86
610.39 751.88 524.691
610.39 759.398 372.428
610.39 766.917 409.465
610.39 774.436 423.868
610.39 781.955 395.062
610.39 789.474 366.255
610.39 796.992 279.835
610.39 804.511 337.449
610.39 812.03 421.811
610.39 819.549 559.671
610.39 827.068 390.947
610.39 834.586 388.889
610.39 842.105 386.831
610.39 849.624 386.831
610.39 857.143 384.774
610.39 864.662 384.774
610.39 872.18 384.774
610.39 879.699 384.774
610.39 887.218 384.774
610.39 894.737 382.716
610.39 902.256 382.716
610.39 909.774 382.716
610.39 917.293 380.658
610.39 924.812 380.658
610.39 932.331 378.601
610.39 939.85 376.543
614.719 165.414 393.004
614.719 172.932 537.037
614.719 180.451 537.037
614.719 187.97 611.111
614.719 195.489 606.996
614.719 203.008 232.51
614.719 210.526 234.568
614.719 218.045 133.745
614.719 225.564 111.111
614.719 233.083 102.881
614.719 240.602 94.6502
614.719 248.12 37.037
614.719 255.639 32.9218
614.719 263.158 32.9218
614.719 270.677 37.037
614.719 278.195 94.6502
614.719 285.714 34.9794
614.719 293.233 92.5926
614.719 300.752 84.3621
614.719 308.271 82.3045
614.719 315.789 90.535
614.719 323.308 240.741
614.719 330.827 22.6337
614.719 338.346 135.802
614.719 345.865 115.226
614.719 353.383 8.23045
614.719 360.902 55.5556
614.719 368.421 28.8066
614.719 375.94 26.749
614.719 593.985 28.8066
614.719 601.504 28.8066
614.719 609.023 4.11523
614.719 616.541 26.749
614.719 624.06 4.11523
614.719 631.579 24.6914
614.719 639.098 32.9218
614.719 646.617 37.037
614.719 654.135 86.4198
614.719 661.654 69.9588
614.719 669.173 261.317
614.719 676.692 248.971
614.719 684.211 442.387
614.719 691.729 592.593
614.719 699.248 421.811
614.719 706.767 234.568
614.719 714.286 234.568
614.719 721.805 364.198
614.719 729.323 362.14
614.719 736.842 269.547
614.719 744.361 411.523
614.719 751.88 522.634
614.719 759.398 522.634
614.719 766.917 502.058
614.719 774.436 652.263
614.719 781.955 364.198
614.719 789.474 281.893
614.719 796.992 337.449
614.719 804.511 339.506
614.719 812.03 652.263
614.719 819.549 557.613
614.719 827.068 390.947
614.719 834.586 388.889
614.719 842.105 388.889
614.719 849.624 386.831
614.719 857.143 386.831
614.719 864.662 386.831
614.719 872.18 386.831
614.719 879.699 384.774
614.719 887.218 384.774
614.719 894.737 384.774
614.719 902.256 382.716
614.719 909.774 382.716
614.719 917.293 380.658
614.719 924.812 380.658
614.719 932.331 378.601
614.719 939.85 378.601
614.719 947.368 376.543
619.048 180.451 393.004
619.048 187.97 393.004
619.048 195.489 541.152
619.048 203.008 580.247
619.048 210.526 351.852
619.048 218.045 362.14
619.048 225.564 281.893
619.048 233.083 220.165
619.048 240.602 152.263
619.048 248.12 43.2099
619.048 255.639 37.037
619.048 263.158 34.9794
619.048 270.677 37.037
619.048 278.195 39.0947
619.048 285.714 96.7078
619.048 293.233 90.535
619.048 300.752 92.5926
619.048 308.271 139.918
619.048 315.789 78.1893
619.048 323.308 310.7
619.048 330.827 59.6708
619.048 338.346 84.3621
619.048 345.865 174.897
619.048 353.383 8.23045
619.048 360.902 59.6708
619.048 368.421 51.4403
619.048 375.94 26.749
619.048 593.985 30.8642
619.048 601.504 28.8066
619.048 609.023 28.8066
619.048 616.541 30.8642
619.048 624.06 4.11523
619.048 631.579 2.05761
619.048 639.098 28.8066
619.048 646.617 37.037
619.048 654.135 109.053
619.048 661.654 100.823
619.048 669.173 240.741
619.048 676.692 341.564
619.048 684.211 524.691
619.048 691.729 602.881
619.048 699.248 368.313
619.048 706.767 265.432
619.048 714.286 436.214
619.048 721.805 434.156
619.048 729.323 479.424
619.048 736.842 415.638
619.048 744.361 355.967
619.048 751.88 355.967
619.048 759.398 467.078
619.048 766.917 676.955
619.048 774.436 827.16
619.048 781.955 528.807
619.048 789.474 339.506
619.048 796.992 339.506
619.048 804.511 711.934
619.048 812.03 648.148
619.048 819.549 393.004
619.048 827.068 390.947
619.048 834.586 390.947
619.048 842.105 390.947
619.048 849.624 388.889
619.048 857.143 388.889
619.048 864.662 388.889
619.048 872.18 388.889
619.048 879.699 386.831
619.048 887.218 386.831
619.048 894.737 384.774
619.048 902.256 382.716
619.048 909.774 382.716
619.048 917.293 380.658
619.048 924.812 380.658
619.048 932.331 378.601
619.048 939.85 376.543
619.048 947.368 376.543
619.048 954.887 376.543
623.377 195.489 541.152
623.377 203.008 543.21
623.377 210.526 580.247
623.377 218.045 298.354
623.377 225.564 366.255
623.377 233.083 209.877
623.377 240.602 193.416
623.377 248.12 195.473
623.377 255.639 37.037
623.377 263.158 34.9794
623.377 270.677 34.9794
623.377 278.195 41.1523
623.377 285.714 82.3045
623.377 293.233 84.3621
623.377 300.752 84.3621
623.377 308.271 141.975
623.377 315.789 90.535
623.377 323.308 294.239
623.377 330.827 69.9588
623.377 338.346 127.572
623.377 345.865 187.243
623.377 353.383 37.037
623.377 360.902 57.6132
623.377 368.421 53.4979
623.377 375.94 4.11523
623.377 593.985 37.037
623.377 601.504 32.9218
623.377 609.023 26.749
623.377 616.541 26.749
623.377 624.06 28.8066
623.377 631.579 2.05761
623.377 639.098 26.749
623.377 646.617 37.037
623.377 654.135 82.3045
623.377 661.654 92.5926
623.377 669.173 218.107
623.377 676.692 325.103
623.377 684.211 438.272
623.377 691.729 594.65
623.377 699.248 370.37
623.377 706.767 434.156
623.377 714.286 388.889
623.377 721.805 407.407
623.377 729.323 308.642
623.377 736.842 417.695
623.377 744.361 273.663
623.377 751.88 411.523
623.377 759.398 411.523
623.377 766.917 703.704
623.377 774.436 781.893
623.377 781.955 662.551
623.377 789.474 662.551
623.377 796.992 713.992
623.377 804.511 650.206
623.377 812.03 393.004
623.377 819.549 393.004
623.377 827.068 390.947
623.377 834.586 390.947
623.377 842.105 390.947
623.377 849.624 390.947
623.377 857.143 390.947
623.377 864.662 390.947
623.377 872.18 390.947
623.377 879.699 388.889
623.377 887.218 388.889
623.377 894.737 386.831
623.377 902.256 382.716
623.377 909.774 382.716
623.377 917.293 380.658
623.377 924.812 380.658
623.377 932.331 378.601
623.377 939.85 378.601
623.377 947.368 376.543
623.377 954.887 376.543
623.377 962.406 376.543
627.706 203.008 403.292
627.706 210.526 265.432
627.706 218.045 493.827
627.706 225.564 452.675
627.706 233.083 216.049
627.706 240.602 176.955
627.706 248.12 164.609
627.706 255.639 39.0947
627.706 263.158 39.0947
627.706 270.677 34.9794
627.706 278.195 41.1523
627.706 285.714 32.9218
627.706 293.233 135.802
627.706 300.752 137.86
627.706 308.271 131.687
627.706 315.789 96.7078
627.706 323.308 281.893
627.706 330.827 117.284
627.706 338.346 170.782
627.706 345.865 174.897
627.706 353.383 65.8436
627.706 360.902 57.6132
627.706 368.421 49.3827
627.706 375.94 4.11523
627.706 593.985 8.23045
627.706 601.504 32.9218
627.706 609.023 28.8066
627.706 616.541 26.749
627.706 624.06 28.8066
627.706 631.579 2.05761
627.706 639.098 24.6914
627.706 646.617 88.4774
627.706 654.135 115.226
627.706 661.654 148.148
627.706 669.173 242.798
627.706 676.692 360.082
627.706 684.211 656.379
627.706 691.729 584.362
627.706 699.248 442.387
627.706 706.767 489.712
627.706 714.286 479.424
627.706 721.805 407.407
627.706 729.323 374.486
627.706 736.842 475.309
627.706 744.361 273.663
627.706 751.88 411.523
627.706 759.398 483.539
627.706 766.917 705.761
627.706 774.436 670.782
627.706 781.955 668.724
627.706 789.474 584.362
627.706 796.992 397.119
627.706 804.511 395.062
627.706 812.03 393.004
627.706 819.549 393.004
627.706 827.068 393.004
627.706 834.586 393.004
627.706 842.105 390.947
627.706 849.624 390.947
627.706 857.143 390.947
627.706 864.662 390.947
627.706 872.18 390.947
627.706 879.699 390.947
627.706 887.218 388.889
627.706 894.737 386.831
627.706 902.256 384.774
627.706 909.774 382.716
627.706 917.293 380.658
627.706 924.812 380.658
627.706 932.331 380.658
627.706 939.85 378.601
627.706 947.368 376.543
627.706 954.887 376.543
627.706 962.406 376.543
632.035 210.526 403.292
632.035 218.045 411.523
632.035 225.564 469.136
632.035 233.083 269.547
632.035 240.602 263.374
632.035 248.12 193.416
632.035 255.639 226.337
632.035 263.158 43.2099
632.035 270.677 39.0947
632.035 278.195 37.037
632.035 285.714 88.4774
632.035 293.233 135.802
632.035 300.752 137.86
632.035 308.271 141.975
632.035 315.789 183.128
632.035 323.308 296.296
632.035 330.827 111.111
632.035 338.346 92.5926
632.035 345.865 191.358
632.035 353.383 41.1523
632.035 360.902 37.037
632.035 368.421 51.4403
632.035 375.94 4.11523
632.035 601.504 34.9794
632.035 609.023 4.11523
632.035 616.541 24.6914
632.035 624.06 26.749
632.035 631.579 24.6914
632.035 639.098 2.05761
632.035 646.617 104.938
632.035 654.135 100.823
632.035 661.654 181.07
632.035 669.173 222.222
632.035 676.692 343.621
632.035 684.211 438.272
632.035 691.729 594.65
632.035 699.248 602.881
632.035 706.767 646.091
632.035 714.286 477.366
632.035 721.805 372.428
632.035 729.323 374.486
632.035 736.842 374.486
632.035 744.361 374.486
632.035 751.88 648.148
632.035 759.398 662.551
632.035 766.917 654.321
632.035 774.436 479.424
632.035 781.955 668.724
632.035 789.474 397.119
632.035 796.992 397.119
632.035 804.511 395.062
632.035 812.03 395.062
632.035 819.549 393.004
632.035 827.068 393.004
632.035 834.586 393.004
632.035 842.105 393.004
632.035 849.624 393.004
632.035 857.143 393.004
632.035 864.662 390.947
632.035 872.18 390.947
632.035 879.699 390.947
632.035 887.218 388.889
632.035 894.737 386.831
632.035 902.256 384.774
632.035 909.774 382.716
632.035 917.293 382.716
632.035 924.812 380.658
632.035 932.331 380.658
632.035 939.85 378.601
632.035 947.368 378.601
632.035 954.887 376.543
632.035 962.406 376.543
636.364 218.045 553.498
636.364 225.564 411.523
636.364 233.083 362.14
636.364 240.602 170.782
636.364 248.12 213.992
636.364 255.639 246.914
636.364 263.158 47.3251
636.364 270.677 37.037
636.364 278.195 47.3251
636.364 285.714 88.4774
636.364 293.233 201.646
636.364 300.752 181.07
636.364 308.271 141.975
636.364 315.789 172.84
636.364 323.308 164.609
636.364 330.827 117.284
636.364 338.346 96.7078
636.364 345.865 191.358
636.364 353.383 41.1523
636.364 360.902 34.9794
636.364 368.421 51.4403
636.364 375.94 4.11523
636.364 601.504 26.749
636.364 609.023 26.749
636.364 616.541 24.6914
636.364 624.06 2.05761
636.364 631.579 22.6337
636.364 639.098 22.6337
636.364 646.617 102.881
636.364 654.135 69.9588
636.364 661.654 218.107
636.364 669.173 201.646
636.364 676.692 312.757
636.364 684.211 390.947
636.364 691.729 594.65
636.364 699.248 732.51
636.364 706.767 728.395
636.364 714.286 578.189
636.364 721.805 370.37
636.364 729.323 374.486
636.364 736.842 471.193
636.364 744.361 580.247
636.364 751.88 732.51
636.364 759.398 635.802
636.364 766.917 325.103
636.364 774.436 318.93
636.364 781.955 572.016
636.364 789.474 569.959
636.364 796.992 397.119
636.364 804.511 397.119
636.364 812.03 397.119
636.364 819.549 395.062
636.364 827.068 395.062
636.364 834.586 395.062
636.364 842.105 395.062
636.364 849.624 395.062
636.364 857.143 393.004
636.364 864.662 393.004
636.364 872.18 393.004
636.364 879.699 390.947
636.364 887.218 388.889
636.364 894.737 388.889
636.364 902.256 384.774
636.364 909.774 384.774
636.364 917.293 382.716
636.364 924.812 382.716
636.364 932.331 380.658
636.364 939.85 380.658
636.364 947.368 378.601
636.364 954.887 376.543
636.364 962.406 376.543
640.693 225.564 627.572
640.693 233.083 411.523
640.693 240.602 302.469
640.693 248.12 265.432
