334.802 392.405 657.534
334.802 398.734 821.918
334.802 405.063 835.616
334.802 411.392 486.301
334.802 417.722 835.616
334.802 424.051 849.315
334.802 430.38 493.151
334.802 436.709 842.466
334.802 443.038 815.068
334.802 449.367 602.74
334.802 455.696 856.164
334.802 462.025 856.164
334.802 468.354 595.89
334.802 474.684 890.411
334.802 487.342 828.767
334.802 493.671 383.562
334.802 500 828.767
334.802 506.329 904.11
334.802 512.658 458.904
334.802 518.987 904.11
334.802 525.316 815.068
334.802 531.646 815.068
334.802 537.975 863.014
334.802 544.304 938.356
334.802 550.633 595.89
334.802 556.962 938.356
334.802 569.62 869.863
334.802 575.949 397.26
334.802 582.278 910.959
334.802 588.608 897.26
334.802 594.937 417.808
334.802 601.266 924.658
334.802 613.924 856.164
334.802 620.253 664.384
334.802 626.582 917.808
334.802 632.911 938.356
334.802 639.241 431.507
334.802 645.57 952.055
334.802 658.228 952.055
334.802 664.557 191.781
334.802 670.886 952.055
334.802 683.544 965.753
334.802 689.873 130.137
334.802 696.203 965.753
334.802 702.532 972.603
334.802 708.861 20.5479
334.802 715.19 958.904
334.802 727.848 945.205
334.802 734.177 20.5479
334.802 740.506 938.356
334.802 753.165 910.959
334.802 765.823 910.959
334.802 778.481 849.315
334.802 791.139 849.315
334.802 803.797 794.521
334.802 810.127 123.288
334.802 816.456 787.671
334.802 829.114 767.123
334.802 835.443 273.973
334.802 841.772 767.123
334.802 854.43 726.027
334.802 860.759 130.137
334.802 867.089 726.027
334.802 879.747 684.932
334.802 886.076 212.329
334.802 892.405 684.932
334.802 905.063 356.164
334.802 911.392 356.164
334.802 917.722 356.164
339.207 120.253 431.507
339.207 126.582 431.507
339.207 132.911 431.507
339.207 139.241 438.356
339.207 145.57 438.356
339.207 151.899 438.356
339.207 158.228 438.356
339.207 164.557 438.356
339.207 170.886 445.205
339.207 177.215 445.205
339.207 183.544 445.205
339.207 189.873 445.205
339.207 196.203 445.205
339.207 202.532 452.055
339.207 208.861 452.055
339.207 215.19 452.055
339.207 221.519 458.904
339.207 227.848 458.904
339.207 234.177 458.904
339.207 240.506 698.63
339.207 246.835 698.63
339.207 253.165 691.781
339.207 259.494 691.781
339.207 265.823 691.781
339.207 272.152 472.603
339.207 278.481 472.603
339.207 284.81 472.603
339.207 291.139 472.603
339.207 297.468 472.603
339.207 303.797 472.603
339.207 310.127 479.452
339.207 316.456 479.452
339.207 322.785 479.452
339.207 329.114 671.233
339.207 335.443 486.301
339.207 341.772 671.233
339.207 348.101 636.986
339.207 354.43 636.986
339.207 360.759 773.973
339.207 367.089 431.507
339.207 373.418 431.507
339.207 379.747 712.329
339.207 386.076 780.822
339.207 392.405 363.014
339.207 398.734 821.918
339.207 405.063 787.671
339.207 411.392 582.192
339.207 417.722 835.616
339.207 424.051 808.219
339.207 430.38 595.89
339.207 436.709 849.315
339.207 443.038 815.068
339.207 449.367 773.973
339.207 455.696 815.068
339.207 462.025 856.164
339.207 468.354 595.89
339.207 474.684 856.164
339.207 487.342 828.767
339.207 493.671 390.411
339.207 500 828.767
339.207 506.329 904.11
339.207 512.658 452.055
339.207 518.987 910.959
339.207 525.316 821.918
339.207 531.646 821.918
339.207 537.975 815.068
339.207 544.304 869.863
339.207 550.633 801.37
339.207 556.962 938.356
339.207 569.62 794.521
339.207 575.949 493.151
339.207 582.278 869.863
339.207 588.608 883.562
339.207 594.937 493.151
339.207 601.266 897.26
339.207 613.924 794.521
339.207 620.253 506.849
339.207 626.582 876.712
339.207 632.911 890.411
339.207 639.241 561.644
339.207 645.57 945.205
339.207 658.228 952.055
339.207 664.557 356.164
339.207 670.886 952.055
339.207 683.544 972.603
339.207 689.873 130.137
339.207 696.203 972.603
339.207 702.532 979.452
339.207 708.861 41.0959
339.207 715.19 965.753
339.207 727.848 945.205
339.207 734.177 20.5479
339.207 740.506 945.205
339.207 753.165 917.808
339.207 765.823 910.959
339.207 778.481 849.315
339.207 791.139 842.466
339.207 803.797 794.521
339.207 810.127 102.74
339.207 816.456 787.671
339.207 829.114 767.123
339.207 835.443 232.877
339.207 841.772 767.123
339.207 854.43 726.027
339.207 860.759 116.438
339.207 867.089 726.027
339.207 879.747 684.932
339.207 886.076 212.329
339.207 892.405 684.932
339.207 905.063 568.493
339.207 911.392 568.493
339.207 917.722 568.493
343.612 120.253 438.356
343.612 126.582 438.356
343.612 132.911 431.507
343.612 139.241 438.356
343.612 145.57 438.356
343.612 151.899 438.356
343.612 158.228 445.205
343.612 164.557 438.356
343.612 183.544 445.205
343.612 189.873 445.205
343.612 196.203 445.205
343.612 202.532 452.055
343.612 208.861 452.055
343.612 215.19 452.055
343.612 221.519 458.904
343.612 227.848 458.904
343.612 234.177 458.904
343.612 240.506 698.63
343.612 246.835 698.63
343.612 253.165 698.63
343.612 259.494 691.781
343.612 265.823 691.781
343.612 272.152 472.603
343.612 278.481 472.603
343.612 284.81 472.603
343.612 291.139 479.452
343.612 297.468 479.452
343.612 303.797 472.603
343.612 310.127 479.452
343.612 316.456 479.452
343.612 322.785 479.452
343.612 329.114 616.438
343.612 335.443 616.438
343.612 341.772 726.027
343.612 348.101 636.986
343.612 354.43 636.986
343.612 360.759 636.986
343.612 367.089 438.356
343.612 373.418 438.356
343.612 379.747 431.507
343.612 386.076 746.575
343.612 392.405 472.603
343.612 398.734 780.822
343.612 405.063 719.178
343.612 411.392 472.603
343.612 417.722 787.671
343.612 424.051 808.219
343.612 430.38 595.89
343.612 436.709 808.219
343.612 443.038 815.068
343.612 449.367 602.74
343.612 455.696 815.068
343.612 462.025 821.918
343.612 468.354 376.712
343.612 474.684 856.164
343.612 487.342 856.164
343.612 493.671 315.068
343.612 500 856.164
343.612 506.329 910.959
343.612 512.658 452.055
343.612 518.987 904.11
343.612 525.316 863.014
343.612 531.646 664.384
343.612 537.975 863.014
343.612 544.304 849.315
343.612 550.633 547.945
343.612 556.962 869.863
343.612 569.62 801.37
343.612 575.949 684.932
343.612 582.278 794.521
343.612 588.608 856.164
343.612 594.937 383.562
343.612 601.266 883.562
343.612 613.924 856.164
343.612 620.253 390.411
343.612 626.582 856.164
343.612 632.911 849.315
343.612 639.241 383.562
343.612 645.57 890.411
343.612 658.228 917.808
343.612 664.557 513.699
343.612 670.886 945.205
343.612 683.544 979.452
343.612 689.873 89.0411
343.612 696.203 972.603
343.612 702.532 972.603
343.612 708.861 6.84932
343.612 715.19 979.452
343.612 727.848 945.205
343.612 734.177 20.5479
343.612 740.506 945.205
343.612 753.165 924.658
343.612 765.823 917.808
343.612 778.481 849.315
343.612 791.139 849.315
343.612 803.797 794.521
343.612 810.127 109.589
343.612 816.456 794.521
343.612 829.114 767.123
343.612 835.443 136.986
343.612 841.772 767.123
343.612 854.43 726.027
343.612 860.759 116.438
343.612 867.089 726.027
343.612 879.747 684.932
343.612 886.076 212.329
343.612 892.405 684.932
343.612 905.063 568.493
343.612 911.392 568.493
343.612 917.722 609.589
348.018 120.253 438.356
348.018 126.582 438.356
348.018 132.911 438.356
348.018 139.241 438.356
348.018 145.57 438.356
348.018 151.899 438.356
348.018 158.228 445.205
348.018 164.557 445.205
348.018 170.886 445.205
348.018 177.215 445.205
348.018 183.544 445.205
348.018 189.873 445.205
348.018 196.203 445.205
348.018 202.532 445.205
348.018 208.861 452.055
348.018 215.19 452.055
348.018 221.519 452.055
348.018 227.848 452.055
348.018 234.177 452.055
348.018 240.506 698.63
348.018 246.835 698.63
348.018 253.165 698.63
348.018 259.494 712.329
348.018 265.823 698.63
348.018 272.152 595.89
348.018 278.481 595.89
348.018 284.81 595.89
348.018 291.139 602.74
348.018 297.468 602.74
348.018 303.797 602.74
348.018 310.127 609.589
348.018 316.456 609.589
348.018 322.785 609.589
348.018 329.114 623.288
348.018 335.443 623.288
348.018 341.772 623.288
348.018 348.101 636.986
348.018 354.43 636.986
348.018 360.759 636.986
348.018 367.089 438.356
348.018 373.418 438.356
348.018 379.747 438.356
348.018 386.076 650.685
348.018 392.405 650.685
348.018 398.734 746.575
348.018 405.063 657.534
348.018 411.392 657.534
348.018 417.722 787.671
348.018 424.051 801.37
348.018 430.38 595.89
348.018 436.709 808.219
348.018 443.038 842.466
348.018 449.367 493.151
348.018 455.696 842.466
348.018 462.025 849.315
348.018 468.354 479.452
348.018 474.684 849.315
348.018 487.342 856.164
348.018 493.671 390.411
348.018 500 856.164
348.018 506.329 869.863
348.018 512.658 321.918
348.018 518.987 910.959
348.018 525.316 780.822
348.018 531.646 534.247
348.018 537.975 890.411
348.018 544.304 849.315
348.018 550.633 554.795
348.018 556.962 849.315
348.018 569.62 746.575
348.018 575.949 356.164
348.018 582.278 801.37
348.018 588.608 856.164
348.018 594.937 376.712
348.018 601.266 856.164
348.018 613.924 856.164
348.018 620.253 390.411
348.018 626.582 856.164
348.018 632.911 815.068
348.018 639.241 232.877
348.018 645.57 842.466
348.018 658.228 938.356
348.018 664.557 506.849
348.018 670.886 945.205
348.018 683.544 979.452
348.018 689.873 89.0411
348.018 696.203 979.452
348.018 702.532 972.603
348.018 708.861 47.9452
348.018 715.19 979.452
348.018 727.848 945.205
348.018 734.177 27.3973
348.018 740.506 945.205
348.018 753.165 917.808
348.018 759.494 0
348.018 765.823 924.658
348.018 778.481 856.164
348.018 784.81 6.84932
348.018 791.139 849.315
348.018 803.797 794.521
348.018 810.127 27.3973
348.018 816.456 794.521
348.018 829.114 767.123
348.018 835.443 267.123
348.018 841.772 767.123
348.018 854.43 719.178
348.018 860.759 20.5479
348.018 867.089 726.027
348.018 879.747 691.781
348.018 886.076 253.425
348.018 892.405 691.781
348.018 905.063 568.493
348.018 911.392 356.164
348.018 917.722 568.493
352.423 120.253 438.356
352.423 126.582 438.356
352.423 132.911 438.356
352.423 139.241 424.658
352.423 145.57 424.658
352.423 151.899 431.507
352.423 158.228 438.356
352.423 164.557 438.356
352.423 170.886 445.205
352.423 177.215 445.205
352.423 183.544 445.205
352.423 202.532 445.205
352.423 208.861 445.205
352.423 215.19 452.055
352.423 221.519 452.055
352.423 227.848 452.055
352.423 234.177 452.055
352.423 240.506 698.63
352.423 246.835 698.63
352.423 253.165 732.877
352.423 259.494 739.726
352.423 265.823 739.726
352.423 272.152 595.89
352.423 278.481 595.89
352.423 284.81 595.89
352.423 291.139 602.74
352.423 297.468 602.74
352.423 303.797 602.74
352.423 310.127 609.589
352.423 316.456 609.589
352.423 322.785 609.589
352.423 329.114 623.288
352.423 335.443 623.288
352.423 341.772 623.288
352.423 348.101 643.836
352.423 354.43 643.836
352.423 360.759 636.986
352.423 367.089 643.836
352.423 373.418 643.836
352.423 379.747 643.836
352.423 386.076 650.685
352.423 392.405 650.685
352.423 398.734 650.685
352.423 405.063 657.534
352.423 411.392 657.534
352.423 417.722 657.534
352.423 424.051 828.767
352.423 430.38 486.301
352.423 436.709 835.616
352.423 443.038 794.521
352.423 449.367 369.863
352.423 455.696 842.466
352.423 462.025 849.315
352.423 468.354 301.37
352.423 474.684 849.315
352.423 487.342 863.014
352.423 493.671 315.068
352.423 500 856.164
352.423 506.329 863.014
352.423 512.658 321.918
352.423 518.987 863.014
352.423 525.316 787.671
352.423 531.646 527.397
352.423 537.975 780.822
352.423 544.304 917.808
352.423 550.633 547.945
352.423 556.962 917.808
352.423 569.62 746.575
352.423 575.949 356.164
352.423 582.278 746.575
352.423 588.608 849.315
352.423 594.937 609.589
352.423 601.266 890.411
352.423 613.924 787.671
352.423 620.253 493.151
352.423 626.582 856.164
352.423 632.911 815.068
352.423 639.241 226.027
352.423 645.57 815.068
352.423 658.228 945.205
352.423 664.557 602.74
352.423 670.886 938.356
352.423 683.544 979.452
352.423 689.873 82.1918
352.423 696.203 979.452
352.423 702.532 979.452
352.423 708.861 6.84932
352.423 715.19 972.603
352.423 727.848 945.205
352.423 734.177 75.3425
352.423 740.506 945.205
352.423 753.165 917.808
352.423 759.494 34.2466
352.423 765.823 917.808
352.423 778.481 863.014
352.423 784.81 54.7945
352.423 791.139 856.164
352.423 803.797 794.521
352.423 810.127 20.5479
352.423 816.456 794.521
352.423 829.114 746.575
352.423 835.443 287.671
352.423 841.772 767.123
352.423 854.43 719.178
352.423 860.759 232.877
352.423 867.089 726.027
352.423 879.747 664.384
352.423 886.076 349.315
352.423 892.405 691.781
352.423 905.063 609.589
352.423 911.392 273.973
352.423 917.722 602.74
352.423 930.38 349.315
352.423 936.709 349.315
352.423 943.038 349.315
356.828 120.253 431.507
356.828 126.582 431.507
356.828 132.911 431.507
356.828 139.241 417.808
356.828 145.57 417.808
356.828 151.899 431.507
356.828 158.228 438.356
356.828 164.557 438.356
356.828 183.544 445.205
356.828 202.532 445.205
356.828 208.861 445.205
356.828 215.19 445.205
356.828 221.519 452.055
356.828 227.848 452.055
356.828 234.177 452.055
356.828 240.506 698.63
356.828 246.835 698.63
356.828 253.165 732.877
356.828 259.494 739.726
356.828 265.823 739.726
356.828 272.152 595.89
356.828 278.481 595.89
356.828 284.81 595.89
356.828 291.139 602.74
356.828 297.468 602.74
356.828 303.797 602.74
356.828 310.127 609.589
356.828 316.456 609.589
356.828 322.785 609.589
356.828 329.114 630.137
356.828 335.443 630.137
356.828 341.772 623.288
356.828 348.101 643.836
356.828 354.43 643.836
356.828 360.759 643.836
356.828 367.089 643.836
356.828 373.418 643.836
356.828 379.747 643.836
356.828 386.076 650.685
356.828 392.405 650.685
356.828 398.734 650.685
356.828 405.063 739.726
356.828 411.392 479.452
356.828 417.722 739.726
356.828 424.051 794.521
356.828 430.38 589.041
356.828 436.709 863.014
356.828 443.038 828.767
356.828 449.367 479.452
356.828 455.696 835.616
356.828 462.025 849.315
356.828 468.354 376.712
356.828 474.684 849.315
356.828 487.342 863.014
356.828 493.671 315.068
356.828 500 863.014
356.828 506.329 869.863
356.828 512.658 513.699
356.828 518.987 904.11
356.828 525.316 787.671
356.828 531.646 520.548
356.828 537.975 780.822
356.828 544.304 863.014
356.828 550.633 650.685
356.828 556.962 917.808
356.828 569.62 746.575
356.828 575.949 356.164
356.828 582.278 746.575
356.828 588.608 856.164
356.828 594.937 623.288
356.828 601.266 869.863
356.828 613.924 787.671
356.828 620.253 493.151
356.828 626.582 787.671
356.828 632.911 890.411
356.828 639.241 842.466
356.828 645.57 917.808
356.828 658.228 952.055
356.828 664.557 417.808
356.828 670.886 952.055
356.828 683.544 979.452
356.828 689.873 123.288
356.828 696.203 979.452
356.828 702.532 979.452
356.828 708.861 41.0959
356.828 715.19 979.452
356.828 727.848 938.356
356.828 734.177 41.0959
356.828 740.506 945.205
356.828 753.165 917.808
356.828 759.494 41.0959
356.828 765.823 917.808
356.828 778.481 869.863
356.828 784.81 34.2466
356.828 791.139 863.014
356.828 803.797 794.521
356.828 810.127 205.479
356.828 816.456 794.521
356.828 829.114 746.575
356.828 835.443 294.521
356.828 841.772 753.425
356.828 854.43 726.027
356.828 860.759 47.9452
356.828 867.089 726.027
356.828 879.747 678.082
356.828 886.076 356.164
356.828 892.405 678.082
356.828 905.063 602.74
356.828 911.392 273.973
356.828 917.722 609.589
356.828 930.38 349.315
356.828 936.709 349.315
356.828 943.038 349.315
361.233 120.253 431.507
361.233 126.582 431.507
361.233 132.911 431.507
361.233 139.241 424.658
361.233 145.57 424.658
361.233 151.899 410.959
361.233 164.557 438.356
361.233 170.886 431.507
361.233 177.215 431.507
361.233 183.544 431.507
361.233 202.532 438.356
361.233 208.861 438.356
361.233 215.19 445.205
361.233 221.519 445.205
361.233 227.848 445.205
361.233 234.177 452.055
361.233 240.506 698.63
361.233 246.835 698.63
361.233 253.165 732.877
361.233 259.494 739.726
361.233 265.823 739.726
361.233 272.152 595.89
361.233 278.481 595.89
361.233 284.81 595.89
361.233 291.139 602.74
361.233 297.468 602.74
361.233 303.797 602.74
361.233 310.127 609.589
361.233 316.456 609.589
361.233 322.785 609.589
361.233 329.114 630.137
361.233 335.443 630.137
361.233 341.772 630.137
361.233 348.101 643.836
361.233 354.43 643.836
361.233 360.759 643.836
361.233 367.089 719.178
361.233 373.418 472.603
361.233 379.747 719.178
361.233 386.076 780.822
361.233 392.405 582.192
361.233 398.734 780.822
361.233 405.063 794.521
361.233 411.392 383.562
361.233 417.722 794.521
361.233 424.051 739.726
361.233 430.38 479.452
361.233 436.709 794.521
361.233 443.038 808.219
361.233 449.367 376.712
361.233 455.696 835.616
361.233 462.025 760.274
361.233 468.354 486.301
361.233 474.684 849.315
361.233 487.342 897.26
361.233 493.671 431.507
361.233 500 904.11
361.233 506.329 876.712
361.233 512.658 698.63
361.233 518.987 904.11
361.233 525.316 698.63
361.233 531.646 698.63
361.233 537.975 787.671
361.233 544.304 732.877
361.233 550.633 732.877
361.233 556.962 863.014
361.233 569.62 828.767
361.233 575.949 534.247
361.233 582.278 828.767
361.233 588.608 801.37
361.233 594.937 513.699
361.233 601.266 856.164
361.233 613.924 821.918
361.233 620.253 527.397
361.233 626.582 856.164
361.233 632.911 890.411
361.233 639.241 691.781
361.233 645.57 890.411
361.233 658.228 965.753
361.233 664.557 383.562
361.233 670.886 965.753
361.233 683.544 972.603
361.233 689.873 47.9452
361.233 696.203 979.452
361.233 702.532 979.452
361.233 708.861 41.0959
361.233 715.19 979.452
361.233 727.848 952.055
361.233 734.177 27.3973
361.233 740.506 945.205
361.233 753.165 917.808
361.233 759.494 47.9452
361.233 765.823 917.808
361.233 778.481 869.863
361.233 784.81 54.7945
361.233 791.139 869.863
361.233 803.797 821.918
361.233 810.127 226.027
361.233 816.456 815.068
361.233 829.114 746.575
361.233 835.443 239.726
361.233 841.772 746.575
361.233 854.43 719.178
361.233 860.759 164.384
361.233 867.089 726.027
361.233 879.747 691.781
361.233 886.076 219.178
361.233 892.405 691.781
361.233 905.063 602.74
361.233 911.392 273.973
361.233 917.722 602.74
361.233 943.038 349.315
365.639 120.253 424.658
365.639 126.582 424.658
365.639 132.911 431.507
365.639 139.241 410.959
365.639 145.57 410.959
365.639 151.899 424.658
365.639 170.886 431.507
365.639 177.215 431.507
365.639 183.544 431.507
365.639 215.19 438.356
365.639 234.177 445.205
365.639 240.506 554.795
365.639 246.835 554.795
365.639 253.165 732.877
365.639 259.494 739.726
365.639 265.823 739.726
365.639 272.152 746.575
365.639 278.481 746.575
365.639 284.81 746.575
365.639 291.139 602.74
365.639 297.468 602.74
365.639 303.797 602.74
365.639 310.127 698.63
365.639 316.456 698.63
365.639 322.785 698.63
365.639 329.114 712.329
365.639 335.443 712.329
365.639 341.772 712.329
365.639 348.101 773.973
365.639 354.43 575.342
365.639 360.759 773.973
365.639 367.089 780.822
365.639 373.418 376.712
365.639 379.747 773.973
365.639 386.076 787.671
365.639 392.405 376.712
365.639 398.734 787.671
365.639 405.063 732.877
365.639 411.392 643.836
365.639 417.722 794.521
365.639 424.051 746.575
365.639 430.38 479.452
365.639 436.709 739.726
365.639 443.038 753.425
365.639 449.367 486.301
365.639 455.696 808.219
365.639 462.025 657.534
365.639 468.354 294.521
365.639 474.684 760.274
365.639 487.342 883.562
365.639 493.671 705.479
365.639 500 924.658
365.639 506.329 856.164
365.639 512.658 623.288
365.639 518.987 876.712
365.639 525.316 712.329
365.639 531.646 712.329
365.639 537.975 794.521
365.639 544.304 821.918
365.639 550.633 821.918
365.639 556.962 821.918
365.639 569.62 712.329
365.639 575.949 712.329
365.639 582.278 828.767
365.639 588.608 828.767
365.639 594.937 541.096
365.639 601.266 863.014
365.639 613.924 828.767
365.639 620.253 534.247
365.639 626.582 821.918
365.639 632.911 910.959
365.639 639.241 520.548
365.639 645.57 938.356
365.639 658.228 910.959
365.639 664.557 458.904
365.639 670.886 945.205
365.639 683.544 965.753
365.639 689.873 0
365.639 696.203 972.603
365.639 702.532 972.603
365.639 715.19 972.603
365.639 727.848 958.904
365.639 740.506 952.055
365.639 753.165 924.658
365.639 759.494 47.9452
365.639 765.823 924.658
365.639 778.481 869.863
365.639 784.81 47.9452
365.639 791.139 876.712
365.639 803.797 815.068
365.639 810.127 212.329
365.639 816.456 808.219
365.639 829.114 719.178
365.639 835.443 178.082
365.639 841.772 746.575
365.639 854.43 726.027
365.639 860.759 130.137
365.639 867.089 726.027
365.639 879.747 691.781
365.639 886.076 123.288
365.639 892.405 691.781
365.639 905.063 547.945
365.639 911.392 349.315
365.639 917.722 630.137
370.044 120.253 424.658
370.044 126.582 424.658
370.044 132.911 424.658
370.044 139.241 410.959
370.044 145.57 410.959
370.044 151.899 410.959
370.044 183.544 431.507
370.044 240.506 630.137
370.044 246.835 630.137
370.044 253.165 643.836
370.044 259.494 650.685
370.044 265.823 739.726
370.044 272.152 746.575
370.044 278.481 746.575
370.044 284.81 746.575
370.044 291.139 602.74
370.044 297.468 602.74
370.044 303.797 602.74
370.044 310.127 698.63
370.044 316.456 698.63
370.044 322.785 698.63
370.044 329.114 712.329
370.044 335.443 712.329
370.044 341.772 712.329
370.044 348.101 773.973
370.044 354.43 369.863
370.044 360.759 773.973
370.044 367.089 780.822
370.044 373.418 369.863
370.044 379.747 780.822
370.044 386.076 719.178
370.044 392.405 458.904
370.044 398.734 787.671
370.044 405.063 732.877
370.044 411.392 465.753
370.044 417.722 732.877
370.044 424.051 746.575
370.044 430.38 479.452
370.044 436.709 746.575
370.044 443.038 753.425
370.044 449.367 486.301
370.044 455.696 753.425
370.044 462.025 760.274
370.044 468.354 760.274
370.044 474.684 760.274
370.044 487.342 767.123
370.044 493.671 500
370.044 500 883.562
370.044 506.329 856.164
370.044 512.658 856.164
370.044 518.987 856.164
370.044 525.316 821.918
370.044 531.646 527.397
370.044 537.975 821.918
370.044 544.304 821.918
370.044 550.633 527.397
370.044 556.962 821.918
370.044 569.62 719.178
370.044 575.949 719.178
370.044 582.278 712.329
370.044 588.608 897.26
370.044 594.937 424.658
370.044 601.266 897.26
370.044 613.924 828.767
370.044 620.253 541.096
370.044 626.582 821.918
370.044 632.911 910.959
370.044 639.241 527.397
370.044 645.57 910.959
370.044 658.228 883.562
370.044 664.557 171.233
370.044 670.886 917.808
370.044 683.544 958.904
370.044 689.873 89.0411
370.044 696.203 965.753
370.044 702.532 958.904
370.044 708.861 6.84932
370.044 715.19 965.753
370.044 727.848 952.055
370.044 740.506 958.904
370.044 753.165 931.507
370.044 759.494 6.84932
370.044 765.823 924.658
370.044 778.481 863.014
370.044 784.81 27.3973
370.044 791.139 876.712
370.044 803.797 794.521
370.044 810.127 171.233
370.044 816.456 808.219
370.044 829.114 726.027
370.044 835.443 239.726
370.044 841.772 726.027
370.044 854.43 726.027
370.044 860.759 75.3425
370.044 867.089 726.027
370.044 879.747 691.781
370.044 886.076 219.178
370.044 892.405 698.63
370.044 905.063 547.945
370.044 911.392 349.315
370.044 917.722 547.945
374.449 132.911 424.658
374.449 151.899 410.959
374.449 240.506 630.137
374.449 246.835 630.137
374.449 253.165 636.986
374.449 259.494 650.685
374.449 265.823 650.685
374.449 272.152 664.384
374.449 278.481 664.384
374.449 284.81 746.575
374.449 291.139 684.932
374.449 297.468 684.932
374.449 303.797 684.932
374.449 310.127 698.63
374.449 316.456 698.63
374.449 322.785 698.63
374.449 329.114 753.425
374.449 335.443 561.644
374.449 341.772 753.425
374.449 348.101 780.822
374.449 354.43 369.863
374.449 360.759 773.973
374.449 367.089 712.329
374.449 373.418 458.904
374.449 379.747 780.822
374.449 386.076 719.178
374.449 392.405 458.904
374.449 398.734 719.178
374.449 405.063 732.877
374.449 411.392 472.603
374.449 417.722 732.877
374.449 424.051 746.575
374.449 430.38 486.301
374.449 436.709 746.575
374.449 443.038 753.425
374.449 449.367 486.301
374.449 455.696 753.425
374.449 462.025 760.274
374.449 468.354 493.151
374.449 474.684 760.274
374.449 487.342 767.123
374.449 493.671 500
374.449 500 767.123
374.449 506.329 856.164
374.449 512.658 623.288
374.449 518.987 856.164
374.449 525.316 821.918
374.449 531.646 527.397
374.449 537.975 821.918
374.449 544.304 808.219
374.449 550.633 808.219
374.449 556.962 815.068
374.449 569.62 726.027
374.449 575.949 726.027
374.449 582.278 719.178
374.449 588.608 924.658
374.449 594.937 363.014
374.449 601.266 917.808
374.449 613.924 890.411
374.449 620.253 424.658
374.449 626.582 890.411
374.449 632.911 732.877
374.449 639.241 732.877
374.449 645.57 910.959
374.449 658.228 897.26
374.449 664.557 109.589
374.449 670.886 883.562
374.449 683.544 958.904
374.449 689.873 34.2466
374.449 696.203 958.904
374.449 702.532 952.055
374.449 708.861 27.3973
374.449 715.19 958.904
374.449 727.848 952.055
374.449 734.177 34.2466
374.449 740.506 952.055
374.449 753.165 938.356
374.449 759.494 13.6986
374.449 765.823 931.507
374.449 778.481 869.863
374.449 784.81 68.4932
374.449 791.139 863.014
374.449 803.797 780.822
374.449 810.127 219.178
374.449 816.456 801.37
374.449 829.114 712.329
374.449 835.443 260.274
374.449 841.772 726.027
374.449 854.43 719.178
374.449 860.759 143.836
374.449 867.089 726.027
374.449 879.747 691.781
374.449 886.076 102.74
374.449 892.405 691.781
374.449 905.063 547.945
374.449 911.392 342.466
374.449 917.722 547.945
378.855 240.506 630.137
378.855 246.835 630.137
378.855 253.165 636.986
378.855 259.494 650.685
378.855 265.823 650.685
378.855 272.152 657.534
378.855 278.481 657.534
378.855 284.81 657.534
378.855 291.139 657.534
378.855 297.468 424.658
378.855 303.797 726.027
378.855 310.127 671.233
378.855 316.456 431.507
378.855 322.785 739.726
378.855 329.114 753.425
378.855 335.443 465.753
378.855 341.772 753.425
378.855 348.101 773.973
378.855 354.43 363.014
378.855 360.759 773.973
378.855 367.089 719.178
378.855 373.418 458.904
378.855 379.747 712.329
378.855 386.076 719.178
378.855 392.405 465.753
378.855 398.734 719.178
378.855 405.063 732.877
378.855 411.392 472.603
378.855 417.722 732.877
378.855 424.051 746.575
378.855 430.38 486.301
378.855 436.709 746.575
378.855 443.038 753.425
378.855 449.367 486.301
378.855 455.696 753.425
378.855 462.025 760.274
378.855 468.354 760.274
378.855 474.684 760.274
378.855 487.342 767.123
378.855 493.671 500
378.855 500 767.123
378.855 506.329 856.164
378.855 512.658 630.137
378.855 518.987 856.164
378.855 525.316 821.918
378.855 531.646 527.397
378.855 537.975 821.918
378.855 544.304 808.219
378.855 550.633 541.096
378.855 556.962 808.219
378.855 569.62 808.219
378.855 575.949 547.945
378.855 582.278 808.219
378.855 588.608 876.712
378.855 594.937 438.356
378.855 601.266 924.658
378.855 613.924 828.767
378.855 620.253 239.726
378.855 626.582 890.411
378.855 632.911 869.863
378.855 639.241 630.137
378.855 645.57 869.863
378.855 658.228 890.411
378.855 664.557 157.534
378.855 670.886 897.26
378.855 683.544 958.904
378.855 689.873 0
378.855 696.203 958.904
378.855 702.532 952.055
378.855 708.861 27.3973
378.855 715.19 952.055
378.855 727.848 952.055
378.855 734.177 0
378.855 740.506 952.055
378.855 753.165 945.205
378.855 759.494 6.84932
378.855 765.823 938.356
378.855 778.481 869.863
378.855 784.81 136.986
378.855 791.139 869.863
378.855 803.797 780.822
378.855 810.127 280.822
378.855 816.456 780.822
378.855 829.114 712.329
378.855 835.443 356.164
378.855 841.772 726.027
378.855 854.43 719.178
378.855 860.759 171.233
378.855 867.089 719.178
378.855 879.747 698.63
378.855 886.076 171.233
378.855 892.405 698.63
378.855 905.063 547.945
378.855 911.392 136.986
378.855 917.722 589.041
383.26 240.506 363.014
383.26 246.835 363.014
383.26 253.165 636.986
383.26 259.494 650.685
383.26 265.823 650.685
383.26 272.152 712.329
383.26 278.481 486.301
383.26 284.81 719.178
383.26 291.139 657.534
383.26 297.468 424.658
383.26 303.797 657.534
383.26 310.127 671.233
383.26 316.456 431.507
383.26 322.785 671.233
383.26 329.114 684.932
383.26 335.443 438.356
383.26 341.772 753.425
383.26 348.101 773.973
383.26 354.43 363.014
383.26 360.759 773.973
383.26 367.089 719.178
383.26 373.418 458.904
383.26 379.747 719.178
383.26 386.076 719.178
383.26 392.405 465.753
383.26 398.734 719.178
383.26 405.063 732.877
383.26 411.392 472.603
383.26 417.722 732.877
383.26 424.051 746.575
383.26 430.38 486.301
383.26 436.709 746.575
383.26 443.038 753.425
383.26 449.367 486.301
383.26 455.696 753.425
383.26 462.025 760.274
383.26 468.354 493.151
383.26 474.684 760.274
383.26 487.342 767.123
383.26 493.671 500
383.26 500 767.123
383.26 506.329 801.37
383.26 512.658 801.37
383.26 518.987 856.164
383.26 525.316 821.918
383.26 531.646 534.247
383.26 537.975 821.918
383.26 544.304 815.068
383.26 550.633 541.096
383.26 556.962 808.219
383.26 569.62 890.411
383.26 575.949 438.356
383.26 582.278 883.562
383.26 588.608 842.466
383.26 594.937 541.096
383.26 601.266 876.712
383.26 613.924 726.027
383.26 620.253 726.027
383.26 626.582 828.767
383.26 632.911 801.37
383.26 639.241 506.849
383.26 645.57 869.863
383.26 658.228 904.11
383.26 664.557 308.219
383.26 670.886 910.959
383.26 683.544 958.904
383.26 689.873 13.6986
383.26 696.203 958.904
383.26 702.532 958.904
383.26 708.861 41.0959
383.26 715.19 952.055
383.26 727.848 938.356
383.26 734.177 54.7945
383.26 740.506 945.205
383.26 753.165 952.055
383.26 759.494 20.5479
383.26 765.823 945.205
383.26 778.481 876.712
383.26 784.81 123.288
383.26 791.139 876.712
383.26 803.797 787.671
383.26 810.127 342.466
383.26 816.456 780.822
383.26 829.114 719.178
383.26 835.443 294.521
383.26 841.772 726.027
383.26 854.43 719.178
383.26 860.759 130.137
383.26 867.089 719.178
383.26 879.747 698.63
383.26 886.076 102.74
383.26 892.405 698.63
383.26 905.063 595.89
383.26 911.392 356.164
383.26 917.722 595.89
387.665 240.506 363.014
387.665 246.835 363.014
387.665 253.165 643.836
387.665 259.494 650.685
387.665 265.823 650.685
387.665 272.152 547.945
387.665 278.481 246.575
387.665 284.81 712.329
387.665 291.139 657.534
387.665 297.468 424.658
387.665 303.797 657.534
387.665 310.127 671.233
387.665 316.456 431.507
387.665 322.785 671.233
387.665 329.114 684.932
387.665 335.443 438.356
387.665 341.772 684.932
387.665 348.101 773.973
387.665 354.43 363.014
387.665 360.759 773.973
387.665 367.089 719.178
387.665 373.418 458.904
387.665 379.747 719.178
387.665 386.076 719.178
387.665 392.405 465.753
387.665 398.734 719.178
387.665 405.063 732.877
387.665 411.392 472.603
387.665 417.722 732.877
387.665 424.051 746.575
387.665 430.38 486.301
387.665 436.709 746.575
387.665 443.038 753.425
387.665 449.367 486.301
387.665 455.696 753.425
387.665 462.025 760.274
387.665 468.354 493.151
387.665 474.684 760.274
387.665 487.342 767.123
387.665 493.671 500
387.665 500 767.123
387.665 506.329 794.521
387.665 512.658 794.521
387.665 518.987 801.37
387.665 525.316 821.918
387.665 531.646 534.247
387.665 537.975 821.918
387.665 544.304 821.918
387.665 550.633 541.096
387.665 556.962 815.068
387.665 569.62 890.411
387.665 575.949 438.356
387.665 582.278 883.562
387.665 588.608 739.726
387.665 594.937 342.466
387.665 601.266 842.466
387.665 613.924 726.027
387.665 620.253 328.767
387.665 626.582 726.027
387.665 632.911 773.973
387.665 639.241 479.452
387.665 645.57 828.767
387.665 658.228 917.808
387.665 664.557 328.767
387.665 670.886 910.959
387.665 683.544 958.904
387.665 696.203 958.904
387.665 702.532 965.753
387.665 708.861 20.5479
387.665 715.19 958.904
387.665 727.848 945.205
387.665 734.177 61.6438
387.665 740.506 945.205
387.665 753.165 958.904
387.665 759.494 47.9452
387.665 765.823 952.055
387.665 778.481 890.411
387.665 784.81 89.0411
387.665 791.139 876.712
387.665 803.797 767.123
387.665 810.127 280.822
387.665 816.456 780.822
387.665 829.114 719.178
387.665 835.443 239.726
387.665 841.772 726.027
387.665 854.43 719.178
387.665 860.759 219.178
387.665 867.089 719.178
387.665 879.747 698.63
387.665 886.076 123.288
387.665 892.405 698.63
387.665 905.063 595.89
387.665 911.392 356.164
387.665 917.722 595.89
392.07 240.506 363.014
392.07 246.835 363.014
392.07 253.165 636.986
392.07 259.494 643.836
392.07 265.823 650.685
392.07 272.152 547.945
392.07 278.481 246.575
392.07 284.81 547.945
392.07 291.139 554.795
392.07 297.468 253.425
392.07 303.797 657.534
392.07 310.127 671.233
392.07 316.456 431.507
392.07 322.785 671.233
392.07 329.114 684.932
392.07 335.443 438.356
392.07 341.772 684.932
392.07 348.101 773.973
392.07 354.43 363.014
392.07 360.759 773.973
392.07 367.089 712.329
392.07 373.418 458.904
392.07 379.747 712.329
392.07 386.076 719.178
392.07 392.405 465.753
392.07 398.734 719.178
392.07 405.063 726.027
392.07 411.392 472.603
392.07 417.722 732.877
392.07 424.051 739.726
392.07 430.38 479.452
392.07 436.709 746.575
392.07 443.038 746.575
392.07 449.367 486.301
392.07 455.696 746.575
392.07 462.025 678.082
392.07 468.354 678.082
392.07 474.684 760.274
392.07 487.342 767.123
392.07 493.671 500
392.07 500 767.123
392.07 506.329 678.082
392.07 512.658 678.082
392.07 518.987 794.521
392.07 525.316 821.918
392.07 531.646 541.096
392.07 537.975 821.918
392.07 544.304 821.918
392.07 550.633 547.945
392.07 556.962 815.068
392.07 569.62 890.411
392.07 575.949 678.082
392.07 582.278 890.411
392.07 588.608 739.726
392.07 594.937 335.616
392.07 601.266 739.726
392.07 613.924 808.219
392.07 620.253 513.699
392.07 626.582 808.219
392.07 632.911 773.973
392.07 639.241 773.973
392.07 645.57 773.973
392.07 658.228 917.808
392.07 664.557 212.329
392.07 670.886 917.808
392.07 683.544 958.904
392.07 696.203 958.904
392.07 702.532 958.904
392.07 708.861 20.5479
392.07 715.19 958.904
392.07 727.848 945.205
392.07 734.177 20.5479
392.07 740.506 938.356
392.07 753.165 952.055
392.07 759.494 95.8904
392.07 765.823 952.055
392.07 778.481 897.26
392.07 784.81 150.685
392.07 791.139 890.411
392.07 803.797 760.274
392.07 810.127 239.726
392.07 816.456 773.973
392.07 829.114 719.178
392.07 835.443 198.63
392.07 841.772 726.027
392.07 854.43 719.178
392.07 860.759 164.384
392.07 867.089 726.027
392.07 879.747 691.781
392.07 886.076 150.685
392.07 892.405 698.63
392.07 905.063 554.795
392.07 911.392 486.301
392.07 917.722 595.89
396.476 240.506 363.014
396.476 246.835 363.014
396.476 253.165 636.986
396.476 259.494 643.836
396.476 265.823 643.836
396.476 272.152 547.945
396.476 278.481 253.425
396.476 284.81 547.945
396.476 291.139 554.795
396.476 297.468 253.425
396.476 303.797 554.795
396.476 310.127 424.658
396.476 316.456 424.658
396.476 322.785 671.233
396.476 329.114 589.041
396.476 335.443 267.123
396.476 341.772 684.932
396.476 348.101 773.973
396.476 354.43 363.014
396.476 360.759 773.973
396.476 367.089 712.329
396.476 373.418 458.904
396.476 379.747 712.329
396.476 386.076 719.178
396.476 392.405 465.753
396.476 398.734 719.178
396.476 405.063 726.027
396.476 411.392 472.603
396.476 417.722 726.027
396.476 424.051 739.726
396.476 430.38 486.301
396.476 436.709 746.575
396.476 443.038 657.534
396.476 449.367 657.534
396.476 455.696 746.575
396.476 462.025 678.082
396.476 468.354 678.082
396.476 474.684 678.082
396.476 487.342 760.274
396.476 493.671 500
396.476 500 767.123
396.476 506.329 520.548
396.476 512.658 520.548
396.476 518.987 678.082
396.476 525.316 712.329
396.476 531.646 342.466
396.476 537.975 821.918
396.476 544.304 821.918
396.476 550.633 547.945
396.476 556.962 821.918
396.476 569.62 849.315
396.476 575.949 541.096
396.476 582.278 890.411
396.476 588.608 732.877
396.476 594.937 335.616
396.476 601.266 739.726
396.476 613.924 808.219
396.476 620.253 520.548
396.476 626.582 808.219
396.476 632.911 780.822
396.476 639.241 486.301
396.476 645.57 773.973
396.476 658.228 904.11
396.476 664.557 109.589
396.476 670.886 917.808
396.476 683.544 965.753
396.476 689.873 0
396.476 696.203 958.904
396.476 702.532 958.904
396.476 715.19 958.904
396.476 727.848 945.205
396.476 734.177 95.8904
396.476 740.506 945.205
396.476 753.165 945.205
396.476 759.494 41.0959
396.476 765.823 945.205
396.476 778.481 917.808
396.476 784.81 95.8904
396.476 791.139 890.411
396.476 803.797 753.425
396.476 810.127 239.726
396.476 816.456 760.274
396.476 829.114 719.178
396.476 835.443 150.685
396.476 841.772 719.178
396.476 854.43 726.027
396.476 860.759 143.836
396.476 867.089 726.027
396.476 879.747 684.932
396.476 886.076 178.082
396.476 892.405 691.781
396.476 905.063 554.795
396.476 911.392 486.301
396.476 917.722 554.795
400.881 240.506 363.014
400.881 246.835 363.014
400.881 253.165 691.781
400.881 259.494 472.603
400.881 265.823 698.63
400.881 272.152 547.945
400.881 278.481 547.945
400.881 284.81 547.945
400.881 291.139 554.795
400.881 297.468 253.425
400.881 303.797 554.795
400.881 310.127 424.658
400.881 316.456 424.658
400.881 322.785 424.658
400.881 329.114 438.356
400.881 335.443 438.356
400.881 341.772 589.041
400.881 348.101 445.205
400.881 354.43 445.205
400.881 360.759 767.123
400.881 367.089 705.479
400.881 373.418 458.904
400.881 379.747 712.329
400.881 386.076 712.329
400.881 392.405 465.753
400.881 398.734 719.178
400.881 405.063 815.068
400.881 411.392 609.589
400.881 417.722 815.068
400.881 424.051 664.384
400.881 430.38 664.384
400.881 436.709 739.726
400.881 443.038 500
400.881 449.367 500
400.881 455.696 650.685
400.881 462.025 678.082
400.881 468.354 678.082
400.881 474.684 678.082
400.881 487.342 684.932
400.881 493.671 684.932
400.881 500 760.274
400.881 506.329 520.548
400.881 512.658 520.548
400.881 518.987 520.548
400.881 525.316 520.548
400.881 531.646 520.548
400.881 537.975 705.479
400.881 544.304 821.918
400.881 550.633 547.945
400.881 556.962 890.411
400.881 569.62 746.575
400.881 575.949 746.575
400.881 582.278 849.315
400.881 588.608 732.877
400.881 594.937 342.466
400.881 601.266 732.877
400.881 613.924 726.027
400.881 620.253 342.466
400.881 626.582 808.219
400.881 632.911 780.822
400.881 639.241 486.301
400.881 645.57 773.973
400.881 658.228 904.11
400.881 664.557 95.8904
400.881 670.886 904.11
400.881 683.544 965.753
400.881 689.873 0
400.881 696.203 965.753
400.881 702.532 965.753
400.881 708.861 54.7945
400.881 715.19 958.904
400.881 727.848 945.205
400.881 734.177 109.589
400.881 740.506 945.205
400.881 753.165 952.055
400.881 759.494 13.6986
400.881 765.823 945.205
400.881 778.481 924.658
400.881 784.81 116.438
400.881 791.139 917.808
400.881 803.797 760.274
400.881 810.127 273.973
400.881 816.456 760.274
400.881 829.114 698.63
400.881 835.443 239.726
400.881 841.772 719.178
400.881 854.43 726.027
400.881 860.759 198.63
400.881 867.089 726.027
400.881 879.747 691.781
400.881 886.076 191.781
400.881 892.405 691.781
400.881 905.063 486.301
400.881 911.392 212.329
400.881 917.722 554.795
405.286 240.506 363.014
405.286 246.835 363.014
405.286 253.165 691.781
405.286 259.494 472.603
405.286 265.823 691.781
405.286 272.152 534.247
405.286 278.481 239.726
405.286 284.81 534.247
405.286 291.139 417.808
405.286 297.468 417.808
405.286 303.797 547.945
405.286 310.127 424.658
405.286 316.456 424.658
405.286 322.785 424.658
405.286 329.114 431.507
405.286 335.443 431.507
405.286 341.772 431.507
405.286 348.101 684.932
405.286 354.43 684.932
405.286 360.759 684.932
405.286 367.089 445.205
405.286 373.418 445.205
405.286 379.747 705.479
405.286 386.076 636.986
405.286 392.405 636.986
405.286 398.734 712.329
405.286 405.063 780.822
405.286 411.392 780.822
405.286 417.722 808.219
405.286 424.051 664.384
405.286 430.38 664.384
405.286 436.709 664.384
405.286 443.038 787.671
405.286 449.367 787.671
405.286 455.696 794.521
405.286 462.025 671.233
405.286 468.354 671.233
405.286 474.684 671.233
405.286 487.342 684.932
405.286 493.671 684.932
405.286 500 691.781
405.286 506.329 520.548
405.286 512.658 520.548
405.286 518.987 520.548
405.286 525.316 732.877
405.286 531.646 732.877
405.286 537.975 732.877
405.286 544.304 815.068
405.286 550.633 541.096
405.286 556.962 815.068
405.286 569.62 732.877
405.286 575.949 732.877
405.286 582.278 739.726
405.286 588.608 732.877
405.286 594.937 342.466
405.286 601.266 732.877
405.286 613.924 726.027
405.286 620.253 335.616
405.286 626.582 726.027
405.286 632.911 773.973
405.286 639.241 486.301
405.286 645.57 780.822
405.286 658.228 910.959
405.286 664.557 123.288
405.286 670.886 910.959
405.286 683.544 972.603
405.286 696.203 965.753
405.286 702.532 965.753
405.286 708.861 20.5479
405.286 715.19 965.753
405.286 727.848 945.205
405.286 734.177 136.986
405.286 740.506 945.205
405.286 753.165 945.205
405.286 759.494 13.6986
405.286 765.823 945.205
405.286 778.481 931.507
405.286 784.81 130.137
405.286 791.139 917.808
405.286 803.797 773.973
405.286 810.127 212.329
405.286 816.456 767.123
405.286 829.114 726.027
405.286 835.443 349.315
405.286 841.772 732.877
405.286 854.43 719.178
405.286 860.759 171.233
405.286 867.089 726.027
405.286 879.747 705.479
405.286 886.076 191.781
405.286 892.405 705.479
405.286 905.063 554.795
405.286 911.392 143.836
405.286 917.722 554.795
409.692 240.506 520.548
409.692 246.835 232.877
409.692 253.165 527.397
409.692 259.494 239.726
409.692 265.823 691.781
409.692 272.152 527.397
409.692 278.481 253.425
409.692 284.81 541.096
409.692 291.139 417.808
409.692 297.468 417.808
409.692 303.797 417.808
409.692 310.127 417.808
409.692 316.456 417.808
409.692 322.785 417.808
409.692 329.114 678.082
409.692 335.443 678.082
409.692 341.772 678.082
409.692 348.101 684.932
409.692 354.43 684.932
409.692 360.759 684.932
409.692 367.089 684.932
409.692 373.418 684.932
409.692 379.747 684.932
409.692 386.076 452.055
409.692 392.405 452.055
409.692 398.734 636.986
409.692 405.063 650.685
409.692 411.392 650.685
409.692 417.722 780.822
409.692 424.051 657.534
409.692 430.38 657.534
409.692 436.709 664.384
409.692 443.038 787.671
409.692 449.367 787.671
409.692 455.696 787.671
409.692 462.025 671.233
409.692 468.354 671.233
409.692 474.684 671.233
409.692 487.342 691.781
409.692 493.671 691.781
409.692 500 684.932
409.692 506.329 726.027
409.692 512.658 726.027
409.692 518.987 726.027
409.692 525.316 732.877
409.692 531.646 732.877
409.692 537.975 732.877
409.692 544.304 726.027
409.692 550.633 726.027
409.692 556.962 815.068
409.692 569.62 726.027
409.692 575.949 726.027
409.692 582.278 732.877
409.692 588.608 527.397
409.692 594.937 527.397
409.692 601.266 732.877
409.692 613.924 520.548
409.692 620.253 520.548
409.692 626.582 726.027
409.692 632.911 780.822
409.692 639.241 671.233
409.692 645.57 773.973
409.692 658.228 917.808
409.692 664.557 116.438
409.692 670.886 910.959
409.692 683.544 965.753
409.692 689.873 6.84932
409.692 696.203 972.603
409.692 702.532 965.753
409.692 708.861 27.3973
409.692 715.19 972.603
409.692 727.848 952.055
409.692 734.177 143.836
409.692 740.506 952.055
409.692 753.165 945.205
409.692 759.494 20.5479
409.692 765.823 952.055
409.692 778.481 938.356
409.692 784.81 178.082
409.692 791.139 931.507
409.692 803.797 787.671
409.692 810.127 267.123
409.692 816.456 773.973
409.692 829.114 739.726
409.692 835.443 431.507
409.692 841.772 732.877
409.692 854.43 726.027
409.692 860.759 164.384
409.692 867.089 726.027
409.692 879.747 705.479
409.692 886.076 102.74
409.692 892.405 705.479
409.692 905.063 554.795
409.692 911.392 143.836
409.692 917.722 554.795
414.097 240.506 383.562
414.097 246.835 383.562
414.097 253.165 527.397
414.097 259.494 246.575
414.097 265.823 534.247
414.097 272.152 534.247
414.097 278.481 253.425
414.097 284.81 527.397
414.097 291.139 410.959
414.097 297.468 410.959
414.097 303.797 410.959
414.097 310.127 417.808
414.097 316.456 417.808
414.097 322.785 417.808
414.097 329.114 678.082
414.097 335.443 678.082
414.097 341.772 678.082
414.097 348.101 684.932
414.097 354.43 684.932
414.097 360.759 684.932
414.097 367.089 684.932
414.097 373.418 684.932
414.097 379.747 684.932
414.097 386.076 452.055
414.097 392.405 452.055
414.097 398.734 452.055
414.097 405.063 691.781
414.097 411.392 691.781
414.097 417.722 773.973
414.097 424.051 650.685
414.097 430.38 650.685
414.097 436.709 657.534
414.097 443.038 780.822
414.097 449.367 780.822
414.097 455.696 787.671
414.097 462.025 664.384
414.097 468.354 664.384
414.097 474.684 671.233
414.097 487.342 506.849
414.097 493.671 506.849
414.097 500 691.781
414.097 506.329 726.027
414.097 512.658 726.027
414.097 518.987 726.027
414.097 525.316 732.877
414.097 531.646 732.877
414.097 537.975 732.877
414.097 544.304 726.027
414.097 550.633 726.027
414.097 556.962 726.027
414.097 569.62 726.027
414.097 575.949 726.027
414.097 582.278 726.027
414.097 588.608 527.397
414.097 594.937 527.397
414.097 601.266 527.397
414.097 613.924 520.548
414.097 620.253 520.548
414.097 626.582 520.548
414.097 632.911 664.384
414.097 639.241 664.384
414.097 645.57 773.973
414.097 658.228 924.658
414.097 664.557 130.137
414.097 670.886 924.658
414.097 683.544 965.753
414.097 689.873 0
414.097 696.203 972.603
414.097 702.532 965.753
414.097 715.19 965.753
414.097 727.848 931.507
414.097 734.177 253.425
414.097 740.506 938.356
414.097 753.165 945.205
414.097 759.494 13.6986
414.097 765.823 938.356
414.097 778.481 965.753
414.097 784.81 136.986
414.097 791.139 938.356
414.097 803.797 828.767
414.097 810.127 308.219
414.097 816.456 821.918
414.097 829.114 760.274
414.097 835.443 417.808
414.097 841.772 767.123
414.097 854.43 739.726
414.097 860.759 157.534
414.097 867.089 726.027
414.097 879.747 705.479
414.097 886.076 89.0411
414.097 892.405 705.479
414.097 905.063 554.795
414.097 911.392 143.836
414.097 917.722 554.795
418.502 240.506 390.411
418.502 246.835 390.411
418.502 253.165 390.411
418.502 259.494 404.11
418.502 265.823 534.247
418.502 272.152 527.397
418.502 278.481 246.575
418.502 284.81 527.397
418.502 291.139 527.397
418.502 297.468 527.397
418.502 303.797 527.397
418.502 310.127 417.808
418.502 316.456 417.808
418.502 322.785 417.808
418.502 329.114 678.082
418.502 335.443 678.082
418.502 341.772 678.082
418.502 348.101 684.932
418.502 354.43 684.932
418.502 360.759 684.932
418.502 367.089 684.932
418.502 373.418 684.932
418.502 379.747 684.932
418.502 386.076 445.205
418.502 392.405 445.205
418.502 398.734 445.205
418.502 405.063 684.932
418.502 411.392 684.932
418.502 417.722 684.932
418.502 424.051 458.904
418.502 430.38 458.904
418.502 436.709 650.685
418.502 443.038 691.781
418.502 449.367 691.781
418.502 455.696 780.822
418.502 462.025 465.753
418.502 468.354 465.753
418.502 474.684 664.384
418.502 487.342 506.849
418.502 493.671 506.849
418.502 500 506.849
418.502 506.329 726.027
418.502 512.658 726.027
418.502 518.987 726.027
418.502 525.316 732.877
418.502 531.646 732.877
418.502 537.975 732.877
418.502 544.304 527.397
418.502 550.633 527.397
418.502 556.962 726.027
418.502 569.62 527.397
418.502 575.949 527.397
418.502 582.278 726.027
418.502 588.608 527.397
418.502 594.937 527.397
418.502 601.266 527.397
418.502 613.924 520.548
418.502 620.253 520.548
418.502 626.582 520.548
418.502 632.911 787.671
418.502 639.241 493.151
418.502 645.57 787.671
418.502 658.228 924.658
418.502 664.557 75.3425
418.502 670.886 924.658
418.502 683.544 972.603
418.502 696.203 965.753
418.502 702.532 972.603
418.502 715.19 965.753
418.502 727.848 924.658
418.502 734.177 205.479
418.502 740.506 938.356
418.502 753.165 938.356
418.502 759.494 34.2466
418.502 765.823 945.205
418.502 778.481 945.205
418.502 784.81 184.932
418.502 791.139 945.205
418.502 803.797 863.014
418.502 810.127 212.329
418.502 816.456 835.616
418.502 829.114 780.822
418.502 835.443 308.219
418.502 841.772 773.973
418.502 854.43 732.877
418.502 860.759 150.685
418.502 867.089 732.877
418.502 879.747 705.479
418.502 886.076 95.8904
418.502 892.405 705.479
418.502 905.063 595.89
418.502 911.392 150.685
418.502 917.722 595.89
422.907 221.519 390.411
422.907 227.848 390.411
422.907 234.177 390.411
422.907 240.506 390.411
422.907 246.835 390.411
422.907 253.165 390.411
422.907 259.494 404.11
422.907 265.823 404.11
422.907 272.152 520.548
422.907 278.481 246.575
422.907 284.81 527.397
422.907 291.139 527.397
422.907 297.468 246.575
422.907 303.797 527.397
422.907 310.127 671.233
422.907 316.456 671.233
422.907 322.785 671.233
422.907 329.114 671.233
422.907 335.443 671.233
422.907 341.772 678.082
422.907 348.101 678.082
422.907 354.43 678.082
422.907 360.759 684.932
422.907 367.089 678.082
422.907 373.418 678.082
422.907 379.747 678.082
422.907 386.076 445.205
422.907 392.405 445.205
422.907 398.734 445.205
422.907 405.063 684.932
422.907 411.392 684.932
422.907 417.722 684.932
422.907 424.051 458.904
422.907 430.38 458.904
422.907 436.709 458.904
422.907 443.038 534.247
422.907 449.367 534.247
