244.24 662.921 212.524
244.24 674.157 163.188
244.24 685.393 163.188
244.24 696.629 373.814
244.24 707.865 546.49
244.24 719.101 597.723
244.24 730.337 366.224
244.24 741.573 358.634
244.24 752.809 628.083
244.24 764.045 664.137
244.24 775.281 430.74
244.24 786.517 163.188
244.24 797.753 163.188
244.24 808.989 163.188
244.24 820.225 332.068
244.24 831.461 208.729
244.24 842.697 204.934
244.24 853.933 206.831
244.24 865.169 206.831
244.24 876.404 206.831
244.24 887.64 206.831
244.24 898.876 206.831
244.24 910.112 206.831
244.24 921.348 204.934
244.24 932.584 204.934
244.24 943.82 273.245
244.24 955.056 275.142
244.24 966.292 548.387
244.24 977.528 421.252
244.24 988.764 421.252
248.848 22.4719 400.38
248.848 33.7079 402.277
248.848 44.9438 404.175
248.848 56.1798 404.175
248.848 67.4157 404.175
248.848 78.6517 406.072
248.848 89.8876 406.072
248.848 101.124 406.072
248.848 112.36 406.072
248.848 146.067 409.867
248.848 157.303 409.867
248.848 168.539 409.867
248.848 179.775 844.402
248.848 191.011 595.825
248.848 202.247 472.486
248.848 213.483 444.023
248.848 224.719 111.954
248.848 235.955 130.93
248.848 247.191 28.463
248.848 516.854 1.89753
248.848 528.09 3.79507
248.848 539.326 3.79507
248.848 550.562 1.89753
248.848 561.798 0
248.848 629.213 110.057
248.848 640.449 149.905
248.848 651.685 168.88
248.848 662.921 134.725
248.848 674.157 195.446
248.848 685.393 55.0285
248.848 696.629 187.856
248.848 707.865 364.326
248.848 719.101 561.67
248.848 730.337 609.108
248.848 741.573 425.047
248.848 752.809 472.486
248.848 764.045 538.899
248.848 775.281 299.81
248.848 786.517 165.085
248.848 797.753 163.188
248.848 808.989 165.085
248.848 820.225 273.245
248.848 831.461 163.188
248.848 842.697 163.188
248.848 853.933 163.188
248.848 865.169 163.188
248.848 876.404 208.729
248.848 887.64 206.831
248.848 898.876 206.831
248.848 910.112 206.831
248.848 921.348 206.831
248.848 932.584 206.831
248.848 943.82 275.142
248.848 955.056 275.142
248.848 966.292 550.285
248.848 977.528 421.252
248.848 988.764 421.252
253.456 44.9438 400.38
253.456 56.1798 402.277
253.456 67.4157 404.175
253.456 78.6517 404.175
253.456 89.8876 406.072
253.456 101.124 406.072
253.456 157.303 409.867
253.456 168.539 867.173
253.456 179.775 853.89
253.456 191.011 388.994
253.456 202.247 491.461
253.456 213.483 330.171
253.456 224.719 106.262
253.456 235.955 32.2581
253.456 539.326 0
253.456 550.562 1.89753
253.456 561.798 3.79507
253.456 573.034 1.89753
253.456 584.27 0
253.456 617.978 24.6679
253.456 629.213 81.5939
253.456 640.449 110.057
253.456 651.685 100.569
253.456 662.921 89.1841
253.456 674.157 220.114
253.456 685.393 199.241
253.456 696.629 66.4137
253.456 707.865 235.294
253.456 719.101 383.302
253.456 730.337 677.419
253.456 741.573 593.928
253.456 752.809 531.309
253.456 764.045 525.617
253.456 775.281 466.793
253.456 786.517 210.626
253.456 797.753 208.729
253.456 808.989 273.245
253.456 820.225 275.142
253.456 831.461 163.188
253.456 842.697 165.085
253.456 853.933 163.188
253.456 865.169 208.729
253.456 876.404 208.729
253.456 887.64 208.729
253.456 898.876 208.729
253.456 910.112 208.729
253.456 921.348 206.831
253.456 932.584 275.142
253.456 943.82 275.142
253.456 955.056 275.142
253.456 966.292 552.182
253.456 977.528 423.15
253.456 988.764 421.252
258.065 67.4157 400.38
258.065 78.6517 404.175
258.065 89.8876 404.175
258.065 157.303 409.867
258.065 168.539 901.328
258.065 179.775 529.412
258.065 191.011 487.666
258.065 202.247 527.514
258.065 213.483 248.577
258.065 224.719 28.463
258.065 235.955 28.463
258.065 460.674 5.6926
258.065 471.91 1.89753
258.065 483.146 3.79507
258.065 494.382 1.89753
258.065 505.618 0
258.065 516.854 0
258.065 539.326 0
258.065 550.562 0
258.065 561.798 3.79507
258.065 573.034 7.59013
258.065 584.27 3.79507
258.065 595.506 3.79507
258.065 606.742 1.89753
258.065 617.978 36.0531
258.065 629.213 24.6679
258.065 640.449 81.5939
258.065 651.685 91.0816
258.065 662.921 74.0038
258.065 674.157 155.598
258.065 685.393 250.474
258.065 696.629 66.4137
258.065 707.865 130.93
258.065 719.101 263.757
258.065 730.337 504.744
258.065 741.573 567.362
258.065 752.809 409.867
258.065 764.045 375.712
258.065 775.281 569.26
258.065 786.517 468.691
258.065 797.753 163.188
258.065 808.989 273.245
258.065 820.225 163.188
258.065 831.461 165.085
258.065 842.697 163.188
258.065 853.933 163.188
258.065 865.169 208.729
258.065 876.404 208.729
258.065 887.64 208.729
258.065 898.876 206.831
258.065 910.112 208.729
258.065 921.348 275.142
258.065 932.584 275.142
258.065 943.82 275.142
258.065 955.056 277.04
258.065 966.292 552.182
258.065 977.528 423.15
258.065 988.764 423.15
262.673 157.303 656.546
262.673 168.539 908.918
262.673 179.775 445.92
262.673 191.011 595.825
262.673 202.247 512.334
262.673 224.719 30.3605
262.673 235.955 24.6679
262.673 438.202 5.6926
262.673 449.438 7.59013
262.673 460.674 3.79507
262.673 471.91 5.6926
262.673 483.146 3.79507
262.673 494.382 1.89753
262.673 505.618 3.79507
262.673 516.854 3.79507
262.673 528.09 0
262.673 539.326 0
262.673 550.562 0
262.673 595.506 0
262.673 606.742 5.6926
262.673 617.978 89.1841
262.673 629.213 83.4915
262.673 640.449 98.6717
262.673 651.685 91.0816
262.673 662.921 66.4137
262.673 674.157 70.2087
262.673 685.393 193.548
262.673 696.629 111.954
262.673 707.865 58.8235
262.673 719.101 106.262
262.673 730.337 364.326
262.673 741.573 502.846
262.673 752.809 533.207
262.673 764.045 316.888
262.673 775.281 371.917
262.673 786.517 516.129
262.673 797.753 379.507
262.673 808.989 275.142
262.673 820.225 212.524
262.673 831.461 163.188
262.673 842.697 163.188
262.673 853.933 208.729
262.673 865.169 208.729
262.673 876.404 208.729
262.673 887.64 206.831
262.673 898.876 208.729
262.673 910.112 208.729
262.673 921.348 277.04
262.673 932.584 275.142
262.673 943.82 277.04
262.673 955.056 277.04
262.673 966.292 554.08
262.673 977.528 423.15
262.673 988.764 423.15
267.281 157.303 869.07
267.281 168.539 753.321
267.281 179.775 390.892
267.281 191.011 700.19
267.281 202.247 404.175
267.281 213.483 28.463
267.281 224.719 24.6679
267.281 235.955 20.8729
267.281 382.022 0
267.281 426.966 0
267.281 438.202 1.89753
267.281 449.438 5.6926
267.281 460.674 1.89753
267.281 471.91 3.79507
267.281 483.146 1.89753
267.281 494.382 1.89753
267.281 505.618 1.89753
267.281 516.854 1.89753
267.281 528.09 1.89753
267.281 539.326 1.89753
267.281 550.562 1.89753
267.281 561.798 0
267.281 606.742 0
267.281 617.978 92.9791
267.281 629.213 96.7742
267.281 640.449 96.7742
267.281 651.685 79.6964
267.281 662.921 62.6186
267.281 674.157 64.5161
267.281 685.393 113.852
267.281 696.629 127.135
267.281 707.865 53.1309
267.281 719.101 106.262
267.281 730.337 235.294
267.281 741.573 371.917
267.281 752.809 502.846
267.281 764.045 447.818
267.281 775.281 426.945
267.281 786.517 313.093
267.281 797.753 423.15
267.281 808.989 165.085
267.281 820.225 165.085
267.281 831.461 165.085
267.281 842.697 208.729
267.281 853.933 208.729
267.281 865.169 206.831
267.281 876.404 208.729
267.281 887.64 206.831
267.281 898.876 208.729
267.281 910.112 277.04
267.281 921.348 277.04
267.281 932.584 277.04
267.281 943.82 278.937
267.281 955.056 278.937
267.281 966.292 555.977
267.281 977.528 554.08
267.281 988.764 423.15
271.889 157.303 870.968
271.889 168.539 481.973
271.889 179.775 461.101
271.889 191.011 666.034
271.889 202.247 235.294
271.889 213.483 22.7704
271.889 224.719 20.8729
271.889 235.955 20.8729
271.889 359.551 1.89753
271.889 370.787 13.2827
271.889 382.022 5.6926
271.889 393.258 0
271.889 426.966 1.89753
271.889 438.202 1.89753
271.889 449.438 0
271.889 471.91 1.89753
271.889 483.146 1.89753
271.889 494.382 3.79507
271.889 505.618 1.89753
271.889 516.854 1.89753
271.889 528.09 0
271.889 550.562 0
271.889 561.798 1.89753
271.889 573.034 0
271.889 617.978 68.3112
271.889 629.213 155.598
271.889 640.449 100.569
271.889 651.685 91.0816
271.889 662.921 83.4915
271.889 674.157 75.9013
271.889 685.393 94.8767
271.889 696.629 110.057
271.889 707.865 36.0531
271.889 719.101 45.5408
271.889 730.337 85.389
271.889 741.573 256.167
271.889 752.809 480.076
271.889 764.045 510.436
271.889 775.281 400.38
271.889 786.517 316.888
271.889 797.753 476.281
271.889 808.989 165.085
271.889 820.225 165.085
271.889 831.461 168.88
271.889 842.697 208.729
271.889 853.933 208.729
271.889 865.169 208.729
271.889 876.404 206.831
271.889 887.64 206.831
271.889 898.876 280.835
271.889 910.112 278.937
271.889 921.348 278.937
271.889 932.584 278.937
271.889 943.82 278.937
271.889 955.056 278.937
271.889 966.292 280.835
271.889 977.528 559.772
276.498 146.067 491.461
276.498 157.303 872.865
276.498 168.539 645.161
276.498 179.775 502.846
276.498 191.011 432.638
276.498 202.247 161.29
276.498 213.483 55.0285
276.498 224.719 20.8729
276.498 337.079 1.89753
276.498 348.315 20.8729
276.498 359.551 11.3852
276.498 370.787 7.59013
276.498 382.022 1.89753
276.498 393.258 0
276.498 404.494 0
276.498 415.73 1.89753
276.498 426.966 3.79507
276.498 438.202 1.89753
276.498 449.438 0
276.498 471.91 0
276.498 483.146 0
276.498 494.382 0
276.498 528.09 0
276.498 539.326 0
276.498 550.562 0
276.498 584.27 0
276.498 617.978 53.1309
276.498 629.213 119.545
276.498 640.449 98.6717
276.498 651.685 127.135
276.498 662.921 94.8767
276.498 674.157 39.8482
276.498 685.393 129.032
276.498 696.629 136.622
276.498 707.865 68.3112
276.498 719.101 26.5655
276.498 730.337 79.6964
276.498 741.573 184.061
276.498 752.809 316.888
276.498 764.045 502.846
276.498 775.281 409.867
276.498 786.517 383.302
276.498 797.753 480.076
276.498 808.989 474.383
276.498 820.225 166.983
276.498 831.461 212.524
276.498 842.697 210.626
276.498 853.933 210.626
276.498 865.169 208.729
276.498 876.404 208.729
276.498 887.64 282.732
276.498 898.876 282.732
276.498 910.112 280.835
276.498 921.348 280.835
276.498 932.584 280.835
276.498 943.82 280.835
276.498 955.056 280.835
276.498 966.292 280.835
276.498 977.528 561.67
276.498 988.764 406.072
281.106 146.067 833.017
281.106 157.303 891.841
281.106 168.539 800.759
281.106 179.775 660.342
281.106 191.011 459.203
281.106 202.247 138.52
281.106 213.483 26.5655
281.106 224.719 24.6679
281.106 325.843 7.59013
281.106 337.079 13.2827
281.106 348.315 11.3852
281.106 359.551 5.6926
281.106 370.787 0
281.106 393.258 1.89753
281.106 404.494 3.79507
281.106 539.326 0
281.106 617.978 26.5655
281.106 629.213 100.569
281.106 640.449 83.4915
281.106 651.685 85.389
281.106 662.921 36.0531
281.106 674.157 34.1556
281.106 685.393 75.9013
281.106 696.629 125.237
281.106 707.865 110.057
281.106 719.101 26.5655
281.106 730.337 72.1063
281.106 741.573 210.626
281.106 752.809 256.167
281.106 764.045 480.076
281.106 775.281 512.334
281.106 786.517 480.076
281.106 797.753 354.839
281.106 808.989 481.973
281.106 820.225 214.421
281.106 831.461 212.524
281.106 842.697 210.626
281.106 853.933 210.626
281.106 865.169 210.626
281.106 876.404 208.729
281.106 887.64 282.732
281.106 898.876 282.732
281.106 910.112 282.732
281.106 921.348 282.732
281.106 932.584 282.732
281.106 943.82 284.63
281.106 955.056 282.732
281.106 966.292 280.835
281.106 977.528 284.63
281.106 988.764 413.662
285.714 123.596 404.175
285.714 134.831 406.072
285.714 146.067 831.12
285.714 157.303 755.218
285.714 168.539 711.575
285.714 179.775 354.839
285.714 191.011 303.605
285.714 202.247 34.1556
285.714 213.483 68.3112
285.714 224.719 28.463
285.714 314.607 3.79507
285.714 325.843 7.59013
285.714 337.079 15.1803
285.714 348.315 7.59013
285.714 359.551 1.89753
285.714 370.787 0
285.714 382.022 3.79507
285.714 393.258 0
285.714 404.494 0
285.714 505.618 0
285.714 573.034 0
285.714 584.27 0
285.714 617.978 20.8729
285.714 629.213 115.75
285.714 640.449 113.852
285.714 651.685 85.389
285.714 662.921 39.8482
285.714 674.157 32.2581
285.714 685.393 72.1063
285.714 696.629 83.4915
285.714 707.865 113.852
285.714 719.101 66.4137
285.714 730.337 28.463
285.714 741.573 110.057
285.714 752.809 258.065
285.714 764.045 358.634
285.714 775.281 565.465
285.714 786.517 434.535
285.714 797.753 552.182
285.714 808.989 548.387
285.714 820.225 216.319
285.714 831.461 212.524
285.714 842.697 212.524
285.714 853.933 210.626
285.714 865.169 210.626
285.714 876.404 282.732
285.714 887.64 282.732
285.714 898.876 284.63
285.714 910.112 284.63
285.714 921.348 284.63
285.714 932.584 282.732
285.714 943.82 284.63
285.714 955.056 280.835
285.714 966.292 280.835
285.714 977.528 280.835
285.714 988.764 411.765
290.323 112.36 406.072
290.323 123.596 406.072
290.323 134.831 703.985
290.323 146.067 869.07
290.323 157.303 779.886
290.323 168.539 679.317
290.323 179.775 343.454
290.323 191.011 206.831
290.323 213.483 56.926
290.323 314.607 7.59013
290.323 325.843 13.2827
290.323 337.079 9.48767
290.323 348.315 3.79507
290.323 359.551 1.89753
290.323 370.787 1.89753
290.323 382.022 3.79507
290.323 393.258 3.79507
290.323 449.438 0
290.323 460.674 1.89753
290.323 471.91 0
290.323 483.146 3.79507
290.323 494.382 3.79507
290.323 505.618 3.79507
290.323 516.854 3.79507
290.323 528.09 0
290.323 573.034 0
290.323 584.27 0
290.323 629.213 75.9013
290.323 640.449 102.467
290.323 651.685 75.9013
290.323 662.921 37.9507
290.323 674.157 36.0531
290.323 685.393 91.0816
290.323 696.629 100.569
290.323 707.865 94.8767
290.323 719.101 89.1841
290.323 730.337 28.463
290.323 741.573 77.7989
290.323 752.809 242.884
290.323 764.045 299.81
290.323 775.281 622.391
290.323 786.517 320.683
290.323 797.753 480.076
290.323 808.989 599.62
290.323 820.225 220.114
290.323 831.461 212.524
290.323 842.697 212.524
290.323 853.933 210.626
290.323 865.169 284.63
290.323 876.404 284.63
290.323 887.64 284.63
290.323 898.876 284.63
290.323 910.112 284.63
290.323 921.348 284.63
290.323 932.584 284.63
290.323 943.82 282.732
290.323 955.056 280.835
290.323 966.292 282.732
290.323 977.528 280.835
290.323 988.764 421.252
290.323 1000 421.252
294.931 101.124 406.072
294.931 112.36 406.072
294.931 123.596 406.072
294.931 134.831 764.706
294.931 146.067 851.992
294.931 157.303 595.825
294.931 168.539 641.366
294.931 179.775 305.503
294.931 191.011 115.75
294.931 213.483 53.1309
294.931 303.371 7.59013
294.931 314.607 7.59013
294.931 325.843 9.48767
294.931 337.079 7.59013
294.931 348.315 3.79507
294.931 359.551 3.79507
294.931 370.787 3.79507
294.931 382.022 1.89753
294.931 393.258 1.89753
294.931 404.494 0
294.931 426.966 0
294.931 438.202 1.89753
294.931 449.438 1.89753
294.931 460.674 0
294.931 471.91 1.89753
294.931 483.146 0
294.931 494.382 3.79507
294.931 505.618 1.89753
294.931 516.854 3.79507
294.931 528.09 1.89753
294.931 595.506 0
294.931 629.213 106.262
294.931 640.449 117.647
294.931 651.685 74.0038
294.931 662.921 37.9507
294.931 674.157 132.827
294.931 685.393 140.417
294.931 696.629 98.6717
294.931 707.865 115.75
294.931 719.101 117.647
294.931 730.337 34.1556
294.931 741.573 132.827
294.931 752.809 157.495
294.931 764.045 195.446
294.931 775.281 622.391
294.931 786.517 347.249
294.931 797.753 320.683
294.931 808.989 599.62
294.931 820.225 468.691
294.931 831.461 212.524
294.931 842.697 286.528
294.931 853.933 284.63
294.931 865.169 284.63
294.931 876.404 286.528
294.931 887.64 284.63
294.931 898.876 286.528
294.931 910.112 286.528
294.931 921.348 284.63
294.931 932.584 284.63
294.931 943.82 280.835
294.931 955.056 282.732
294.931 966.292 282.732
294.931 977.528 280.835
294.931 988.764 423.15
294.931 1000 421.252
299.539 78.6517 404.175
299.539 89.8876 404.175
299.539 101.124 406.072
299.539 112.36 406.072
299.539 123.596 406.072
299.539 134.831 851.992
299.539 146.067 867.173
299.539 157.303 453.51
299.539 168.539 529.412
299.539 179.775 267.552
299.539 191.011 55.0285
299.539 202.247 53.1309
299.539 213.483 49.3359
299.539 292.135 7.59013
299.539 303.371 15.1803
299.539 314.607 15.1803
299.539 325.843 7.59013
299.539 337.079 1.89753
299.539 348.315 3.79507
299.539 359.551 3.79507
299.539 370.787 3.79507
299.539 382.022 1.89753
299.539 393.258 0
299.539 404.494 0
299.539 415.73 0
299.539 426.966 0
299.539 438.202 3.79507
299.539 449.438 1.89753
299.539 460.674 0
299.539 629.213 108.159
299.539 640.449 104.364
299.539 651.685 34.1556
299.539 662.921 32.2581
299.539 674.157 178.368
299.539 685.393 43.6433
299.539 696.629 104.364
299.539 707.865 106.262
299.539 719.101 117.647
299.539 730.337 102.467
299.539 741.573 102.467
299.539 752.809 210.626
299.539 764.045 235.294
299.539 775.281 531.309
299.539 786.517 438.33
299.539 797.753 320.683
299.539 808.989 559.772
299.539 820.225 563.567
299.539 831.461 453.51
299.539 842.697 290.323
299.539 853.933 286.528
299.539 865.169 286.528
299.539 876.404 286.528
299.539 887.64 284.63
299.539 898.876 288.425
299.539 910.112 286.528
299.539 921.348 284.63
299.539 932.584 284.63
299.539 943.82 282.732
299.539 955.056 282.732
299.539 966.292 282.732
299.539 977.528 423.15
299.539 988.764 423.15
299.539 1000 421.252
304.147 67.4157 406.072
304.147 78.6517 406.072
304.147 89.8876 406.072
304.147 101.124 406.072
304.147 112.36 406.072
304.147 123.596 406.072
304.147 134.831 884.25
304.147 146.067 493.359
304.147 157.303 364.326
304.147 168.539 584.44
304.147 179.775 288.425
304.147 191.011 26.5655
304.147 202.247 22.7704
304.147 213.483 22.7704
304.147 292.135 11.3852
304.147 303.371 17.0778
304.147 314.607 7.59013
304.147 325.843 5.6926
304.147 337.079 3.79507
304.147 348.315 1.89753
304.147 359.551 0
304.147 370.787 3.79507
304.147 382.022 1.89753
304.147 393.258 0
304.147 404.494 0
304.147 415.73 0
304.147 426.966 0
304.147 438.202 3.79507
304.147 449.438 1.89753
304.147 617.978 60.7211
304.147 629.213 108.159
304.147 640.449 138.52
304.147 651.685 66.4137
304.147 662.921 119.545
304.147 674.157 151.803
304.147 685.393 41.7457
304.147 696.629 85.389
304.147 707.865 87.2865
304.147 719.101 43.6433
304.147 730.337 108.159
304.147 741.573 43.6433
304.147 752.809 184.061
304.147 764.045 261.86
304.147 775.281 474.383
304.147 786.517 516.129
304.147 797.753 360.531
304.147 808.989 559.772
304.147 820.225 491.461
304.147 831.461 453.51
304.147 842.697 453.51
304.147 853.933 290.323
304.147 865.169 288.425
304.147 876.404 288.425
304.147 887.64 286.528
304.147 898.876 288.425
304.147 910.112 288.425
304.147 921.348 286.528
304.147 932.584 284.63
304.147 943.82 284.63
304.147 955.056 282.732
304.147 966.292 282.732
304.147 977.528 423.15
304.147 988.764 423.15
304.147 1000 423.15
308.756 56.1798 409.867
308.756 67.4157 407.97
308.756 78.6517 407.97
308.756 89.8876 407.97
308.756 101.124 406.072
308.756 112.36 406.072
308.756 123.596 406.072
308.756 134.831 886.148
308.756 146.067 375.712
308.756 157.303 282.732
308.756 168.539 428.843
308.756 179.775 220.114
308.756 202.247 24.6679
308.756 213.483 24.6679
308.756 292.135 9.48767
308.756 303.371 13.2827
308.756 314.607 7.59013
308.756 325.843 3.79507
308.756 337.079 3.79507
308.756 348.315 0
308.756 359.551 3.79507
308.756 370.787 5.6926
308.756 382.022 0
308.756 393.258 1.89753
308.756 404.494 0
308.756 617.978 53.1309
308.756 629.213 24.6679
308.756 640.449 98.6717
308.756 651.685 85.389
308.756 662.921 159.393
308.756 674.157 79.6964
308.756 685.393 39.8482
308.756 696.629 75.9013
308.756 707.865 77.7989
308.756 719.101 39.8482
308.756 730.337 102.467
308.756 741.573 47.4383
308.756 752.809 161.29
308.756 764.045 335.863
308.756 775.281 423.15
308.756 786.517 516.129
308.756 797.753 480.076
308.756 808.989 417.457
308.756 820.225 563.567
308.756 831.461 244.782
308.756 842.697 445.92
308.756 853.933 436.433
308.756 865.169 417.457
308.756 876.404 290.323
308.756 887.64 288.425
308.756 898.876 288.425
308.756 910.112 286.528
308.756 921.348 286.528
308.756 932.584 288.425
308.756 943.82 284.63
308.756 955.056 280.835
308.756 966.292 423.15
308.756 977.528 423.15
308.756 988.764 423.15
313.364 56.1798 409.867
313.364 67.4157 409.867
313.364 78.6517 409.867
313.364 89.8876 407.97
313.364 101.124 407.97
313.364 112.36 407.97
313.364 123.596 406.072
313.364 134.831 907.021
313.364 146.067 447.818
313.364 157.303 364.326
313.364 168.539 407.97
313.364 179.775 170.778
313.364 202.247 22.7704
313.364 213.483 22.7704
313.364 292.135 11.3852
313.364 303.371 9.48767
313.364 314.607 5.6926
313.364 325.843 3.79507
313.364 337.079 1.89753
313.364 348.315 3.79507
313.364 359.551 5.6926
313.364 370.787 3.79507
313.364 617.978 51.2334
313.364 629.213 26.5655
313.364 640.449 98.6717
313.364 651.685 153.7
313.364 662.921 168.88
313.364 674.157 41.7457
313.364 685.393 37.9507
313.364 696.629 96.7742
313.364 707.865 113.852
313.364 719.101 34.1556
313.364 730.337 108.159
313.364 741.573 58.8235
313.364 752.809 129.032
313.364 764.045 299.81
313.364 775.281 423.15
313.364 786.517 442.125
313.364 797.753 480.076
313.364 808.989 387.097
313.364 820.225 563.567
313.364 831.461 242.884
313.364 842.697 240.987
313.364 853.933 235.294
313.364 865.169 428.843
313.364 876.404 419.355
313.364 887.64 417.457
313.364 898.876 288.425
313.364 910.112 288.425
313.364 921.348 286.528
313.364 932.584 286.528
313.364 943.82 423.15
313.364 955.056 425.047
313.364 966.292 425.047
313.364 977.528 423.15
313.364 988.764 423.15
317.972 44.9438 409.867
317.972 56.1798 409.867
317.972 67.4157 409.867
317.972 78.6517 409.867
317.972 89.8876 409.867
317.972 101.124 409.867
317.972 112.36 407.97
317.972 123.596 406.072
317.972 134.831 897.533
317.972 146.067 358.634
317.972 157.303 442.125
317.972 168.539 381.404
317.972 179.775 149.905
317.972 202.247 53.1309
317.972 213.483 22.7704
317.972 292.135 7.59013
317.972 303.371 7.59013
317.972 314.607 3.79507
317.972 325.843 0
317.972 337.079 0
317.972 348.315 1.89753
317.972 359.551 0
317.972 617.978 45.5408
317.972 629.213 26.5655
317.972 640.449 83.4915
317.972 651.685 197.343
317.972 662.921 70.2087
317.972 674.157 96.7742
317.972 685.393 49.3359
317.972 696.629 34.1556
317.972 707.865 134.725
317.972 719.101 92.9791
317.972 730.337 102.467
317.972 741.573 56.926
317.972 752.809 43.6433
317.972 764.045 269.45
317.972 775.281 478.178
317.972 786.517 478.178
317.972 797.753 601.518
317.972 808.989 481.973
317.972 820.225 563.567
317.972 831.461 240.987
317.972 842.697 240.987
317.972 853.933 237.192
317.972 865.169 220.114
317.972 876.404 214.421
317.972 887.64 419.355
317.972 898.876 419.355
317.972 910.112 417.457
317.972 921.348 288.425
317.972 932.584 425.047
317.972 943.82 426.945
317.972 955.056 425.047
317.972 966.292 426.945
317.972 977.528 425.047
317.972 988.764 423.15
322.581 44.9438 409.867
322.581 56.1798 409.867
322.581 67.4157 409.867
322.581 78.6517 409.867
322.581 89.8876 409.867
322.581 101.124 409.867
322.581 112.36 407.97
322.581 123.596 407.97
322.581 134.831 907.021
322.581 146.067 413.662
322.581 157.303 474.383
322.581 168.539 328.273
322.581 179.775 151.803
322.581 202.247 53.1309
322.581 303.371 0
322.581 617.978 47.4383
322.581 629.213 79.6964
322.581 640.449 56.926
322.581 651.685 182.163
322.581 662.921 32.2581
322.581 674.157 113.852
322.581 685.393 43.6433
322.581 696.629 45.5408
322.581 707.865 94.8767
322.581 719.101 98.6717
322.581 730.337 127.135
322.581 741.573 127.135
322.581 752.809 47.4383
322.581 764.045 174.573
322.581 775.281 455.408
322.581 786.517 540.797
322.581 797.753 481.973
322.581 808.989 480.076
322.581 820.225 561.67
322.581 831.461 239.089
322.581 842.697 237.192
322.581 853.933 229.602
322.581 865.169 229.602
322.581 876.404 212.524
322.581 887.64 212.524
322.581 898.876 212.524
322.581 910.112 554.08
322.581 921.348 554.08
322.581 932.584 554.08
322.581 943.82 428.843
322.581 955.056 428.843
322.581 966.292 426.945
322.581 977.528 426.945
327.189 44.9438 409.867
327.189 56.1798 409.867
327.189 67.4157 409.867
327.189 78.6517 409.867
327.189 89.8876 409.867
327.189 101.124 409.867
327.189 112.36 409.867
327.189 123.596 806.452
327.189 134.831 907.021
327.189 146.067 537.002
327.189 157.303 559.772
327.189 168.539 246.679
327.189 179.775 32.2581
327.189 191.011 24.6679
327.189 202.247 22.7704
327.189 629.213 81.5939
327.189 640.449 85.389
327.189 651.685 182.163
327.189 662.921 37.9507
327.189 674.157 85.389
327.189 685.393 43.6433
327.189 696.629 45.5408
327.189 707.865 89.1841
327.189 719.101 123.34
327.189 730.337 62.6186
327.189 741.573 127.135
327.189 752.809 60.7211
327.189 764.045 96.7742
327.189 775.281 343.454
327.189 786.517 555.977
327.189 797.753 531.309
327.189 808.989 544.592
327.189 820.225 609.108
327.189 831.461 387.097
327.189 842.697 231.499
327.189 853.933 214.421
327.189 865.169 225.806
327.189 876.404 212.524
327.189 887.64 280.835
327.189 898.876 280.835
327.189 910.112 278.937
327.189 921.348 280.835
327.189 932.584 555.977
327.189 943.82 555.977
327.189 955.056 430.74
327.189 966.292 430.74
327.189 977.528 426.945
331.797 44.9438 409.867
331.797 56.1798 409.867
331.797 67.4157 409.867
331.797 78.6517 409.867
331.797 89.8876 409.867
331.797 101.124 409.867
331.797 112.36 409.867
331.797 123.596 808.349
331.797 134.831 652.751
331.797 146.067 574.953
331.797 157.303 451.613
331.797 168.539 199.241
331.797 191.011 51.2334
331.797 202.247 17.0778
331.797 483.146 0
331.797 629.213 51.2334
331.797 640.449 98.6717
331.797 651.685 174.573
331.797 662.921 32.2581
331.797 674.157 87.2865
331.797 685.393 45.5408
331.797 696.629 45.5408
331.797 707.865 102.467
331.797 719.101 146.11
331.797 730.337 60.7211
331.797 741.573 117.647
331.797 752.809 68.3112
331.797 764.045 43.6433
331.797 775.281 299.81
331.797 786.517 529.412
331.797 797.753 379.507
331.797 808.989 407.97
331.797 820.225 548.387
331.797 831.461 550.285
331.797 842.697 218.216
331.797 853.933 216.319
331.797 865.169 296.015
331.797 876.404 282.732
331.797 887.64 282.732
331.797 898.876 282.732
331.797 910.112 280.835
331.797 921.348 280.835
331.797 932.584 282.732
331.797 943.82 557.875
331.797 955.056 557.875
331.797 966.292 432.638
331.797 977.528 428.843
336.406 44.9438 409.867
336.406 56.1798 411.765
336.406 67.4157 409.867
336.406 78.6517 411.765
336.406 89.8876 411.765
336.406 101.124 409.867
336.406 112.36 409.867
336.406 123.596 834.915
336.406 134.831 652.751
336.406 146.067 609.108
336.406 157.303 421.252
336.406 168.539 151.803
336.406 191.011 47.4383
336.406 449.438 0
336.406 460.674 0
336.406 483.146 0
336.406 494.382 1.89753
336.406 629.213 83.4915
336.406 640.449 81.5939
336.406 651.685 166.983
336.406 662.921 30.3605
336.406 674.157 108.159
336.406 685.393 92.9791
336.406 696.629 45.5408
336.406 707.865 149.905
336.406 719.101 132.827
336.406 730.337 55.0285
336.406 741.573 117.647
336.406 752.809 138.52
336.406 764.045 58.8235
336.406 775.281 296.015
336.406 786.517 580.645
336.406 797.753 425.047
336.406 808.989 406.072
336.406 820.225 481.973
336.406 831.461 635.674
336.406 842.697 292.22
336.406 853.933 288.425
336.406 865.169 296.015
336.406 876.404 286.528
336.406 887.64 284.63
336.406 898.876 282.732
336.406 910.112 282.732
336.406 921.348 280.835
336.406 932.584 280.835
336.406 943.82 280.835
336.406 955.056 559.772
336.406 966.292 432.638
336.406 977.528 428.843
341.014 44.9438 411.765
341.014 56.1798 411.765
341.014 67.4157 409.867
341.014 78.6517 411.765
341.014 89.8876 411.765
341.014 101.124 411.765
341.014 112.36 409.867
341.014 123.596 853.89
341.014 134.831 584.44
341.014 146.067 635.674
341.014 157.303 371.917
341.014 179.775 20.8729
341.014 191.011 18.9753
341.014 438.202 0
341.014 449.438 1.89753
341.014 471.91 1.89753
341.014 483.146 1.89753
341.014 494.382 1.89753
341.014 629.213 92.9791
341.014 640.449 60.7211
341.014 651.685 161.29
341.014 662.921 22.7704
341.014 674.157 106.262
341.014 685.393 70.2087
341.014 696.629 45.5408
341.014 707.865 130.93
341.014 719.101 55.0285
341.014 730.337 55.0285
341.014 741.573 51.2334
341.014 752.809 136.622
341.014 764.045 64.5161
341.014 775.281 290.323
341.014 786.517 580.645
341.014 797.753 580.645
341.014 808.989 426.945
341.014 820.225 483.871
341.014 831.461 637.571
341.014 842.697 457.306
341.014 853.933 290.323
341.014 865.169 297.913
341.014 876.404 288.425
341.014 887.64 286.528
341.014 898.876 284.63
341.014 910.112 282.732
341.014 921.348 282.732
341.014 932.584 282.732
341.014 943.82 282.732
341.014 955.056 559.772
341.014 966.292 559.772
345.622 56.1798 411.765
345.622 67.4157 411.765
345.622 78.6517 411.765
345.622 89.8876 411.765
345.622 101.124 411.765
345.622 112.36 409.867
345.622 123.596 869.07
345.622 134.831 537.002
345.622 146.067 626.186
345.622 157.303 229.602
345.622 179.775 56.926
345.622 191.011 15.1803
345.622 426.966 0
345.622 629.213 87.2865
345.622 640.449 53.1309
345.622 651.685 127.135
345.622 662.921 68.3112
345.622 674.157 140.417
345.622 685.393 72.1063
345.622 696.629 36.0531
345.622 707.865 138.52
345.622 719.101 43.6433
345.622 730.337 66.4137
345.622 741.573 56.926
345.622 752.809 166.983
345.622 764.045 62.6186
345.622 775.281 290.323
345.622 786.517 537.002
345.622 797.753 480.076
345.622 808.989 428.843
345.622 820.225 485.769
345.622 831.461 493.359
345.622 842.697 455.408
345.622 853.933 451.613
345.622 865.169 299.81
345.622 876.404 292.22
345.622 887.64 286.528
345.622 898.876 284.63
345.622 910.112 282.732
345.622 921.348 282.732
345.622 932.584 282.732
345.622 943.82 282.732
345.622 955.056 398.482
345.622 966.292 398.482
350.23 56.1798 411.765
350.23 67.4157 411.765
350.23 78.6517 411.765
350.23 89.8876 409.867
350.23 101.124 409.867
350.23 112.36 409.867
350.23 123.596 884.25
350.23 134.831 637.571
350.23 146.067 698.292
350.23 157.303 106.262
350.23 168.539 26.5655
350.23 179.775 49.3359
350.23 460.674 0
350.23 629.213 94.8767
350.23 640.449 51.2334
350.23 651.685 125.237
350.23 662.921 102.467
350.23 674.157 155.598
350.23 685.393 36.0531
350.23 696.629 32.2581
350.23 707.865 148.008
350.23 719.101 148.008
350.23 730.337 58.8235
350.23 741.573 60.7211
350.23 752.809 149.905
350.23 764.045 138.52
350.23 775.281 269.45
350.23 786.517 426.945
350.23 797.753 444.023
350.23 808.989 430.74
350.23 820.225 557.875
350.23 831.461 557.875
350.23 842.697 246.679
350.23 853.933 453.51
350.23 865.169 290.323
350.23 876.404 292.22
350.23 887.64 290.323
350.23 898.876 286.528
350.23 910.112 284.63
350.23 921.348 282.732
350.23 932.584 398.482
350.23 943.82 398.482
350.23 955.056 398.482
350.23 966.292 398.482
354.839 67.4157 409.867
354.839 78.6517 409.867
354.839 89.8876 409.867
354.839 101.124 409.867
354.839 112.36 700.19
354.839 123.596 910.816
354.839 134.831 605.313
354.839 146.067 685.009
354.839 157.303 92.9791
354.839 168.539 30.3605
354.839 179.775 20.8729
354.839 629.213 94.8767
354.839 640.449 83.4915
354.839 651.685 87.2865
354.839 662.921 148.008
354.839 674.157 111.954
354.839 685.393 32.2581
354.839 696.629 74.0038
354.839 707.865 100.569
354.839 719.101 157.495
354.839 730.337 74.0038
354.839 741.573 56.926
354.839 752.809 62.6186
354.839 764.045 166.983
354.839 775.281 316.888
354.839 786.517 483.871
354.839 797.753 597.723
354.839 808.989 430.74
354.839 820.225 487.666
354.839 831.461 557.875
354.839 842.697 248.577
354.839 853.933 453.51
354.839 865.169 290.323
354.839 876.404 294.118
354.839 887.64 292.22
354.839 898.876 288.425
354.839 910.112 282.732
354.839 921.348 400.38
354.839 932.584 400.38
354.839 943.82 400.38
354.839 955.056 400.38
354.839 966.292 398.482
359.447 78.6517 409.867
359.447 89.8876 409.867
359.447 101.124 409.867
359.447 112.36 827.324
359.447 123.596 774.194
359.447 134.831 612.903
359.447 146.067 552.182
359.447 168.539 32.2581
359.447 179.775 18.9753
359.447 629.213 55.0285
359.447 640.449 102.467
359.447 651.685 89.1841
359.447 662.921 182.163
359.447 674.157 87.2865
359.447 685.393 157.495
359.447 696.629 170.778
359.447 707.865 92.9791
359.447 719.101 168.88
359.447 730.337 74.0038
359.447 741.573 68.3112
359.447 752.809 62.6186
359.447 764.045 151.803
359.447 775.281 168.88
359.447 786.517 481.973
359.447 797.753 571.157
359.447 808.989 387.097
359.447 820.225 544.592
359.447 831.461 612.903
359.447 842.697 244.782
359.447 853.933 453.51
359.447 865.169 451.613
359.447 876.404 288.425
359.447 887.64 411.765
359.447 898.876 407.97
359.447 910.112 406.072
359.447 921.348 404.175
359.447 932.584 404.175
359.447 943.82 402.277
359.447 955.056 400.38
359.447 966.292 400.38
364.055 101.124 409.867
364.055 112.36 865.275
364.055 123.596 611.006
364.055 134.831 618.596
364.055 146.067 360.531
364.055 168.539 68.3112
364.055 179.775 18.9753
364.055 382.022 0
364.055 426.966 0
364.055 438.202 0
364.055 460.674 0
364.055 629.213 55.0285
364.055 640.449 132.827
364.055 651.685 18.9753
364.055 662.921 180.266
364.055 674.157 172.676
364.055 685.393 180.266
364.055 696.629 92.9791
364.055 707.865 47.4383
364.055 719.101 199.241
364.055 730.337 130.93
364.055 741.573 60.7211
364.055 752.809 47.4383
364.055 764.045 127.135
364.055 775.281 62.6186
364.055 786.517 480.076
364.055 797.753 584.44
364.055 808.989 360.531
364.055 820.225 487.666
364.055 831.461 698.292
364.055 842.697 476.281
364.055 853.933 320.683
364.055 865.169 595.825
364.055 876.404 423.15
364.055 887.64 417.457
364.055 898.876 413.662
364.055 910.112 409.867
364.055 921.348 407.97
364.055 932.584 406.072
364.055 943.82 404.175
364.055 955.056 404.175
364.055 966.292 400.38
368.664 112.36 886.148
368.664 123.596 533.207
368.664 134.831 607.211
368.664 146.067 358.634
368.664 168.539 60.7211
368.664 382.022 0
368.664 426.966 1.89753
368.664 438.202 0
368.664 471.91 1.89753
368.664 629.213 24.6679
368.664 640.449 142.315
368.664 651.685 20.8729
368.664 662.921 182.163
368.664 674.157 148.008
368.664 685.393 191.651
368.664 696.629 43.6433
368.664 707.865 53.1309
368.664 719.101 138.52
368.664 730.337 130.93
368.664 741.573 43.6433
368.664 752.809 41.7457
368.664 764.045 110.057
368.664 775.281 58.8235
368.664 786.517 481.973
368.664 797.753 648.956
368.664 808.989 485.769
368.664 820.225 487.666
368.664 831.461 559.772
368.664 842.697 576.85
368.664 853.933 316.888
368.664 865.169 595.825
368.664 876.404 590.133
368.664 887.64 421.252
368.664 898.876 417.457
368.664 910.112 413.662
368.664 921.348 411.765
368.664 932.584 409.867
368.664 943.82 407.97
368.664 955.056 404.175
368.664 966.292 400.38
373.272 101.124 654.649
373.272 112.36 886.148
373.272 123.596 578.748
373.272 134.831 614.801
373.272 146.067 322.581
373.272 168.539 70.2087
373.272 382.022 0
373.272 426.966 0
373.272 438.202 0
373.272 449.438 0
373.272 629.213 26.5655
373.272 640.449 142.315
373.272 651.685 24.6679
373.272 662.921 159.393
373.272 674.157 180.266
373.272 685.393 216.319
373.272 696.629 43.6433
373.272 707.865 56.926
373.272 719.101 115.75
373.272 730.337 104.364
373.272 741.573 43.6433
373.272 752.809 37.9507
373.272 764.045 110.057
373.272 775.281 77.7989
373.272 786.517 168.88
373.272 797.753 629.981
373.272 808.989 523.719
373.272 820.225 430.74
373.272 831.461 561.67
373.272 842.697 647.059
373.272 853.933 316.888
373.272 865.169 313.093
373.272 876.404 592.03
373.272 887.64 423.15
373.272 898.876 421.252
373.272 910.112 417.457
373.272 921.348 413.662
373.272 932.584 411.765
373.272 943.82 409.867
373.272 955.056 406.072
377.88 101.124 827.324
377.88 112.36 770.398
377.88 123.596 527.514
377.88 134.831 588.235
377.88 146.067 377.609
377.88 157.303 83.4915
377.88 168.539 77.7989
377.88 426.966 1.89753
377.88 629.213 26.5655
377.88 640.449 142.315
377.88 651.685 24.6679
377.88 662.921 148.008
377.88 674.157 163.188
377.88 685.393 263.757
377.88 696.629 58.8235
377.88 707.865 49.3359
377.88 719.101 98.6717
377.88 730.337 91.0816
377.88 741.573 83.4915
377.88 752.809 43.6433
377.88 764.045 148.008
377.88 775.281 89.1841
377.88 786.517 89.1841
377.88 797.753 512.334
377.88 808.989 554.08
377.88 820.225 487.666
377.88 831.461 419.355
377.88 842.697 645.161
377.88 853.933 470.588
377.88 865.169 313.093
377.88 876.404 590.133
377.88 887.64 586.338
377.88 898.876 421.252
377.88 910.112 419.355
377.88 921.348 417.457
377.88 932.584 411.765
377.88 943.82 409.867
382.488 101.124 829.222
382.488 112.36 491.461
382.488 123.596 523.719
382.488 134.831 506.641
382.488 146.067 339.658
382.488 157.303 83.4915
382.488 168.539 36.0531
382.488 426.966 0
382.488 629.213 26.5655
382.488 640.449 138.52
382.488 651.685 24.6679
382.488 662.921 159.393
382.488 674.157 41.7457
382.488 685.393 278.937
382.488 696.629 132.827
382.488 707.865 45.5408
382.488 719.101 98.6717
382.488 730.337 39.8482
382.488 741.573 94.8767
382.488 752.809 56.926
382.488 764.045 148.008
382.488 775.281 85.389
382.488 786.517 85.389
382.488 797.753 481.973
382.488 808.989 599.62
382.488 820.225 485.769
382.488 831.461 483.871
382.488 842.697 489.564
382.488 853.933 470.588
382.488 865.169 307.4
382.488 876.404 305.503
382.488 887.64 586.338
382.488 898.876 421.252
382.488 910.112 419.355
382.488 921.348 417.457
387.097 101.124 829.222
387.097 112.36 576.85
387.097 123.596 464.896
387.097 134.831 502.846
387.097 146.067 290.323
387.097 157.303 85.389
387.097 168.539 37.9507
387.097 629.213 77.7989
387.097 640.449 129.032
387.097 651.685 18.9753
387.097 662.921 159.393
387.097 674.157 37.9507
387.097 685.393 242.884
387.097 696.629 193.548
387.097 707.865 98.6717
387.097 719.101 92.9791
387.097 730.337 39.8482
387.097 741.573 102.467
387.097 752.809 47.4383
387.097 764.045 136.622
387.097 775.281 62.6186
387.097 786.517 47.4383
387.097 797.753 453.51
387.097 808.989 671.727
387.097 820.225 483.871
387.097 831.461 552.182
387.097 842.697 559.772
387.097 853.933 464.896
387.097 865.169 466.793
387.097 876.404 303.605
387.097 887.64 586.338
387.097 898.876 423.15
387.097 910.112 417.457
391.705 101.124 853.89
391.705 112.36 563.567
391.705 123.596 402.277
391.705 134.831 468.691
391.705 146.067 138.52
391.705 157.303 111.954
391.705 168.539 34.1556
391.705 629.213 70.2087
391.705 640.449 77.7989
391.705 651.685 17.0778
391.705 662.921 129.032
391.705 674.157 81.5939
391.705 685.393 218.216
391.705 696.629 206.831
391.705 707.865 106.262
391.705 719.101 55.0285
391.705 730.337 41.7457
391.705 741.573 119.545
391.705 752.809 91.0816
391.705 764.045 115.75
391.705 775.281 51.2334
391.705 786.517 53.1309
391.705 797.753 453.51
391.705 808.989 554.08
391.705 820.225 483.871
391.705 831.461 478.178
391.705 842.697 694.497
391.705 853.933 311.195
391.705 865.169 612.903
391.705 876.404 445.92
391.705 887.64 444.023
391.705 898.876 438.33
396.313 101.124 851.992
396.313 112.36 529.412
396.313 123.596 360.531
396.313 134.831 500.949
396.313 146.067 72.1063
396.313 157.303 98.6717
396.313 629.213 70.2087
396.313 640.449 75.9013
396.313 651.685 17.0778
396.313 662.921 92.9791
396.313 674.157 92.9791
396.313 685.393 237.192
396.313 696.629 195.446
396.313 707.865 45.5408
396.313 719.101 45.5408
396.313 730.337 49.3359
396.313 741.573 51.2334
396.313 752.809 85.389
396.313 764.045 127.135
396.313 775.281 53.1309
396.313 786.517 53.1309
396.313 797.753 451.613
396.313 808.989 523.719
396.313 820.225 481.973
396.313 831.461 271.347
396.313 842.697 694.497
396.313 853.933 313.093
396.313 865.169 611.006
396.313 876.404 444.023
396.313 887.64 442.125
396.313 898.876 438.33
400.922 101.124 851.992
400.922 112.36 573.055
400.922 123.596 523.719
400.922 134.831 398.482
400.922 146.067 66.4137
400.922 157.303 98.6717
400.922 629.213 72.1063
400.922 640.449 96.7742
400.922 651.685 18.9753
400.922 662.921 102.467
400.922 674.157 125.237
400.922 685.393 237.192
400.922 696.629 168.88
400.922 707.865 49.3359
400.922 719.101 45.5408
400.922 730.337 45.5408
400.922 741.573 47.4383
400.922 752.809 47.4383
400.922 764.045 127.135
400.922 775.281 47.4383
400.922 786.517 55.0285
400.922 797.753 481.973
400.922 808.989 447.818
400.922 820.225 527.514
400.922 831.461 271.347
400.922 842.697 694.497
400.922 853.933 314.991
400.922 865.169 609.108
400.922 876.404 440.228
400.922 887.64 438.33
400.922 898.876 438.33
400.922 910.112 436.433
405.53 101.124 884.25
405.53 112.36 626.186
405.53 123.596 557.875
405.53 134.831 218.216
405.53 157.303 36.0531
405.53 168.539 30.3605
405.53 629.213 45.5408
405.53 640.449 129.032
405.53 651.685 20.8729
405.53 662.921 79.6964
405.53 674.157 174.573
405.53 685.393 256.167
405.53 696.629 216.319
405.53 707.865 49.3359
405.53 719.101 49.3359
405.53 730.337 45.5408
405.53 741.573 41.7457
405.53 752.809 51.2334
405.53 764.045 151.803
405.53 775.281 87.2865
405.53 786.517 55.0285
405.53 797.753 419.355
405.53 808.989 512.334
405.53 820.225 527.514
405.53 831.461 273.245
405.53 842.697 694.497
405.53 853.933 474.383
405.53 865.169 607.211
405.53 876.404 603.416
405.53 887.64 438.33
405.53 898.876 436.433
405.53 910.112 436.433
405.53 921.348 436.433
410.138 101.124 897.533
410.138 112.36 537.002
410.138 123.596 540.797
410.138 134.831 193.548
410.138 157.303 26.5655
410.138 168.539 28.463
410.138 629.213 22.7704
410.138 640.449 138.52
410.138 651.685 53.1309
410.138 662.921 123.34
410.138 674.157 223.909
410.138 685.393 138.52
410.138 696.629 275.142
410.138 707.865 49.3359
410.138 719.101 45.5408
410.138 730.337 43.6433
410.138 741.573 39.8482
410.138 752.809 47.4383
410.138 764.045 98.6717
410.138 775.281 136.622
410.138 786.517 45.5408
410.138 797.753 199.241
410.138 808.989 571.157
410.138 820.225 527.514
410.138 831.461 360.531
410.138 842.697 557.875
410.138 853.933 476.281
410.138 865.169 314.991
410.138 876.404 603.416
410.138 887.64 436.433
410.138 898.876 436.433
410.138 910.112 436.433
410.138 921.348 436.433
414.747 101.124 907.021
414.747 112.36 574.953
414.747 123.596 527.514
414.747 134.831 203.036
414.747 157.303 17.0778
414.747 168.539 17.0778
414.747 629.213 28.463
414.747 640.449 127.135
414.747 651.685 49.3359
414.747 662.921 87.2865
414.747 674.157 231.499
414.747 685.393 170.778
414.747 696.629 259.962
414.747 707.865 43.6433
414.747 719.101 45.5408
414.747 730.337 45.5408
414.747 741.573 55.0285
414.747 752.809 51.2334
414.747 764.045 53.1309
414.747 775.281 144.213
414.747 786.517 106.262
414.747 797.753 140.417
414.747 808.989 538.899
414.747 820.225 440.228
414.747 831.461 483.871
414.747 842.697 557.875
414.747 853.933 474.383
414.747 865.169 314.991
414.747 876.404 601.518
414.747 887.64 434.535
414.747 898.876 436.433
414.747 910.112 434.535
414.747 921.348 434.535
414.747 932.584 432.638
419.355 89.8876 793.169
419.355 101.124 907.021
419.355 112.36 593.928
419.355 123.596 472.486
419.355 134.831 203.036
419.355 157.303 49.3359
419.355 168.539 17.0778
419.355 629.213 34.1556
419.355 640.449 153.7
419.355 651.685 106.262
419.355 662.921 49.3359
419.355 674.157 163.188
419.355 685.393 233.397
419.355 696.629 282.732
419.355 707.865 41.7457
419.355 719.101 53.1309
419.355 730.337 49.3359
419.355 741.573 62.6186
419.355 752.809 75.9013
419.355 764.045 70.2087
419.355 775.281 106.262
419.355 786.517 136.622
419.355 797.753 119.545
419.355 808.989 531.309
419.355 820.225 351.044
419.355 831.461 485.769
419.355 842.697 559.772
419.355 853.933 474.383
419.355 865.169 313.093
419.355 876.404 599.62
419.355 887.64 597.723
419.355 898.876 434.535
419.355 910.112 434.535
419.355 921.348 434.535
419.355 932.584 432.638
423.963 89.8876 851.992
423.963 101.124 776.091
423.963 112.36 694.497
423.963 123.596 445.92
423.963 134.831 151.803
423.963 146.067 26.5655
423.963 157.303 53.1309
423.963 640.449 129.032
423.963 651.685 115.75
423.963 662.921 55.0285
423.963 674.157 119.545
423.963 685.393 142.315
423.963 696.629 256.167
423.963 707.865 142.315
423.963 719.101 55.0285
423.963 730.337 64.5161
423.963 741.573 74.0038
423.963 752.809 77.7989
423.963 764.045 51.2334
423.963 775.281 45.5408
423.963 786.517 136.622
423.963 797.753 51.2334
423.963 808.989 483.871
423.963 820.225 371.917
423.963 831.461 485.769
423.963 842.697 561.67
423.963 853.933 472.486
423.963 865.169 313.093
423.963 876.404 309.298
423.963 887.64 593.928
423.963 898.876 432.638
423.963 910.112 432.638
423.963 921.348 432.638
423.963 932.584 430.74
428.571 89.8876 851.992
428.571 101.124 777.989
428.571 112.36 675.522
428.571 123.596 288.425
428.571 134.831 151.803
428.571 146.067 28.463
428.571 157.303 62.6186
428.571 640.449 113.852
428.571 651.685 132.827
428.571 662.921 56.926
428.571 674.157 113.852
428.571 685.393 89.1841
428.571 696.629 174.573
428.571 707.865 134.725
428.571 719.101 66.4137
428.571 730.337 66.4137
428.571 741.573 74.0038
428.571 752.809 74.0038
428.571 764.045 53.1309
428.571 775.281 43.6433
428.571 786.517 136.622
428.571 797.753 110.057
428.571 808.989 434.535
428.571 820.225 449.715
428.571 831.461 529.412
428.571 842.697 561.67
428.571 853.933 641.366
428.571 865.169 313.093
428.571 876.404 311.195
428.571 887.64 592.03
428.571 898.876 428.843
428.571 910.112 428.843
428.571 921.348 430.74
428.571 932.584 430.74
433.18 89.8876 851.992
433.18 101.124 876.66
433.18 112.36 582.543
433.18 123.596 212.524
433.18 134.831 104.364
433.18 146.067 28.463
433.18 157.303 66.4137
433.18 640.449 79.6964
433.18 651.685 187.856
433.18 662.921 58.8235
433.18 674.157 108.159
433.18 685.393 79.6964
433.18 696.629 165.085
433.18 707.865 149.905
433.18 719.101 49.3359
433.18 730.337 66.4137
433.18 741.573 66.4137
433.18 752.809 74.0038
433.18 764.045 55.0285
433.18 775.281 89.1841
433.18 786.517 83.4915
433.18 797.753 110.057
433.18 808.989 377.609
433.18 820.225 421.252
433.18 831.461 529.412
433.18 842.697 489.564
433.18 853.933 641.366
433.18 865.169 470.588
433.18 876.404 313.093
433.18 887.64 590.133
433.18 898.876 588.235
433.18 910.112 425.047
433.18 921.348 428.843
433.18 932.584 426.945
437.788 78.6517 660.342
437.788 89.8876 897.533
437.788 101.124 889.943
437.788 112.36 461.101
437.788 123.596 314.991
437.788 134.831 136.622
437.788 157.303 70.2087
437.788 651.685 193.548
437.788 662.921 66.4137
437.788 674.157 108.159
437.788 685.393 70.2087
437.788 696.629 157.495
437.788 707.865 174.573
437.788 719.101 45.5408
437.788 730.337 60.7211
437.788 741.573 60.7211
437.788 752.809 55.0285
437.788 764.045 51.2334
437.788 775.281 100.569
437.788 786.517 41.7457
437.788 797.753 111.954
437.788 808.989 352.941
437.788 820.225 455.408
437.788 831.461 563.567
437.788 842.697 609.108
437.788 853.933 487.666
437.788 865.169 470.588
437.788 876.404 309.298
437.788 887.64 309.298
437.788 898.876 586.338
437.788 910.112 423.15
437.788 921.348 421.252
442.396 78.6517 829.222
442.396 89.8876 865.275
442.396 101.124 747.628
442.396 112.36 409.867
442.396 123.596 157.495
442.396 134.831 28.463
442.396 146.067 24.6679
442.396 157.303 70.2087
442.396 651.685 193.548
442.396 662.921 55.0285
442.396 674.157 132.827
442.396 685.393 70.2087
442.396 696.629 98.6717
442.396 707.865 157.495
442.396 719.101 45.5408
442.396 730.337 60.7211
442.396 741.573 51.2334
442.396 752.809 51.2334
442.396 764.045 55.0285
442.396 775.281 102.467
442.396 786.517 43.6433
442.396 797.753 53.1309
442.396 808.989 337.761
442.396 820.225 485.769
442.396 831.461 447.818
442.396 842.697 540.797
442.396 853.933 559.772
442.396 865.169 641.366
442.396 876.404 311.195
442.396 887.64 309.298
442.396 898.876 586.338
442.396 910.112 586.338
442.396 921.348 419.355
447.005 78.6517 872.865
447.005 89.8876 888.046
447.005 101.124 571.157
447.005 112.36 396.584
447.005 123.596 121.442
447.005 146.067 22.7704
447.005 157.303 58.8235
447.005 640.449 24.6679
447.005 651.685 168.88
447.005 662.921 55.0285
447.005 674.157 166.983
447.005 685.393 32.2581
447.005 696.629 125.237
447.005 707.865 159.393
447.005 719.101 43.6433
447.005 730.337 49.3359
447.005 741.573 51.2334
447.005 752.809 55.0285
447.005 764.045 119.545
447.005 775.281 94.8767
447.005 786.517 41.7457
447.005 797.753 45.5408
447.005 808.989 278.937
447.005 820.225 485.769
447.005 831.461 485.769
447.005 842.697 483.871
447.005 853.933 419.355
447.005 865.169 641.366
447.005 876.404 468.691
447.005 887.64 311.195
447.005 898.876 311.195
447.005 910.112 584.44
447.005 921.348 417.457
451.613 67.4157 827.324
451.613 78.6517 897.533
451.613 89.8876 806.452
451.613 101.124 301.708
451.613 112.36 339.658
451.613 123.596 26.5655
451.613 146.067 66.4137
451.613 157.303 20.8729
451.613 640.449 24.6679
451.613 651.685 132.827
451.613 662.921 49.3359
451.613 674.157 182.163
451.613 685.393 30.3605
451.613 696.629 130.93
451.613 707.865 115.75
451.613 719.101 51.2334
451.613 730.337 55.0285
451.613 741.573 51.2334
451.613 752.809 51.2334
451.613 764.045 117.647
451.613 775.281 51.2334
