551.22 734.94 164.99
551.22 746.988 177.062
551.22 759.036 305.835
551.22 771.084 432.596
551.22 783.133 152.918
551.22 795.181 122.736
551.22 807.229 207.243
551.22 819.277 160.966
551.22 831.325 191.147
551.22 843.373 169.014
551.22 855.422 154.93
551.22 867.47 595.573
551.22 879.518 794.769
551.22 891.566 845.07
551.22 903.614 734.406
556.098 168.675 468.813
556.098 180.723 585.513
556.098 192.771 543.26
556.098 204.819 655.936
556.098 216.867 338.028
556.098 228.916 358.149
556.098 240.964 124.748
556.098 253.012 171.026
556.098 265.06 10.0604
556.098 277.108 34.2052
556.098 722.892 50.3018
556.098 734.94 94.5674
556.098 746.988 197.183
556.098 759.036 319.92
556.098 771.084 408.451
556.098 783.133 110.664
556.098 795.181 110.664
556.098 807.229 179.074
556.098 819.277 243.461
556.098 831.325 269.618
556.098 843.373 169.014
556.098 855.422 171.026
556.098 867.47 744.467
556.098 879.518 812.877
556.098 891.566 843.058
556.098 903.614 647.887
560.976 168.675 468.813
560.976 180.723 585.513
560.976 192.771 486.922
560.976 204.819 539.235
560.976 216.867 575.453
560.976 228.916 331.992
560.976 240.964 126.761
560.976 253.012 130.785
560.976 265.06 86.5191
560.976 277.108 72.4346
560.976 722.892 42.2535
560.976 734.94 88.5312
560.976 746.988 94.5674
560.976 759.036 338.028
560.976 771.084 438.632
560.976 783.133 128.773
560.976 795.181 175.05
560.976 807.229 255.533
560.976 819.277 144.869
560.976 831.325 293.763
560.976 843.373 211.268
560.976 855.422 488.934
560.976 867.47 682.093
560.976 879.518 742.455
560.976 891.566 820.926
560.976 903.614 474.849
565.854 180.723 818.913
565.854 192.771 613.682
565.854 204.819 484.909
565.854 216.867 585.513
565.854 228.916 386.318
565.854 240.964 235.412
565.854 253.012 104.628
565.854 265.06 98.5915
565.854 277.108 140.845
565.854 722.892 28.169
565.854 734.94 92.5553
565.854 746.988 90.5433
565.854 759.036 259.557
565.854 771.084 350.101
565.854 783.133 319.92
565.854 795.181 201.207
565.854 807.229 203.219
565.854 819.277 66.3984
565.854 831.325 325.956
565.854 843.373 362.173
565.854 855.422 593.561
565.854 867.47 746.479
565.854 879.518 742.455
565.854 891.566 786.72
565.854 903.614 472.837
570.732 180.723 818.913
570.732 192.771 557.344
570.732 204.819 319.92
570.732 216.867 525.151
570.732 228.916 336.016
570.732 240.964 265.594
570.732 253.012 173.038
570.732 265.06 114.688
570.732 277.108 108.652
570.732 722.892 6.03622
570.732 734.94 68.4105
570.732 746.988 120.724
570.732 759.036 235.412
570.732 771.084 303.823
570.732 783.133 344.064
570.732 795.181 152.918
570.732 807.229 323.944
570.732 819.277 154.93
570.732 831.325 376.258
570.732 843.373 323.944
570.732 855.422 760.563
570.732 867.47 782.696
570.732 879.518 708.249
570.732 891.566 786.72
575.61 180.723 818.913
575.61 192.771 653.924
575.61 204.819 319.92
575.61 216.867 521.127
575.61 228.916 366.197
575.61 240.964 331.992
575.61 253.012 199.195
575.61 265.06 189.135
575.61 277.108 84.507
575.61 734.94 34.2052
575.61 746.988 104.628
575.61 759.036 193.159
575.61 771.084 416.499
575.61 783.133 372.233
575.61 795.181 167.002
575.61 807.229 275.654
575.61 819.277 490.946
575.61 831.325 657.948
575.61 843.373 708.249
575.61 855.422 808.853
575.61 867.47 565.392
575.61 879.518 788.732
575.61 891.566 647.887
580.488 180.723 818.913
580.488 192.771 557.344
580.488 204.819 317.907
580.488 216.867 551.308
580.488 228.916 317.907
580.488 240.964 167.002
580.488 253.012 267.606
580.488 265.06 265.594
580.488 277.108 26.1569
580.488 734.94 32.1932
580.488 746.988 98.5915
580.488 759.036 158.954
580.488 771.084 422.535
580.488 783.133 319.92
580.488 795.181 217.304
580.488 807.229 462.777
580.488 819.277 591.549
580.488 831.325 686.117
580.488 843.373 766.6
580.488 855.422 663.984
580.488 867.47 390.342
580.488 879.518 734.406
585.366 168.675 478.873
585.366 180.723 818.913
585.366 192.771 651.911
585.366 204.819 482.897
585.366 216.867 519.115
585.366 228.916 317.907
585.366 240.964 108.652
585.366 253.012 301.811
585.366 265.06 217.304
585.366 734.94 30.1811
585.366 746.988 100.604
585.366 759.036 114.688
585.366 771.084 420.523
585.366 783.133 344.064
585.366 795.181 452.716
585.366 807.229 696.177
585.366 819.277 661.972
585.366 831.325 766.6
585.366 843.373 619.718
585.366 855.422 239.437
585.366 867.47 490.946
585.366 879.518 732.394
590.244 168.675 478.873
590.244 180.723 651.911
590.244 192.771 700.201
590.244 204.819 529.175
590.244 216.867 424.547
590.244 228.916 211.268
590.244 240.964 104.628
590.244 253.012 311.871
590.244 265.06 167.002
590.244 734.94 32.1932
590.244 746.988 100.604
590.244 759.036 114.688
590.244 771.084 414.487
590.244 783.133 488.934
590.244 795.181 678.068
590.244 807.229 696.177
590.244 819.277 663.984
590.244 831.325 422.535
590.244 843.373 239.437
590.244 855.422 488.934
590.244 867.47 732.394
590.244 879.518 645.875
595.122 168.675 728.37
595.122 180.723 696.177
595.122 192.771 734.406
595.122 204.819 525.151
595.122 216.867 424.547
595.122 228.916 223.34
595.122 240.964 110.664
595.122 253.012 311.871
595.122 265.06 146.881
595.122 734.94 32.1932
595.122 746.988 76.4588
595.122 759.036 150.905
595.122 771.084 319.92
595.122 783.133 601.61
595.122 795.181 774.648
595.122 807.229 684.105
595.122 819.277 492.958
595.122 831.325 191.147
595.122 843.373 732.394
595.122 855.422 732.394
595.122 867.47 645.875
600 168.675 728.37
600 180.723 651.911
600 192.771 607.646
600 204.819 551.308
600 216.867 319.92
600 228.916 235.412
600 240.964 90.5433
600 253.012 340.04
600 265.06 88.5312
600 734.94 54.326
600 746.988 74.4467
600 759.036 132.797
600 771.084 213.28
600 783.133 657.948
600 795.181 744.467
600 807.229 710.262
600 819.277 742.455
600 831.325 784.708
600 843.373 730.382
600 855.422 474.849
604.878 168.675 726.358
604.878 180.723 684.105
604.878 192.771 382.294
604.878 204.819 517.103
604.878 216.867 235.412
604.878 228.916 257.545
604.878 240.964 179.074
604.878 253.012 402.414
604.878 265.06 88.5312
604.878 734.94 52.3139
604.878 746.988 74.4467
604.878 759.036 104.628
604.878 771.084 213.28
604.878 783.133 609.658
604.878 795.181 794.769
604.878 807.229 780.684
604.878 819.277 847.082
604.878 831.325 734.406
609.756 168.675 778.672
609.756 180.723 684.105
609.756 192.771 386.318
609.756 204.819 523.139
609.756 216.867 235.412
609.756 228.916 128.773
609.756 240.964 319.92
609.756 253.012 311.871
609.756 506.024 8.04829
609.756 518.072 8.04829
609.756 734.94 28.169
609.756 746.988 122.736
609.756 759.036 126.761
609.756 771.084 203.219
609.756 783.133 513.078
609.756 795.181 716.298
609.756 807.229 728.37
609.756 819.277 849.095
609.756 831.325 740.443
614.634 168.675 843.058
614.634 180.723 684.105
614.634 192.771 440.644
614.634 204.819 376.258
614.634 216.867 303.823
614.634 228.916 142.857
614.634 240.964 356.137
614.634 253.012 148.893
614.634 493.976 8.04829
614.634 506.024 10.0604
614.634 518.072 12.0724
614.634 530.12 10.0604
614.634 746.988 90.5433
614.634 759.036 162.978
614.634 771.084 177.062
614.634 783.133 513.078
614.634 795.181 806.841
614.634 807.229 841.046
614.634 819.277 740.443
614.634 831.325 740.443
619.512 168.675 843.058
619.512 180.723 535.211
619.512 192.771 482.897
619.512 204.819 360.161
619.512 216.867 285.714
619.512 228.916 128.773
619.512 240.964 438.632
619.512 253.012 76.4588
619.512 493.976 10.0604
619.512 506.024 14.0845
619.512 518.072 10.0604
619.512 530.12 10.0604
619.512 746.988 54.326
619.512 759.036 122.736
619.512 771.084 132.797
619.512 783.133 553.32
619.512 795.181 818.913
619.512 807.229 841.046
619.512 819.277 746.479
619.512 831.325 742.455
624.39 156.627 730.382
624.39 168.675 843.058
624.39 180.723 535.211
624.39 192.771 400.402
624.39 204.819 338.028
624.39 216.867 223.34
624.39 228.916 128.773
624.39 240.964 436.62
624.39 481.928 42.2535
624.39 493.976 46.2777
624.39 506.024 12.0724
624.39 518.072 10.0604
624.39 530.12 8.04829
624.39 746.988 52.3139
624.39 759.036 134.809
624.39 771.084 96.5795
624.39 783.133 529.175
624.39 795.181 758.551
624.39 807.229 863.179
624.39 819.277 796.781
624.39 831.325 742.455
629.268 156.627 730.382
629.268 168.675 651.911
629.268 180.723 647.887
629.268 192.771 482.897
629.268 204.819 374.245
629.268 216.867 249.497
629.268 228.916 128.773
629.268 240.964 474.849
629.268 469.88 38.2294
629.268 481.928 72.4346
629.268 493.976 42.2535
629.268 506.024 32.1932
629.268 518.072 12.0724
629.268 530.12 12.0724
629.268 746.988 28.169
629.268 759.036 144.869
629.268 771.084 134.809
629.268 783.133 436.62
629.268 795.181 617.706
629.268 807.229 853.119
629.268 819.277 796.781
629.268 831.325 742.455
634.146 156.627 730.382
634.146 168.675 589.537
634.146 180.723 756.539
634.146 192.771 484.909
634.146 204.819 354.125
634.146 216.867 209.256
634.146 228.916 98.5915
634.146 240.964 460.765
634.146 253.012 16.0966
634.146 457.831 8.04829
634.146 469.88 42.2535
634.146 481.928 44.2656
634.146 493.976 34.2052
634.146 506.024 32.1932
634.146 518.072 10.0604
634.146 530.12 12.0724
634.146 746.988 28.169
634.146 759.036 126.761
634.146 771.084 138.833
634.146 783.133 416.499
634.146 795.181 593.561
634.146 807.229 863.179
634.146 819.277 796.781
634.146 831.325 742.455
639.024 156.627 732.394
639.024 168.675 651.911
639.024 180.723 680.08
639.024 192.771 484.909
639.024 204.819 408.451
639.024 216.867 209.256
639.024 228.916 144.869
639.024 240.964 428.571
639.024 253.012 68.4105
639.024 457.831 28.169
639.024 469.88 46.2777
639.024 481.928 68.4105
639.024 493.976 60.3622
639.024 506.024 70.4225
639.024 518.072 36.2173
639.024 530.12 10.0604
639.024 746.988 30.1811
639.024 759.036 144.869
639.024 771.084 128.773
639.024 783.133 412.475
639.024 795.181 519.115
639.024 807.229 863.179
639.024 819.277 772.636
639.024 831.325 655.936
643.902 144.578 478.873
643.902 156.627 732.394
643.902 168.675 653.924
643.902 180.723 617.706
643.902 192.771 450.704
643.902 204.819 354.125
643.902 216.867 177.062
643.902 228.916 169.014
643.902 240.964 432.596
643.902 253.012 68.4105
643.902 445.783 6.03622
643.902 457.831 34.2052
643.902 469.88 90.5433
643.902 481.928 106.64
643.902 493.976 110.664
643.902 506.024 92.5553
643.902 518.072 34.2052
643.902 530.12 60.3622
643.902 542.169 10.0604
643.902 759.036 142.857
643.902 771.084 132.797
643.902 783.133 412.475
643.902 795.181 513.078
643.902 807.229 714.286
643.902 819.277 694.165
643.902 831.325 655.936
648.78 144.578 478.873
648.78 156.627 480.885
648.78 168.675 653.924
648.78 180.723 619.718
648.78 192.771 414.487
648.78 204.819 319.92
648.78 216.867 160.966
648.78 228.916 203.219
648.78 240.964 410.463
648.78 253.012 14.0845
648.78 445.783 8.04829
648.78 457.831 68.4105
648.78 469.88 90.5433
648.78 481.928 90.5433
648.78 493.976 128.773
648.78 506.024 114.688
648.78 518.072 86.5191
648.78 530.12 124.748
648.78 542.169 54.326
648.78 759.036 138.833
648.78 771.084 84.507
648.78 783.133 342.052
648.78 795.181 529.175
648.78 807.229 637.827
648.78 819.277 772.636
648.78 831.325 828.974
653.659 144.578 478.873
653.659 156.627 645.875
653.659 168.675 583.501
653.659 180.723 710.262
653.659 192.771 370.221
653.659 204.819 340.04
653.659 216.867 213.28
653.659 228.916 225.352
653.659 240.964 394.366
653.659 445.783 36.2173
653.659 457.831 68.4105
653.659 469.88 76.4588
653.659 481.928 114.688
653.659 493.976 229.376
653.659 506.024 108.652
653.659 518.072 152.918
653.659 530.12 144.869
653.659 542.169 72.4346
653.659 554.217 32.1932
653.659 759.036 130.785
653.659 771.084 140.845
653.659 783.133 418.511
653.659 795.181 549.296
653.659 807.229 635.815
653.659 819.277 855.131
653.659 831.325 830.986
658.537 144.578 478.873
658.537 156.627 645.875
658.537 168.675 645.875
658.537 180.723 710.262
658.537 192.771 370.221
658.537 204.819 376.258
658.537 216.867 259.557
658.537 228.916 187.123
658.537 240.964 406.439
658.537 445.783 40.2414
658.537 457.831 78.4708
658.537 469.88 209.256
658.537 481.928 132.797
658.537 493.976 231.388
658.537 506.024 237.425
658.537 518.072 197.183
658.537 530.12 142.857
658.537 542.169 70.4225
658.537 554.217 34.2052
658.537 759.036 84.507
658.537 771.084 156.942
658.537 783.133 474.849
658.537 795.181 591.549
658.537 807.229 764.588
658.537 819.277 830.986
658.537 831.325 830.986
663.415 144.578 478.873
663.415 156.627 645.875
663.415 168.675 645.875
663.415 180.723 621.73
663.415 192.771 342.052
663.415 204.819 386.318
663.415 216.867 195.171
663.415 228.916 122.736
663.415 240.964 418.511
663.415 445.783 68.4105
663.415 457.831 162.978
663.415 469.88 169.014
663.415 481.928 175.05
663.415 493.976 287.726
663.415 506.024 299.799
663.415 518.072 237.425
663.415 530.12 175.05
663.415 542.169 66.3984
663.415 554.217 38.2294
663.415 759.036 90.5433
663.415 771.084 152.918
663.415 783.133 521.127
663.415 795.181 659.96
663.415 807.229 764.588
663.415 819.277 796.781
663.415 831.325 830.986
668.293 144.578 478.873
668.293 156.627 478.873
668.293 168.675 732.394
668.293 180.723 567.404
668.293 192.771 297.787
668.293 204.819 366.197
668.293 216.867 110.664
668.293 228.916 136.821
668.293 240.964 444.668
668.293 433.735 12.0724
668.293 445.783 64.3863
668.293 457.831 148.893
668.293 469.88 124.748
668.293 481.928 185.111
668.293 493.976 382.294
668.293 506.024 374.245
668.293 518.072 215.292
668.293 530.12 181.087
668.293 542.169 114.688
668.293 554.217 62.3742
668.293 759.036 90.5433
668.293 771.084 221.328
668.293 783.133 567.404
668.293 795.181 603.622
668.293 807.229 764.588
668.293 819.277 744.467
668.293 831.325 830.986
673.171 144.578 478.873
673.171 156.627 480.885
673.171 168.675 816.901
673.171 180.723 710.262
673.171 192.771 342.052
673.171 204.819 406.439
673.171 216.867 116.7
673.171 228.916 160.966
673.171 240.964 432.596
673.171 433.735 40.2414
673.171 445.783 40.2414
673.171 457.831 177.062
673.171 469.88 185.111
673.171 481.928 261.569
673.171 493.976 396.378
673.171 506.024 283.702
673.171 518.072 187.123
673.171 530.12 229.376
673.171 542.169 126.761
673.171 554.217 42.2535
673.171 759.036 96.5795
673.171 771.084 229.376
673.171 783.133 543.26
673.171 795.181 708.249
673.171 807.229 762.575
673.171 819.277 744.467
673.171 831.325 830.986
678.049 144.578 478.873
678.049 156.627 478.873
678.049 168.675 816.901
678.049 180.723 782.696
678.049 192.771 452.716
678.049 204.819 374.245
678.049 216.867 177.062
678.049 228.916 307.847
678.049 240.964 390.342
678.049 433.735 40.2414
678.049 445.783 112.676
678.049 457.831 217.304
678.049 469.88 193.159
678.049 481.928 289.738
678.049 493.976 358.149
678.049 506.024 416.499
678.049 518.072 295.775
678.049 530.12 213.28
678.049 542.169 217.304
678.049 554.217 40.2414
678.049 746.988 14.0845
678.049 759.036 100.604
678.049 771.084 342.052
678.049 783.133 563.38
678.049 795.181 756.539
678.049 807.229 692.153
678.049 819.277 742.455
678.049 831.325 830.986
682.927 144.578 478.873
682.927 156.627 478.873
682.927 168.675 698.189
682.927 180.723 710.262
682.927 192.771 452.716
682.927 204.819 263.581
682.927 216.867 223.34
682.927 228.916 307.847
682.927 240.964 331.992
682.927 433.735 36.2173
682.927 445.783 130.785
682.927 457.831 181.087
682.927 469.88 215.292
682.927 481.928 398.39
682.927 493.976 352.113
682.927 506.024 490.946
682.927 518.072 309.859
682.927 530.12 271.63
682.927 542.169 271.63
682.927 554.217 78.4708
682.927 746.988 40.2414
682.927 759.036 100.604
682.927 771.084 354.125
682.927 783.133 575.453
682.927 795.181 744.467
682.927 807.229 810.865
682.927 819.277 659.96
682.927 831.325 830.986
687.805 144.578 478.873
687.805 156.627 478.873
687.805 168.675 698.189
687.805 180.723 798.793
687.805 192.771 452.716
687.805 204.819 263.581
687.805 216.867 223.34
687.805 228.916 295.775
687.805 240.964 303.823
687.805 433.735 34.2052
687.805 445.783 171.026
687.805 457.831 164.99
687.805 469.88 231.388
687.805 481.928 406.439
687.805 493.976 380.282
687.805 506.024 488.934
687.805 518.072 519.115
687.805 530.12 382.294
687.805 542.169 384.306
687.805 554.217 140.845
687.805 746.988 62.3742
687.805 759.036 68.4105
687.805 771.084 342.052
687.805 783.133 593.561
687.805 795.181 678.068
687.805 807.229 792.757
687.805 819.277 591.549
687.805 831.325 794.769
692.683 156.627 478.873
692.683 168.675 698.189
692.683 180.723 798.793
692.683 192.771 452.716
692.683 204.819 263.581
692.683 216.867 257.545
692.683 228.916 263.581
692.683 240.964 293.763
692.683 253.012 16.0966
692.683 433.735 34.2052
692.683 445.783 175.05
692.683 457.831 158.954
692.683 469.88 241.449
692.683 481.928 464.789
692.683 493.976 464.789
692.683 506.024 615.694
692.683 518.072 591.549
692.683 530.12 299.799
692.683 542.169 313.883
692.683 554.217 346.076
692.683 746.988 54.326
692.683 759.036 96.5795
692.683 771.084 342.052
692.683 783.133 647.887
692.683 795.181 603.622
692.683 807.229 770.624
692.683 819.277 591.549
692.683 831.325 794.769
697.561 156.627 478.873
697.561 168.675 647.887
697.561 180.723 798.793
697.561 192.771 452.716
697.561 204.819 279.678
697.561 216.867 247.485
697.561 228.916 245.473
697.561 240.964 179.074
697.561 253.012 195.171
697.561 421.687 10.0604
697.561 433.735 32.1932
697.561 445.783 152.918
697.561 457.831 213.28
697.561 469.88 299.799
697.561 481.928 402.414
697.561 493.976 517.103
697.561 506.024 625.755
697.561 518.072 587.525
697.561 530.12 283.702
697.561 542.169 291.751
697.561 554.217 309.859
697.561 566.265 78.4708
697.561 746.988 54.326
697.561 759.036 148.893
697.561 771.084 267.606
697.561 783.133 565.392
697.561 795.181 581.489
697.561 807.229 772.636
697.561 819.277 591.549
697.561 831.325 794.769
702.439 156.627 478.873
702.439 168.675 726.358
702.439 180.723 780.684
702.439 192.771 452.716
702.439 204.819 338.028
702.439 216.867 259.557
702.439 228.916 134.809
702.439 240.964 181.087
702.439 253.012 303.823
702.439 421.687 10.0604
702.439 433.735 80.4829
702.439 445.783 138.833
702.439 457.831 162.978
702.439 469.88 378.27
702.439 481.928 428.571
702.439 493.976 661.972
702.439 506.024 712.274
702.439 518.072 460.765
702.439 530.12 279.678
702.439 542.169 293.763
702.439 554.217 309.859
702.439 566.265 62.3742
702.439 734.94 8.04829
702.439 746.988 76.4588
702.439 759.036 156.942
702.439 771.084 245.473
702.439 783.133 649.899
702.439 795.181 758.551
702.439 807.229 772.636
702.439 819.277 591.549
702.439 831.325 794.769
707.317 156.627 478.873
707.317 168.675 726.358
707.317 180.723 732.394
707.317 192.771 585.513
707.317 204.819 338.028
707.317 216.867 259.557
707.317 228.916 94.5674
707.317 240.964 154.93
707.317 253.012 295.775
707.317 409.639 8.04829
707.317 421.687 10.0604
707.317 433.735 84.507
707.317 445.783 116.7
707.317 457.831 169.014
707.317 469.88 474.849
707.317 481.928 400.402
707.317 493.976 708.249
707.317 506.024 752.515
707.317 518.072 456.74
707.317 530.12 287.726
707.317 542.169 386.318
707.317 554.217 289.738
707.317 566.265 110.664
707.317 734.94 34.2052
707.317 746.988 64.3863
707.317 759.036 187.123
707.317 771.084 448.692
707.317 783.133 637.827
707.317 795.181 744.467
707.317 807.229 659.96
707.317 819.277 591.549
707.317 831.325 794.769
712.195 156.627 478.873
712.195 168.675 726.358
712.195 180.723 607.646
712.195 192.771 611.67
712.195 204.819 354.125
712.195 216.867 237.425
712.195 228.916 90.5433
712.195 240.964 160.966
712.195 253.012 313.883
712.195 409.639 8.04829
712.195 421.687 10.0604
712.195 433.735 106.64
712.195 445.783 142.857
712.195 457.831 275.654
712.195 469.88 446.68
712.195 481.928 549.296
712.195 493.976 786.72
712.195 506.024 706.237
712.195 518.072 370.221
712.195 530.12 321.932
712.195 542.169 368.209
712.195 554.217 390.342
712.195 566.265 136.821
712.195 734.94 58.3501
712.195 746.988 132.797
712.195 759.036 193.159
712.195 771.084 511.066
712.195 783.133 565.392
712.195 795.181 744.467
712.195 807.229 659.96
712.195 819.277 591.549
712.195 831.325 657.948
717.073 156.627 478.873
717.073 168.675 774.648
717.073 180.723 649.899
717.073 192.771 611.67
717.073 204.819 406.439
717.073 216.867 160.966
717.073 228.916 120.724
717.073 240.964 148.893
717.073 253.012 271.63
717.073 265.06 20.1207
717.073 409.639 10.0604
717.073 421.687 54.326
717.073 433.735 106.64
717.073 445.783 164.99
717.073 457.831 261.569
717.073 469.88 416.499
717.073 481.928 651.911
717.073 493.976 909.457
717.073 506.024 710.262
717.073 518.072 430.584
717.073 530.12 388.33
717.073 542.169 394.366
717.073 554.217 336.016
717.073 566.265 219.316
717.073 734.94 60.3622
717.073 746.988 152.918
717.073 759.036 281.69
717.073 771.084 571.429
717.073 783.133 593.561
717.073 795.181 810.865
717.073 807.229 659.96
717.073 819.277 794.769
717.073 831.325 657.948
721.951 156.627 478.873
721.951 168.675 774.648
721.951 180.723 649.899
721.951 192.771 587.525
721.951 204.819 456.74
721.951 216.867 154.93
721.951 228.916 120.724
721.951 240.964 148.893
721.951 253.012 267.606
721.951 265.06 40.2414
721.951 409.639 10.0604
721.951 421.687 56.338
721.951 433.735 116.7
721.951 445.783 213.28
721.951 457.831 327.968
721.951 469.88 325.956
721.951 481.928 828.974
721.951 493.976 871.227
721.951 506.024 591.549
721.951 518.072 412.475
721.951 530.12 454.728
721.951 542.169 307.847
721.951 554.217 360.161
721.951 566.265 313.883
721.951 578.313 14.0845
721.951 722.892 12.0724
721.951 734.94 94.5674
721.951 746.988 181.087
721.951 759.036 422.535
721.951 771.084 595.573
721.951 783.133 605.634
721.951 795.181 690.141
721.951 807.229 591.549
721.951 819.277 794.769
721.951 831.325 490.946
726.829 156.627 641.851
726.829 168.675 694.165
726.829 180.723 649.899
726.829 192.771 559.356
726.829 204.819 396.378
726.829 216.867 227.364
726.829 228.916 124.748
726.829 240.964 195.171
726.829 253.012 247.485
726.829 265.06 74.4467
726.829 409.639 34.2052
726.829 421.687 60.3622
726.829 433.735 156.942
726.829 445.783 245.473
726.829 457.831 340.04
726.829 469.88 430.584
726.829 481.928 875.252
726.829 493.976 800.805
726.829 506.024 704.225
726.829 518.072 482.897
726.829 530.12 412.475
726.829 542.169 354.125
726.829 554.217 350.101
726.829 566.265 348.089
726.829 578.313 48.2897
726.829 722.892 14.0845
726.829 734.94 70.4225
726.829 746.988 209.256
726.829 759.036 571.429
726.829 771.084 559.356
726.829 783.133 563.38
726.829 795.181 655.936
726.829 807.229 742.455
726.829 819.277 794.769
726.829 831.325 490.946
731.707 156.627 641.851
731.707 168.675 553.32
731.707 180.723 583.501
731.707 192.771 486.922
731.707 204.819 541.247
731.707 216.867 251.509
731.707 228.916 156.942
731.707 240.964 195.171
731.707 253.012 241.449
731.707 265.06 124.748
731.707 409.639 66.3984
731.707 421.687 102.616
731.707 433.735 201.207
731.707 445.783 309.859
731.707 457.831 344.064
731.707 469.88 804.829
731.707 481.928 953.722
731.707 493.976 828.974
731.707 506.024 653.924
731.707 518.072 484.909
731.707 530.12 368.209
731.707 542.169 356.137
731.707 554.217 414.487
731.707 566.265 321.932
731.707 578.313 104.628
731.707 722.892 12.0724
731.707 734.94 128.773
731.707 746.988 259.557
731.707 759.036 581.489
731.707 771.084 412.475
731.707 783.133 575.453
731.707 795.181 768.612
731.707 807.229 744.467
731.707 819.277 796.781
736.585 156.627 641.851
736.585 168.675 647.887
736.585 180.723 649.899
736.585 192.771 587.525
736.585 204.819 515.091
736.585 216.867 265.594
736.585 228.916 197.183
736.585 240.964 160.966
736.585 253.012 189.135
736.585 265.06 189.135
736.585 409.639 108.652
736.585 421.687 112.676
736.585 433.735 291.751
736.585 445.783 321.932
736.585 457.831 344.064
736.585 469.88 830.986
736.585 481.928 923.541
736.585 493.976 490.946
736.585 506.024 645.875
736.585 518.072 484.909
736.585 530.12 400.402
736.585 542.169 376.258
736.585 554.217 350.101
736.585 566.265 329.98
736.585 578.313 173.038
736.585 710.843 10.0604
736.585 722.892 14.0845
736.585 734.94 128.773
736.585 746.988 334.004
736.585 759.036 619.718
736.585 771.084 388.33
736.585 783.133 718.31
736.585 795.181 706.237
736.585 807.229 490.946
736.585 819.277 744.467
741.463 156.627 641.851
741.463 168.675 641.851
741.463 180.723 682.093
741.463 192.771 541.247
741.463 204.819 597.586
741.463 216.867 249.497
741.463 228.916 197.183
741.463 240.964 148.893
741.463 253.012 191.147
741.463 265.06 183.099
741.463 409.639 138.833
741.463 421.687 132.797
741.463 433.735 352.113
741.463 445.783 309.859
741.463 457.831 559.356
741.463 469.88 917.505
741.463 481.928 851.107
741.463 493.976 482.897
741.463 506.024 317.907
741.463 518.072 484.909
741.463 530.12 438.632
741.463 542.169 360.161
741.463 554.217 376.258
741.463 566.265 329.98
741.463 578.313 227.364
741.463 710.843 12.0724
741.463 722.892 40.2414
741.463 734.94 181.087
741.463 746.988 344.064
741.463 759.036 593.561
741.463 771.084 454.728
741.463 783.133 839.034
741.463 795.181 561.368
741.463 807.229 390.342
741.463 819.277 744.467
746.341 156.627 641.851
746.341 168.675 641.851
746.341 180.723 682.093
746.341 192.771 541.247
746.341 204.819 633.803
746.341 216.867 273.642
746.341 228.916 162.978
746.341 240.964 189.135
746.341 253.012 167.002
746.341 265.06 211.268
746.341 409.639 130.785
746.341 421.687 313.883
746.341 433.735 362.173
746.341 445.783 241.449
746.341 457.831 541.247
746.341 469.88 941.65
746.341 481.928 651.911
746.341 493.976 482.897
746.341 506.024 315.895
746.341 518.072 380.282
746.341 530.12 543.26
746.341 542.169 386.318
746.341 554.217 368.209
746.341 566.265 285.714
746.341 578.313 384.306
746.341 722.892 38.2294
746.341 734.94 148.893
746.341 746.988 301.811
746.341 759.036 635.815
746.341 771.084 456.74
746.341 783.133 762.575
746.341 795.181 490.946
746.341 807.229 828.974
746.341 819.277 742.455
751.22 156.627 641.851
751.22 168.675 641.851
751.22 180.723 698.189
751.22 192.771 581.489
751.22 204.819 613.682
751.22 216.867 321.932
751.22 228.916 171.026
751.22 240.964 189.135
751.22 253.012 138.833
751.22 265.06 247.485
751.22 397.59 12.0724
751.22 409.639 98.5915
751.22 421.687 305.835
751.22 433.735 285.714
751.22 445.783 207.243
751.22 457.831 567.404
751.22 469.88 943.662
751.22 506.024 478.873
751.22 518.072 480.885
751.22 530.12 412.475
751.22 542.169 488.934
751.22 554.217 289.738
751.22 566.265 340.04
751.22 578.313 400.402
751.22 590.361 44.2656
751.22 722.892 42.2535
751.22 734.94 179.074
751.22 746.988 358.149
751.22 759.036 571.429
751.22 771.084 605.634
751.22 783.133 742.455
751.22 795.181 490.946
751.22 807.229 828.974
756.098 156.627 478.873
756.098 168.675 641.851
756.098 180.723 730.382
756.098 192.771 758.551
756.098 204.819 651.911
756.098 216.867 565.392
756.098 228.916 154.93
756.098 240.964 126.761
756.098 253.012 160.966
756.098 265.06 88.5312
756.098 277.108 175.05
756.098 397.59 12.0724
756.098 409.639 201.207
756.098 421.687 315.895
756.098 433.735 297.787
756.098 445.783 156.942
756.098 457.831 647.887
756.098 469.88 931.59
756.098 506.024 478.873
756.098 518.072 317.907
756.098 530.12 482.897
756.098 542.169 531.187
756.098 554.217 285.714
756.098 566.265 376.258
756.098 578.313 400.402
756.098 590.361 76.4588
756.098 722.892 46.2777
756.098 734.94 197.183
756.098 746.988 376.258
756.098 759.036 579.477
756.098 771.084 792.757
756.098 783.133 657.948
756.098 795.181 488.934
756.098 807.229 792.757
760.976 156.627 478.873
760.976 168.675 641.851
760.976 180.723 641.851
760.976 192.771 732.394
760.976 204.819 649.899
760.976 216.867 670.02
760.976 228.916 169.014
760.976 240.964 167.002
760.976 253.012 171.026
760.976 265.06 52.3139
760.976 277.108 205.231
760.976 385.542 10.0604
760.976 397.59 34.2052
760.976 409.639 193.159
760.976 421.687 267.606
760.976 433.735 249.497
760.976 445.783 189.135
760.976 457.831 867.203
760.976 469.88 873.239
760.976 518.072 649.899
760.976 530.12 486.922
760.976 542.169 577.465
760.976 554.217 241.449
760.976 566.265 398.39
760.976 578.313 362.173
760.976 590.361 267.606
760.976 722.892 48.2897
760.976 734.94 227.364
760.976 746.988 430.584
760.976 759.036 680.08
760.976 771.084 911.469
760.976 783.133 589.537
760.976 795.181 826.962
760.976 807.229 742.455
765.854 168.675 478.873
765.854 180.723 643.863
765.854 192.771 732.394
765.854 204.819 647.887
765.854 216.867 690.141
765.854 228.916 303.823
765.854 240.964 195.171
765.854 253.012 140.845
765.854 265.06 76.4588
765.854 277.108 193.159
765.854 385.542 10.0604
765.854 397.59 80.4829
765.854 409.639 205.231
765.854 421.687 263.581
765.854 433.735 231.388
765.854 445.783 402.414
765.854 457.831 961.771
765.854 469.88 766.6
765.854 518.072 649.899
765.854 530.12 486.922
765.854 542.169 492.958
765.854 554.217 241.449
765.854 566.265 424.547
765.854 578.313 183.099
765.854 590.361 416.499
765.854 722.892 50.3018
765.854 734.94 251.509
765.854 746.988 456.74
765.854 759.036 647.887
765.854 771.084 907.445
765.854 783.133 657.948
765.854 795.181 826.962
770.732 168.675 478.873
770.732 180.723 643.863
770.732 192.771 694.165
770.732 204.819 651.911
770.732 216.867 716.298
770.732 228.916 410.463
770.732 240.964 273.642
770.732 253.012 122.736
770.732 265.06 76.4588
770.732 277.108 193.159
770.732 373.494 10.0604
770.732 385.542 76.4588
770.732 397.59 100.604
770.732 409.639 189.135
770.732 421.687 315.895
770.732 433.735 255.533
770.732 445.783 670.02
770.732 457.831 949.698
770.732 530.12 792.757
770.732 542.169 541.247
770.732 554.217 386.318
770.732 566.265 384.306
770.732 578.313 177.062
770.732 590.361 406.439
770.732 722.892 124.748
770.732 734.94 279.678
770.732 746.988 476.861
770.732 759.036 533.199
770.732 771.084 682.093
770.732 783.133 794.769
770.732 795.181 826.962
775.61 180.723 643.863
775.61 192.771 647.887
775.61 204.819 756.539
775.61 216.867 696.177
775.61 228.916 410.463
775.61 240.964 348.089
775.61 253.012 92.5553
775.61 265.06 80.4829
775.61 277.108 187.123
775.61 373.494 12.0724
775.61 385.542 82.495
775.61 397.59 86.5191
775.61 409.639 191.147
775.61 421.687 287.726
775.61 433.735 315.895
775.61 445.783 800.805
775.61 457.831 895.372
775.61 530.12 738.431
775.61 542.169 633.803
775.61 554.217 410.463
775.61 566.265 344.064
775.61 578.313 177.062
775.61 590.361 426.559
775.61 722.892 142.857
775.61 734.94 307.847
775.61 746.988 492.958
775.61 759.036 448.692
775.61 771.084 561.368
775.61 783.133 617.706
775.61 795.181 794.769
780.488 180.723 724.346
780.488 192.771 647.887
780.488 204.819 728.37
780.488 216.867 585.513
780.488 228.916 462.777
780.488 240.964 372.233
780.488 253.012 90.5433
780.488 265.06 50.3018
780.488 277.108 185.111
780.488 361.446 12.0724
780.488 373.494 52.3139
780.488 385.542 96.5795
780.488 397.59 114.688
780.488 409.639 229.376
780.488 421.687 340.04
780.488 433.735 442.656
780.488 445.783 867.203
780.488 457.831 798.793
780.488 530.12 651.911
780.488 542.169 663.984
780.488 554.217 498.994
780.488 566.265 392.354
780.488 578.313 191.147
780.488 590.361 406.439
780.488 722.892 152.918
780.488 734.94 299.799
780.488 746.988 492.958
780.488 759.036 372.233
780.488 771.084 490.946
780.488 783.133 657.948
780.488 795.181 794.769
785.366 180.723 724.346
785.366 192.771 692.153
785.366 204.819 645.875
785.366 216.867 585.513
785.366 228.916 527.163
785.366 240.964 380.282
785.366 253.012 118.712
785.366 265.06 48.2897
785.366 277.108 169.014
785.366 289.157 14.0845
785.366 361.446 10.0604
785.366 373.494 56.338
785.366 385.542 82.495
785.366 397.59 140.845
785.366 409.639 338.028
785.366 421.687 432.596
785.366 433.735 760.563
785.366 445.783 951.71
785.366 457.831 670.02
785.366 530.12 482.897
785.366 542.169 776.66
785.366 554.217 470.825
785.366 566.265 416.499
785.366 578.313 185.111
785.366 590.361 408.451
785.366 722.892 148.893
785.366 734.94 293.763
785.366 746.988 398.39
785.366 759.036 366.197
785.366 771.084 490.946
785.366 783.133 657.948
785.366 795.181 794.769
790.244 168.675 637.827
790.244 180.723 724.346
790.244 192.771 603.622
790.244 204.819 581.489
790.244 216.867 585.513
790.244 228.916 543.26
790.244 240.964 189.135
790.244 253.012 50.3018
790.244 265.06 44.2656
790.244 277.108 136.821
790.244 289.157 40.2414
790.244 373.494 54.326
790.244 385.542 104.628
790.244 397.59 181.087
790.244 409.639 362.173
790.244 421.687 464.789
790.244 433.735 782.696
790.244 445.783 893.36
790.244 542.169 855.131
790.244 554.217 603.622
790.244 566.265 408.451
790.244 578.313 243.461
790.244 590.361 398.39
790.244 602.41 16.0966
790.244 710.843 40.2414
790.244 722.892 148.893
790.244 734.94 283.702
790.244 746.988 313.883
790.244 759.036 420.523
790.244 771.084 561.368
790.244 783.133 812.877
790.244 795.181 792.757
795.122 168.675 637.827
795.122 180.723 577.465
795.122 192.771 694.165
795.122 204.819 607.646
795.122 216.867 611.67
795.122 228.916 525.151
795.122 240.964 144.869
795.122 253.012 46.2777
795.122 265.06 46.2777
795.122 277.108 162.978
795.122 289.157 94.5674
795.122 373.494 10.0604
795.122 385.542 84.507
795.122 397.59 235.412
795.122 409.639 468.813
795.122 421.687 597.586
795.122 433.735 798.793
795.122 445.783 861.167
795.122 542.169 742.455
795.122 554.217 822.938
795.122 566.265 505.03
795.122 578.313 281.69
795.122 590.361 372.233
795.122 602.41 68.4105
795.122 710.843 42.2535
795.122 722.892 70.4225
795.122 734.94 293.763
795.122 746.988 334.004
795.122 759.036 492.958
795.122 771.084 490.946
795.122 783.133 893.36
795.122 795.181 657.948
800 168.675 637.827
800 180.723 577.465
800 192.771 647.887
800 204.819 698.189
800 216.867 589.537
800 228.916 545.272
800 240.964 132.797
800 253.012 80.4829
800 265.06 54.326
800 277.108 191.147
800 289.157 70.4225
800 385.542 54.326
800 397.59 167.002
800 409.639 412.475
800 421.687 672.032
800 433.735 820.926
800 445.783 837.022
800 542.169 744.467
800 554.217 732.394
800 566.265 643.863
800 578.313 269.618
800 590.361 327.968
800 602.41 104.628
800 710.843 50.3018
800 722.892 46.2777
800 734.94 245.473
800 746.988 366.197
800 759.036 561.368
800 771.084 452.716
800 783.133 893.36
800 795.181 653.924
804.878 168.675 637.827
804.878 180.723 476.861
804.878 192.771 647.887
804.878 204.819 698.189
804.878 216.867 631.791
804.878 228.916 545.272
804.878 240.964 126.761
804.878 253.012 56.338
804.878 265.06 60.3622
804.878 277.108 185.111
804.878 289.157 12.0724
804.878 385.542 34.2052
804.878 397.59 124.748
804.878 409.639 426.559
804.878 421.687 661.972
804.878 433.735 867.203
804.878 445.783 802.817
804.878 542.169 800.805
804.878 554.217 774.648
804.878 566.265 579.477
804.878 578.313 211.268
804.878 590.361 392.354
804.878 602.41 148.893
804.878 710.843 40.2414
804.878 722.892 70.4225
804.878 734.94 229.376
804.878 746.988 331.992
804.878 759.036 579.477
804.878 771.084 607.646
804.878 783.133 883.3
804.878 795.181 653.924
809.756 168.675 637.827
809.756 180.723 311.871
809.756 192.771 694.165
809.756 204.819 647.887
809.756 216.867 653.924
809.756 228.916 468.813
809.756 240.964 205.231
809.756 253.012 156.942
809.756 265.06 211.268
809.756 277.108 203.219
809.756 289.157 16.0966
809.756 397.59 114.688
809.756 409.639 346.076
809.756 421.687 434.608
809.756 433.735 861.167
809.756 445.783 893.36
809.756 542.169 802.817
809.756 554.217 672.032
809.756 566.265 440.644
809.756 578.313 193.159
809.756 590.361 420.523
809.756 602.41 173.038
809.756 710.843 10.0604
809.756 722.892 84.507
809.756 734.94 134.809
809.756 746.988 352.113
809.756 759.036 513.078
809.756 771.084 661.972
809.756 783.133 869.215
809.756 795.181 653.924
814.634 168.675 472.837
814.634 180.723 637.827
814.634 192.771 577.465
814.634 204.819 553.32
814.634 216.867 702.213
814.634 228.916 398.39
814.634 240.964 281.69
814.634 253.012 124.748
814.634 265.06 205.231
814.634 277.108 74.4467
814.634 397.59 78.4708
814.634 409.639 257.545
814.634 421.687 452.716
814.634 433.735 692.153
814.634 445.783 935.614
814.634 542.169 919.517
814.634 554.217 674.044
814.634 566.265 394.366
814.634 578.313 185.111
814.634 590.361 362.173
814.634 602.41 154.93
814.634 722.892 78.4708
814.634 734.94 86.5191
814.634 746.988 293.763
814.634 759.036 476.861
814.634 771.084 682.093
814.634 783.133 885.312
814.634 795.181 482.897
819.512 180.723 637.827
819.512 192.771 577.465
819.512 204.819 555.332
819.512 216.867 653.924
819.512 228.916 358.149
819.512 240.964 418.511
819.512 253.012 233.4
819.512 265.06 207.243
819.512 277.108 20.1207
819.512 397.59 54.326
819.512 409.639 221.328
819.512 421.687 410.463
819.512 433.735 627.767
819.512 445.783 945.674
819.512 530.12 758.551
819.512 542.169 927.565
819.512 554.217 384.306
819.512 566.265 458.753
819.512 578.313 225.352
819.512 590.361 370.221
819.512 602.41 130.785
819.512 722.892 82.495
819.512 734.94 80.4829
819.512 746.988 187.123
819.512 759.036 410.463
819.512 771.084 682.093
819.512 783.133 905.433
819.512 795.181 482.897
824.39 180.723 472.837
824.39 192.771 724.346
824.39 204.819 555.332
824.39 216.867 651.911
824.39 228.916 462.777
824.39 240.964 350.101
824.39 253.012 241.449
824.39 265.06 245.473
824.39 277.108 16.0966
824.39 397.59 32.1932
824.39 409.639 219.316
824.39 421.687 420.523
824.39 433.735 599.598
824.39 445.783 947.686
824.39 530.12 758.551
824.39 542.169 672.032
824.39 554.217 283.702
824.39 566.265 462.777
824.39 578.313 235.412
824.39 590.361 396.378
824.39 602.41 110.664
824.39 722.892 78.4708
824.39 734.94 82.495
824.39 746.988 154.93
824.39 759.036 410.463
824.39 771.084 700.201
824.39 783.133 895.372
824.39 795.181 482.897
829.268 192.771 472.837
829.268 204.819 776.66
829.268 216.867 611.67
829.268 228.916 601.61
829.268 240.964 325.956
829.268 253.012 263.581
829.268 265.06 269.618
829.268 277.108 18.1087
829.268 397.59 66.3984
829.268 409.639 261.569
829.268 421.687 414.487
829.268 433.735 728.37
829.268 445.783 949.698
829.268 530.12 810.865
829.268 542.169 643.863
829.268 554.217 283.702
829.268 566.265 482.897
829.268 578.313 227.364
829.268 590.361 402.414
829.268 602.41 64.3863
829.268 722.892 84.507
829.268 734.94 142.857
829.268 746.988 183.099
829.268 759.036 597.586
829.268 771.084 738.431
829.268 783.133 885.312
829.268 795.181 486.922
834.146 204.819 728.37
834.146 216.867 736.419
834.146 228.916 579.477
834.146 240.964 283.702
834.146 253.012 281.69
834.146 265.06 319.92
834.146 277.108 74.4467
834.146 397.59 100.604
834.146 409.639 217.304
834.146 421.687 420.523
834.146 433.735 754.527
834.146 445.783 941.65
834.146 530.12 849.095
834.146 542.169 551.308
834.146 554.217 376.258
834.146 566.265 507.042
834.146 578.313 247.485
834.146 590.361 382.294
834.146 602.41 90.5433
834.146 722.892 90.5433
834.146 734.94 189.135
834.146 746.988 225.352
834.146 759.036 643.863
834.146 771.084 692.153
834.146 783.133 885.312
834.146 795.181 486.922
839.024 204.819 728.37
839.024 216.867 585.513
839.024 228.916 617.706
839.024 240.964 325.956
839.024 253.012 301.811
839.024 265.06 275.654
839.024 277.108 251.509
839.024 397.59 120.724
839.024 409.639 219.316
839.024 421.687 382.294
839.024 433.735 621.73
839.024 445.783 947.686
839.024 530.12 816.901
839.024 542.169 645.875
839.024 554.217 509.054
839.024 566.265 446.68
839.024 578.313 247.485
839.024 590.361 382.294
839.024 602.41 88.5312
839.024 722.892 154.93
839.024 734.94 205.231
839.024 746.988 295.775
839.024 759.036 611.67
839.024 771.084 818.913
839.024 783.133 873.239
839.024 795.181 486.922
843.902 204.819 728.37
843.902 216.867 585.513
843.902 228.916 607.646
843.902 240.964 416.499
843.902 253.012 338.028
843.902 265.06 261.569
843.902 277.108 319.92
843.902 397.59 118.712
843.902 409.639 219.316
843.902 421.687 394.366
843.902 433.735 649.899
843.902 445.783 949.698
843.902 457.831 517.103
843.902 530.12 853.119
843.902 542.169 766.6
843.902 554.217 601.61
843.902 566.265 295.775
843.902 578.313 346.076
843.902 590.361 338.028
843.902 602.41 38.2294
843.902 722.892 144.869
843.902 734.94 241.449
843.902 746.988 543.26
843.902 759.036 599.598
843.902 771.084 800.805
843.902 783.133 828.974
843.902 795.181 486.922
848.78 204.819 730.382
848.78 216.867 486.922
848.78 228.916 494.97
848.78 240.964 557.344
848.78 253.012 400.402
848.78 265.06 213.28
848.78 277.108 313.883
848.78 289.157 12.0724
848.78 397.59 108.652
848.78 409.639 207.243
848.78 421.687 422.535
848.78 433.735 712.274
848.78 445.783 941.65
848.78 457.831 843.058
848.78 530.12 766.6
848.78 542.169 788.732
848.78 554.217 581.489
848.78 566.265 239.437
848.78 578.313 356.137
848.78 590.361 215.292
848.78 722.892 189.135
848.78 734.94 239.437
848.78 746.988 613.682
848.78 759.036 609.658
848.78 771.084 800.805
848.78 783.133 830.986
848.78 795.181 486.922
853.659 204.819 478.873
853.659 216.867 738.431
853.659 228.916 595.573
853.659 240.964 492.958
853.659 253.012 474.849
853.659 265.06 213.28
853.659 277.108 287.726
853.659 289.157 62.3742
853.659 301.205 10.0604
853.659 397.59 60.3622
853.659 409.639 205.231
853.659 421.687 376.258
853.659 433.735 738.431
853.659 445.783 752.515
853.659 457.831 845.07
853.659 530.12 680.08
853.659 542.169 941.65
853.659 554.217 511.066
853.659 566.265 321.932
853.659 578.313 374.245
853.659 590.361 195.171
853.659 710.843 22.1328
853.659 722.892 203.219
853.659 734.94 313.883
853.659 746.988 615.694
853.659 759.036 529.175
853.659 771.084 877.264
853.659 783.133 830.986
853.659 795.181 490.946
858.537 216.867 786.72
858.537 228.916 551.308
858.537 240.964 408.451
858.537 253.012 547.284
858.537 265.06 313.883
858.537 277.108 289.738
858.537 289.157 162.978
858.537 301.205 14.0845
858.537 313.253 16.0966
858.537 397.59 38.2294
858.537 409.639 199.195
858.537 421.687 354.125
858.537 433.735 710.262
858.537 445.783 897.384
858.537 457.831 845.07
858.537 530.12 680.08
858.537 542.169 935.614
858.537 554.217 581.489
858.537 566.265 402.414
858.537 578.313 366.197
858.537 590.361 134.809
858.537 710.843 26.1569
858.537 722.892 175.05
858.537 734.94 416.499
858.537 746.988 635.815
858.537 759.036 710.262
858.537 771.084 891.348
858.537 783.133 744.467
858.537 795.181 490.946
863.415 216.867 655.936
863.415 228.916 742.455
863.415 240.964 579.477
863.415 253.012 569.416
863.415 265.06 515.091
863.415 277.108 128.773
863.415 289.157 295.775
863.415 301.205 46.2777
863.415 313.253 12.0724
863.415 397.59 36.2173
863.415 409.639 199.195
863.415 421.687 245.473
863.415 433.735 525.151
863.415 445.783 923.541
863.415 457.831 847.082
863.415 530.12 680.08
863.415 542.169 899.396
863.415 554.217 651.911
863.415 566.265 315.895
863.415 578.313 460.765
863.415 590.361 150.905
863.415 710.843 24.1449
863.415 722.892 154.93
863.415 734.94 513.078
863.415 746.988 587.525
863.415 759.036 754.527
863.415 771.084 832.998
863.415 783.133 657.948
863.415 795.181 490.946
868.293 216.867 488.934
868.293 228.916 742.455
868.293 240.964 579.477
868.293 253.012 561.368
868.293 265.06 496.982
868.293 277.108 144.869
868.293 289.157 291.751
868.293 301.205 104.628
868.293 313.253 10.0604
868.293 385.542 8.04829
868.293 397.59 60.3622
868.293 409.639 189.135
868.293 421.687 199.195
868.293 433.735 412.475
868.293 445.783 941.65
868.293 457.831 792.757
868.293 530.12 505.03
868.293 542.169 845.07
868.293 554.217 651.911
868.293 566.265 193.159
868.293 578.313 619.718
868.293 590.361 215.292
868.293 602.41 20.1207
868.293 614.458 18.1087
868.293 626.506 12.0724
868.293 710.843 50.3018
868.293 722.892 191.147
868.293 734.94 541.247
868.293 746.988 609.658
868.293 759.036 863.179
868.293 771.084 798.793
868.293 783.133 490.946
868.293 795.181 490.946
873.171 216.867 490.946
873.171 228.916 488.934
873.171 240.964 420.523
873.171 253.012 736.419
873.171 265.06 496.982
873.171 277.108 273.642
873.171 289.157 237.425
873.171 301.205 199.195
873.171 313.253 10.0604
873.171 385.542 32.1932
873.171 397.59 58.3501
873.171 409.639 160.966
873.171 421.687 229.376
873.171 433.735 336.016
873.171 445.783 951.71
873.171 457.831 845.07
873.171 530.12 505.03
873.171 542.169 865.191
873.171 554.217 573.441
873.171 566.265 106.64
873.171 578.313 547.284
873.171 590.361 376.258
873.171 602.41 100.604
873.171 614.458 20.1207
873.171 626.506 14.0845
873.171 638.554 10.0604
873.171 650.602 10.0604
873.171 698.795 14.0845
873.171 710.843 48.2897
873.171 722.892 484.909
873.171 734.94 690.141
873.171 746.988 824.95
873.171 759.036 839.034
873.171 771.084 659.96
873.171 783.133 492.958
878.049 216.867 490.946
878.049 228.916 659.96
878.049 240.964 494.97
878.049 253.012 718.31
878.049 265.06 591.549
878.049 277.108 221.328
878.049 289.157 275.654
878.049 301.205 225.352
878.049 373.494 30.1811
878.049 385.542 54.326
878.049 397.59 34.2052
878.049 409.639 128.773
878.049 421.687 279.678
878.049 433.735 394.366
878.049 445.783 909.457
878.049 457.831 792.757
878.049 530.12 507.042
878.049 542.169 867.203
878.049 554.217 515.091
878.049 566.265 247.485
878.049 578.313 553.32
878.049 590.361 406.439
878.049 602.41 110.664
878.049 614.458 48.2897
878.049 626.506 14.0845
878.049 638.554 10.0604
878.049 650.602 12.0724
878.049 698.795 10.0604
878.049 710.843 42.2535
878.049 722.892 567.404
878.049 734.94 670.02
878.049 746.988 893.36
878.049 759.036 804.829
878.049 771.084 496.982
878.049 783.133 494.97
882.927 228.916 659.96
882.927 240.964 567.404
882.927 253.012 420.523
882.927 265.06 778.672
882.927 277.108 265.594
882.927 289.157 331.992
882.927 301.205 199.195
882.927 361.446 10.0604
882.927 373.494 56.338
882.927 385.542 60.3622
882.927 397.59 58.3501
882.927 409.639 132.797
882.927 421.687 410.463
882.927 433.735 657.948
882.927 445.783 997.988
882.927 457.831 702.213
882.927 530.12 688.129
882.927 542.169 883.3
882.927 554.217 551.308
882.927 566.265 336.016
882.927 578.313 498.994
882.927 590.361 458.753
882.927 602.41 76.4588
882.927 614.458 34.2052
882.927 626.506 14.0845
882.927 638.554 12.0724
882.927 698.795 38.2294
882.927 710.843 128.773
882.927 722.892 670.02
882.927 734.94 808.853
882.927 746.988 841.046
882.927 759.036 498.994
882.927 771.084 496.982
882.927 783.133 496.982
887.805 240.964 748.491
887.805 253.012 498.994
887.805 265.06 804.829
887.805 277.108 299.799
887.805 289.157 285.714
887.805 301.205 158.954
887.805 313.253 16.0966
887.805 349.398 10.0604
887.805 361.446 12.0724
887.805 373.494 58.3501
887.805 385.542 32.1932
887.805 397.59 62.3742
887.805 409.639 102.616
887.805 421.687 428.571
887.805 433.735 881.288
887.805 445.783 979.879
887.805 457.831 702.213
887.805 530.12 692.153
887.805 542.169 820.926
887.805 554.217 422.535
887.805 566.265 235.412
887.805 578.313 579.477
887.805 590.361 384.306
887.805 602.41 14.0845
887.805 698.795 38.2294
887.805 710.843 243.461
887.805 722.892 607.646
887.805 734.94 915.493
887.805 746.988 867.203
887.805 759.036 501.006
887.805 771.084 498.994
887.805 783.133 496.982
892.683 240.964 748.491
892.683 253.012 498.994
892.683 265.06 665.996
892.683 277.108 519.115
892.683 289.157 309.859
892.683 301.205 225.352
892.683 313.253 16.0966
892.683 349.398 52.3139
892.683 361.446 56.338
892.683 373.494 34.2052
892.683 385.542 10.0604
892.683 397.59 44.2656
892.683 409.639 110.664
892.683 421.687 410.463
892.683 433.735 919.517
892.683 445.783 881.288
892.683 457.831 525.151
892.683 530.12 692.153
892.683 542.169 822.938
892.683 554.217 478.873
892.683 566.265 279.678
892.683 578.313 657.948
892.683 590.361 338.028
892.683 602.41 12.0724
892.683 698.795 50.3018
892.683 710.843 319.92
892.683 722.892 764.588
892.683 734.94 915.493
892.683 746.988 754.527
892.683 759.036 501.006
892.683 771.084 501.006
897.561 240.964 665.996
897.561 253.012 629.779
897.561 265.06 450.704
897.561 277.108 583.501
897.561 289.157 388.33
897.561 301.205 287.726
897.561 313.253 42.2535
897.561 361.446 54.326
897.561 373.494 12.0724
897.561 385.542 12.0724
897.561 397.59 40.2414
897.561 409.639 56.338
897.561 421.687 498.994
897.561 433.735 951.71
897.561 445.783 792.757
897.561 530.12 517.103
897.561 542.169 887.324
897.561 554.217 438.632
897.561 566.265 360.161
897.561 578.313 577.465
897.561 590.361 237.425
897.561 602.41 12.0724
897.561 698.795 52.3139
897.561 710.843 424.547
897.561 722.892 835.01
897.561 734.94 824.95
897.561 746.988 674.044
897.561 759.036 501.006
897.561 771.084 501.006
902.439 240.964 670.02
902.439 253.012 760.563
902.439 265.06 601.61
902.439 277.108 547.284
902.439 289.157 458.753
902.439 301.205 265.594
902.439 313.253 34.2052
902.439 361.446 10.0604
902.439 373.494 34.2052
902.439 385.542 12.0724
902.439 397.59 36.2173
902.439 409.639 48.2897
902.439 421.687 543.26
902.439 433.735 937.626
