497.835 662.447 867.089
497.835 666.667 841.772
497.835 670.886 202.532
497.835 675.105 848.101
497.835 679.325 848.101
497.835 683.544 88.6076
497.835 687.764 854.43
497.835 696.203 873.418
497.835 700.422 37.9747
497.835 704.641 867.089
497.835 708.861 873.418
497.835 713.08 31.6456
497.835 717.3 879.747
497.835 721.519 911.392
497.835 725.738 37.9747
497.835 729.958 911.392
497.835 734.177 917.722
497.835 738.397 107.595
497.835 742.616 917.722
497.835 751.055 936.709
497.835 755.274 44.3038
497.835 759.494 930.38
497.835 763.713 949.367
497.835 767.932 12.6582
497.835 772.152 949.367
497.835 780.591 943.038
497.835 784.81 259.494
497.835 789.03 936.709
497.835 793.249 911.392
497.835 797.468 373.418
497.835 801.688 930.38
497.835 810.127 955.696
497.835 814.346 63.2911
497.835 818.565 955.696
497.835 827.004 981.013
497.835 831.224 75.9494
497.835 835.443 974.684
497.835 839.662 955.696
497.835 843.882 139.241
497.835 848.101 949.367
497.835 856.54 949.367
497.835 860.759 44.3038
497.835 864.979 949.367
497.835 873.418 962.025
497.835 877.637 75.9494
497.835 881.857 955.696
497.835 957.806 455.696
497.835 962.025 455.696
497.835 966.245 455.696
497.835 974.684 455.696
497.835 978.903 455.696
497.835 983.122 455.696
497.835 991.561 462.025
497.835 995.781 462.025
497.835 1000 462.025
502.165 0 468.354
502.165 4.21941 468.354
502.165 8.43882 468.354
502.165 16.8776 481.013
502.165 21.097 481.013
502.165 25.3165 481.013
502.165 37.9747 481.013
502.165 42.1941 481.013
502.165 46.4135 481.013
502.165 151.899 575.949
502.165 156.118 575.949
502.165 160.338 569.62
502.165 164.557 569.62
502.165 168.776 569.62
502.165 172.996 569.62
502.165 177.215 563.291
502.165 181.435 556.962
502.165 185.654 556.962
502.165 189.873 550.633
502.165 194.093 550.633
502.165 198.312 544.304
502.165 202.532 544.304
502.165 206.751 544.304
502.165 227.848 506.329
502.165 261.603 354.43
502.165 265.823 354.43
502.165 270.042 373.418
502.165 274.262 379.747
502.165 278.481 379.747
502.165 282.7 386.076
502.165 286.92 386.076
502.165 291.139 386.076
502.165 295.359 386.076
502.165 299.578 392.405
502.165 303.797 405.063
502.165 308.017 405.063
502.165 312.236 411.392
502.165 316.456 417.722
502.165 320.675 417.722
502.165 324.895 417.722
502.165 329.114 417.722
502.165 333.333 424.051
502.165 337.553 430.38
502.165 341.772 430.38
502.165 345.992 430.38
502.165 350.211 436.709
502.165 354.43 436.709
502.165 358.65 436.709
502.165 362.869 607.595
502.165 367.089 436.709
502.165 371.308 620.253
502.165 375.527 284.81
502.165 379.747 702.532
502.165 383.966 278.481
502.165 388.186 734.177
502.165 392.405 721.519
502.165 396.624 234.177
502.165 400.844 784.81
502.165 405.063 348.101
502.165 409.283 797.468
502.165 413.502 341.772
502.165 417.722 816.456
502.165 421.941 822.785
502.165 426.16 221.519
502.165 430.38 810.127
502.165 434.599 303.797
502.165 438.819 784.81
502.165 443.038 753.165
502.165 447.257 246.835
502.165 451.477 791.139
502.165 455.696 82.2785
502.165 459.916 835.443
502.165 464.135 848.101
502.165 468.354 82.2785
502.165 472.574 810.127
502.165 476.793 215.19
502.165 481.013 772.152
502.165 485.232 721.519
502.165 489.451 240.506
502.165 493.671 734.177
502.165 497.89 746.835
502.165 502.11 107.595
502.165 506.329 727.848
502.165 510.549 139.241
502.165 514.768 696.203
502.165 518.987 689.873
502.165 523.207 278.481
502.165 527.426 677.215
502.165 531.646 740.506
502.165 535.865 246.835
502.165 540.084 727.848
502.165 544.304 196.203
502.165 548.523 753.165
502.165 552.743 759.494
502.165 556.962 170.886
502.165 561.181 759.494
502.165 565.401 765.823
502.165 569.62 170.886
502.165 573.84 759.494
502.165 578.059 772.152
502.165 582.278 329.114
502.165 586.498 772.152
502.165 590.717 816.456
502.165 594.937 132.911
502.165 599.156 816.456
502.165 603.376 822.785
502.165 607.595 151.899
502.165 611.814 816.456
502.165 616.034 816.456
502.165 620.253 246.835
502.165 624.473 816.456
502.165 628.692 829.114
502.165 632.911 202.532
502.165 637.131 822.785
502.165 641.35 841.772
502.165 645.57 82.2785
502.165 649.789 841.772
502.165 654.008 867.089
502.165 658.228 101.266
502.165 662.447 867.089
502.165 666.667 841.772
502.165 670.886 170.886
502.165 675.105 841.772
502.165 679.325 848.101
502.165 683.544 101.266
502.165 687.764 848.101
502.165 696.203 873.418
502.165 700.422 37.9747
502.165 704.641 867.089
502.165 708.861 873.418
502.165 713.08 37.9747
502.165 717.3 873.418
502.165 721.519 905.063
502.165 725.738 88.6076
502.165 729.958 911.392
502.165 734.177 917.722
502.165 738.397 75.9494
502.165 742.616 917.722
502.165 751.055 936.709
502.165 755.274 0
502.165 759.494 936.709
502.165 763.713 949.367
502.165 767.932 18.9873
502.165 772.152 949.367
502.165 780.591 943.038
502.165 784.81 234.177
502.165 789.03 949.367
502.165 793.249 911.392
502.165 797.468 322.785
502.165 801.688 924.051
502.165 810.127 955.696
502.165 814.346 63.2911
502.165 818.565 955.696
502.165 827.004 987.342
502.165 831.224 69.6203
502.165 835.443 981.013
502.165 839.662 949.367
502.165 843.882 158.228
502.165 848.101 955.696
502.165 856.54 949.367
502.165 860.759 63.2911
502.165 864.979 949.367
502.165 873.418 936.709
502.165 877.637 284.81
502.165 881.857 962.025
502.165 966.245 455.696
502.165 974.684 455.696
502.165 978.903 455.696
502.165 983.122 455.696
502.165 991.561 455.696
502.165 995.781 455.696
502.165 1000 462.025
506.494 0 462.025
506.494 4.21941 462.025
506.494 8.43882 468.354
506.494 16.8776 474.684
506.494 21.097 474.684
506.494 25.3165 481.013
506.494 37.9747 481.013
506.494 42.1941 481.013
506.494 46.4135 481.013
506.494 151.899 575.949
506.494 156.118 575.949
506.494 160.338 569.62
506.494 164.557 569.62
506.494 168.776 569.62
506.494 172.996 569.62
506.494 177.215 563.291
506.494 181.435 550.633
506.494 185.654 556.962
506.494 189.873 550.633
506.494 194.093 550.633
506.494 198.312 550.633
506.494 206.751 544.304
506.494 261.603 354.43
506.494 265.823 354.43
506.494 270.042 367.089
506.494 274.262 379.747
506.494 278.481 379.747
506.494 282.7 386.076
506.494 286.92 386.076
506.494 291.139 386.076
506.494 295.359 386.076
506.494 299.578 392.405
506.494 303.797 405.063
506.494 308.017 405.063
506.494 312.236 411.392
506.494 316.456 411.392
506.494 320.675 411.392
506.494 324.895 417.722
506.494 329.114 417.722
506.494 333.333 424.051
506.494 337.553 424.051
506.494 341.772 430.38
506.494 345.992 430.38
506.494 350.211 430.38
506.494 362.869 607.595
506.494 367.089 443.038
506.494 371.308 443.038
506.494 375.527 449.367
506.494 379.747 727.848
506.494 383.966 278.481
506.494 388.186 734.177
506.494 392.405 708.861
506.494 396.624 360.759
506.494 400.844 772.152
506.494 405.063 398.734
506.494 409.283 797.468
506.494 413.502 341.772
506.494 417.722 816.456
506.494 421.941 822.785
506.494 426.16 189.873
506.494 430.38 810.127
506.494 434.599 221.519
506.494 438.819 778.481
506.494 443.038 784.81
506.494 447.257 253.165
506.494 451.477 816.456
506.494 455.696 88.6076
506.494 459.916 835.443
506.494 464.135 841.772
506.494 468.354 94.9367
506.494 472.574 803.797
506.494 476.793 158.228
506.494 481.013 753.165
506.494 485.232 715.19
506.494 489.451 183.544
506.494 493.671 734.177
506.494 497.89 746.835
506.494 502.11 120.253
506.494 506.329 753.165
506.494 510.549 183.544
506.494 514.768 727.848
506.494 518.987 727.848
506.494 523.207 322.785
506.494 527.426 689.873
506.494 531.646 753.165
506.494 535.865 367.089
506.494 540.084 746.835
506.494 544.304 196.203
506.494 548.523 753.165
506.494 552.743 759.494
506.494 556.962 170.886
506.494 561.181 759.494
506.494 565.401 746.835
506.494 569.62 297.468
506.494 573.84 765.823
506.494 578.059 778.481
506.494 582.278 151.899
506.494 586.498 772.152
506.494 590.717 816.456
506.494 594.937 132.911
506.494 599.156 816.456
506.494 603.376 822.785
506.494 607.595 170.886
506.494 611.814 822.785
506.494 616.034 816.456
506.494 620.253 170.886
506.494 624.473 816.456
506.494 628.692 829.114
506.494 632.911 170.886
506.494 637.131 829.114
506.494 641.35 829.114
506.494 645.57 88.6076
506.494 649.789 841.772
506.494 654.008 867.089
506.494 658.228 101.266
506.494 662.447 867.089
506.494 666.667 848.101
506.494 670.886 101.266
506.494 675.105 841.772
506.494 679.325 835.443
506.494 683.544 139.241
506.494 687.764 835.443
506.494 696.203 879.747
506.494 700.422 44.3038
506.494 704.641 873.418
506.494 708.861 873.418
506.494 713.08 37.9747
506.494 717.3 873.418
506.494 721.519 898.734
506.494 725.738 37.9747
506.494 729.958 905.063
506.494 734.177 911.392
506.494 738.397 75.9494
506.494 742.616 911.392
506.494 751.055 930.38
506.494 755.274 0
506.494 759.494 936.709
506.494 763.713 949.367
506.494 767.932 18.9873
506.494 772.152 949.367
506.494 780.591 943.038
506.494 784.81 151.899
506.494 789.03 949.367
506.494 793.249 917.722
506.494 797.468 215.19
506.494 801.688 924.051
506.494 810.127 949.367
506.494 814.346 6.32911
506.494 818.565 955.696
506.494 827.004 993.671
506.494 831.224 132.911
506.494 835.443 987.342
506.494 839.662 949.367
506.494 843.882 63.2911
506.494 848.101 949.367
506.494 856.54 949.367
506.494 860.759 63.2911
506.494 864.979 949.367
506.494 873.418 924.051
506.494 877.637 392.405
506.494 881.857 943.038
506.494 983.122 455.696
506.494 991.561 455.696
506.494 995.781 455.696
506.494 1000 455.696
510.823 0 462.025
510.823 4.21941 462.025
510.823 8.43882 462.025
510.823 16.8776 468.354
510.823 21.097 468.354
510.823 25.3165 474.684
510.823 37.9747 481.013
510.823 42.1941 481.013
510.823 46.4135 481.013
510.823 54.8523 487.342
510.823 59.0717 487.342
510.823 63.2911 487.342
510.823 160.338 569.62
510.823 164.557 569.62
510.823 168.776 569.62
510.823 172.996 563.291
510.823 177.215 563.291
510.823 181.435 550.633
510.823 185.654 556.962
510.823 189.873 550.633
510.823 198.312 550.633
510.823 261.603 360.759
510.823 265.823 360.759
510.823 270.042 360.759
510.823 274.262 379.747
510.823 278.481 379.747
510.823 282.7 386.076
510.823 286.92 386.076
510.823 291.139 392.405
510.823 295.359 392.405
510.823 299.578 392.405
510.823 303.797 398.734
510.823 308.017 405.063
510.823 312.236 405.063
510.823 316.456 411.392
510.823 320.675 411.392
510.823 324.895 411.392
510.823 333.333 417.722
510.823 341.772 424.051
510.823 350.211 430.38
510.823 354.43 430.38
510.823 358.65 430.38
510.823 362.869 436.709
510.823 367.089 443.038
510.823 371.308 443.038
510.823 375.527 455.696
510.823 379.747 670.886
510.823 383.966 436.709
510.823 388.186 727.848
510.823 392.405 708.861
510.823 396.624 284.81
510.823 400.844 734.177
510.823 405.063 234.177
510.823 409.283 797.468
510.823 413.502 341.772
510.823 417.722 816.456
510.823 421.941 816.456
510.823 426.16 253.165
510.823 430.38 810.127
510.823 434.599 234.177
510.823 438.819 765.823
510.823 443.038 797.468
510.823 447.257 272.152
510.823 451.477 822.785
510.823 455.696 75.9494
510.823 459.916 848.101
510.823 464.135 841.772
510.823 468.354 44.3038
510.823 472.574 810.127
510.823 476.793 189.873
510.823 481.013 727.848
510.823 485.232 746.835
510.823 489.451 107.595
510.823 493.671 727.848
510.823 497.89 753.165
510.823 502.11 221.519
510.823 506.329 753.165
510.823 510.549 183.544
510.823 514.768 734.177
510.823 518.987 740.506
510.823 523.207 367.089
510.823 527.426 721.519
510.823 531.646 753.165
510.823 535.865 284.81
510.823 540.084 759.494
510.823 544.304 196.203
510.823 548.523 753.165
510.823 552.743 759.494
510.823 556.962 170.886
510.823 561.181 759.494
510.823 565.401 753.165
510.823 569.62 329.114
510.823 573.84 746.835
510.823 578.059 791.139
510.823 582.278 253.165
510.823 586.498 778.481
510.823 590.717 816.456
510.823 594.937 132.911
510.823 599.156 816.456
510.823 603.376 822.785
510.823 607.595 151.899
510.823 611.814 822.785
510.823 616.034 816.456
510.823 620.253 189.873
510.823 624.473 816.456
510.823 628.692 829.114
510.823 632.911 189.873
510.823 637.131 829.114
510.823 641.35 835.443
510.823 645.57 94.9367
510.823 649.789 835.443
510.823 654.008 854.43
510.823 658.228 151.899
510.823 662.447 854.43
510.823 666.667 848.101
510.823 670.886 158.228
510.823 675.105 848.101
510.823 679.325 829.114
510.823 683.544 196.203
510.823 687.764 841.772
510.823 696.203 854.43
510.823 700.422 107.595
510.823 704.641 860.759
510.823 708.861 873.418
510.823 713.08 37.9747
510.823 717.3 873.418
510.823 721.519 873.418
510.823 725.738 120.253
510.823 729.958 886.076
510.823 734.177 911.392
510.823 738.397 37.9747
510.823 742.616 911.392
510.823 751.055 930.38
510.823 759.494 930.38
510.823 763.713 949.367
510.823 767.932 25.3165
510.823 772.152 949.367
510.823 780.591 936.709
510.823 784.81 113.924
510.823 789.03 943.038
510.823 793.249 930.38
510.823 797.468 265.823
510.823 801.688 924.051
510.823 810.127 955.696
510.823 814.346 69.6203
510.823 818.565 955.696
510.823 827.004 993.671
510.823 831.224 82.2785
510.823 835.443 993.671
510.823 839.662 962.025
510.823 843.882 145.57
510.823 848.101 955.696
510.823 856.54 949.367
510.823 860.759 56.962
510.823 864.979 949.367
510.823 873.418 867.089
510.823 877.637 202.532
510.823 881.857 930.38
510.823 1000 455.696
515.152 0 455.696
515.152 4.21941 455.696
515.152 8.43882 462.025
515.152 16.8776 462.025
515.152 21.097 462.025
515.152 25.3165 468.354
515.152 37.9747 474.684
515.152 42.1941 474.684
515.152 46.4135 481.013
515.152 54.8523 487.342
515.152 59.0717 487.342
515.152 63.2911 487.342
515.152 75.9494 487.342
515.152 80.1688 487.342
515.152 84.3882 487.342
515.152 168.776 569.62
515.152 172.996 563.291
515.152 177.215 563.291
515.152 185.654 556.962
515.152 189.873 550.633
515.152 261.603 360.759
515.152 265.823 360.759
515.152 270.042 367.089
515.152 274.262 379.747
515.152 278.481 379.747
515.152 282.7 386.076
515.152 286.92 386.076
515.152 291.139 386.076
515.152 295.359 386.076
515.152 299.578 392.405
515.152 303.797 398.734
515.152 308.017 398.734
515.152 312.236 405.063
515.152 316.456 405.063
515.152 324.895 411.392
515.152 341.772 424.051
515.152 345.992 424.051
515.152 350.211 424.051
515.152 354.43 430.38
515.152 358.65 430.38
515.152 362.869 436.709
515.152 367.089 443.038
515.152 371.308 443.038
515.152 375.527 449.367
515.152 379.747 658.228
515.152 383.966 341.772
515.152 388.186 677.215
515.152 392.405 702.532
515.152 396.624 354.43
515.152 400.844 734.177
515.152 405.063 234.177
515.152 409.283 797.468
515.152 413.502 348.101
515.152 417.722 816.456
515.152 421.941 791.139
515.152 426.16 259.494
515.152 430.38 810.127
515.152 434.599 424.051
515.152 438.819 791.139
515.152 443.038 778.481
515.152 447.257 253.165
515.152 451.477 829.114
515.152 455.696 63.2911
515.152 459.916 848.101
515.152 464.135 841.772
515.152 468.354 50.6329
515.152 472.574 810.127
515.152 476.793 183.544
515.152 481.013 702.532
515.152 485.232 753.165
515.152 489.451 107.595
515.152 493.671 740.506
515.152 497.89 765.823
515.152 502.11 139.241
515.152 506.329 759.494
515.152 510.549 183.544
515.152 514.768 727.848
515.152 518.987 746.835
515.152 523.207 367.089
515.152 527.426 740.506
515.152 531.646 753.165
515.152 535.865 284.81
515.152 540.084 759.494
515.152 544.304 196.203
515.152 548.523 753.165
515.152 552.743 772.152
515.152 556.962 177.215
515.152 561.181 765.823
515.152 565.401 765.823
515.152 569.62 379.747
515.152 573.84 753.165
515.152 578.059 778.481
515.152 582.278 196.203
515.152 586.498 791.139
515.152 590.717 816.456
515.152 594.937 132.911
515.152 599.156 816.456
515.152 603.376 822.785
515.152 607.595 170.886
515.152 611.814 822.785
515.152 616.034 803.797
515.152 620.253 240.506
515.152 624.473 816.456
515.152 628.692 829.114
515.152 632.911 208.861
515.152 637.131 829.114
515.152 641.35 841.772
515.152 645.57 107.595
515.152 649.789 835.443
515.152 654.008 841.772
515.152 658.228 94.9367
515.152 662.447 841.772
515.152 666.667 841.772
515.152 670.886 94.9367
515.152 675.105 848.101
515.152 679.325 835.443
515.152 683.544 158.228
515.152 687.764 829.114
515.152 696.203 854.43
515.152 700.422 31.6456
515.152 704.641 854.43
515.152 708.861 873.418
515.152 713.08 37.9747
515.152 717.3 873.418
515.152 721.519 879.747
515.152 725.738 120.253
515.152 729.958 886.076
515.152 734.177 905.063
515.152 738.397 44.3038
515.152 742.616 911.392
515.152 751.055 924.051
515.152 755.274 6.32911
515.152 759.494 930.38
515.152 763.713 943.038
515.152 767.932 6.32911
515.152 772.152 943.038
515.152 780.591 943.038
515.152 784.81 107.595
515.152 789.03 943.038
515.152 793.249 949.367
515.152 797.468 221.519
515.152 801.688 930.38
515.152 810.127 962.025
515.152 814.346 6.32911
515.152 818.565 962.025
515.152 827.004 1000
515.152 831.224 82.2785
515.152 835.443 993.671
515.152 839.662 962.025
515.152 843.882 145.57
515.152 848.101 962.025
515.152 856.54 911.392
515.152 860.759 75.9494
515.152 864.979 949.367
515.152 873.418 867.089
515.152 877.637 208.861
515.152 881.857 867.089
519.481 0 455.696
519.481 4.21941 455.696
519.481 8.43882 455.696
519.481 16.8776 462.025
519.481 21.097 462.025
519.481 25.3165 462.025
519.481 37.9747 468.354
519.481 42.1941 468.354
519.481 46.4135 474.684
519.481 54.8523 481.013
519.481 59.0717 481.013
519.481 63.2911 481.013
519.481 75.9494 487.342
519.481 80.1688 487.342
519.481 84.3882 487.342
519.481 177.215 563.291
519.481 261.603 360.759
519.481 265.823 360.759
519.481 270.042 367.089
519.481 274.262 379.747
519.481 278.481 379.747
519.481 282.7 386.076
519.481 286.92 386.076
519.481 291.139 386.076
519.481 295.359 386.076
519.481 299.578 392.405
519.481 303.797 392.405
519.481 308.017 398.734
519.481 316.456 405.063
519.481 341.772 424.051
519.481 345.992 424.051
519.481 350.211 424.051
519.481 354.43 436.709
519.481 358.65 436.709
519.481 362.869 436.709
519.481 367.089 443.038
519.481 371.308 443.038
519.481 375.527 449.367
519.481 379.747 651.899
519.481 383.966 335.443
519.481 388.186 664.557
519.481 392.405 702.532
519.481 396.624 284.81
519.481 400.844 708.861
519.481 405.063 360.759
519.481 409.283 791.139
519.481 413.502 348.101
519.481 417.722 816.456
519.481 421.941 791.139
519.481 426.16 221.519
519.481 430.38 778.481
519.481 434.599 341.772
519.481 438.819 791.139
519.481 443.038 797.468
519.481 447.257 215.19
519.481 451.477 816.456
519.481 455.696 88.6076
519.481 459.916 848.101
519.481 464.135 829.114
519.481 468.354 56.962
519.481 472.574 797.468
519.481 476.793 145.57
519.481 481.013 708.861
519.481 485.232 746.835
519.481 489.451 221.519
519.481 493.671 753.165
519.481 497.89 778.481
519.481 502.11 170.886
519.481 506.329 765.823
519.481 510.549 284.81
519.481 514.768 727.848
519.481 518.987 746.835
519.481 523.207 322.785
519.481 527.426 746.835
519.481 531.646 753.165
519.481 535.865 417.722
519.481 540.084 759.494
519.481 544.304 196.203
519.481 548.523 753.165
519.481 552.743 778.481
519.481 556.962 196.203
519.481 561.181 765.823
519.481 565.401 772.152
519.481 569.62 329.114
519.481 573.84 765.823
519.481 578.059 797.468
519.481 582.278 272.152
519.481 586.498 797.468
519.481 590.717 822.785
519.481 594.937 139.241
519.481 599.156 816.456
519.481 603.376 816.456
519.481 607.595 164.557
519.481 611.814 822.785
519.481 616.034 822.785
519.481 620.253 348.101
519.481 624.473 816.456
519.481 628.692 822.785
519.481 632.911 335.443
519.481 637.131 829.114
519.481 641.35 835.443
519.481 645.57 107.595
519.481 649.789 841.772
519.481 654.008 848.101
519.481 658.228 107.595
519.481 662.447 841.772
519.481 666.667 841.772
519.481 670.886 291.139
519.481 675.105 854.43
519.481 679.325 848.101
519.481 683.544 291.139
519.481 687.764 848.101
519.481 696.203 860.759
519.481 700.422 44.3038
519.481 704.641 854.43
519.481 708.861 867.089
519.481 713.08 37.9747
519.481 717.3 873.418
519.481 721.519 873.418
519.481 725.738 88.6076
519.481 729.958 873.418
519.481 734.177 905.063
519.481 738.397 44.3038
519.481 742.616 905.063
519.481 751.055 930.38
519.481 755.274 50.6329
519.481 759.494 924.051
519.481 763.713 943.038
519.481 767.932 0
519.481 772.152 943.038
519.481 780.591 943.038
519.481 784.81 50.6329
519.481 789.03 943.038
519.481 793.249 949.367
519.481 797.468 50.6329
519.481 801.688 949.367
519.481 810.127 974.684
519.481 814.346 25.3165
519.481 818.565 962.025
519.481 827.004 1000
519.481 831.224 31.6456
519.481 835.443 1000
519.481 839.662 905.063
519.481 843.882 88.6076
519.481 848.101 962.025
519.481 856.54 886.076
519.481 860.759 120.253
519.481 864.979 911.392
519.481 873.418 867.089
519.481 877.637 151.899
519.481 881.857 867.089
523.81 8.43882 455.696
523.81 16.8776 455.696
523.81 21.097 455.696
523.81 25.3165 462.025
523.81 37.9747 462.025
523.81 42.1941 462.025
523.81 46.4135 468.354
523.81 54.8523 468.354
523.81 59.0717 468.354
523.81 63.2911 481.013
523.81 75.9494 487.342
523.81 80.1688 487.342
523.81 84.3882 487.342
523.81 261.603 367.089
523.81 265.823 367.089
523.81 270.042 367.089
523.81 274.262 379.747
523.81 278.481 379.747
523.81 282.7 379.747
523.81 286.92 379.747
523.81 291.139 386.076
523.81 295.359 386.076
523.81 299.578 386.076
523.81 303.797 386.076
523.81 308.017 392.405
523.81 341.772 430.38
523.81 345.992 430.38
523.81 350.211 424.051
523.81 354.43 443.038
523.81 358.65 443.038
523.81 362.869 436.709
523.81 367.089 443.038
523.81 371.308 443.038
523.81 375.527 449.367
523.81 379.747 645.57
523.81 383.966 322.785
523.81 388.186 658.228
523.81 392.405 702.532
523.81 396.624 284.81
523.81 400.844 708.861
523.81 405.063 284.81
523.81 409.283 791.139
523.81 413.502 405.063
523.81 417.722 810.127
523.81 421.941 784.81
523.81 426.16 221.519
523.81 430.38 797.468
523.81 434.599 303.797
523.81 438.819 784.81
523.81 443.038 803.797
523.81 447.257 259.494
523.81 451.477 810.127
523.81 455.696 75.9494
523.81 459.916 848.101
523.81 464.135 791.139
523.81 468.354 151.899
523.81 472.574 784.81
523.81 476.793 158.228
523.81 481.013 715.19
523.81 485.232 753.165
523.81 489.451 158.228
523.81 493.671 753.165
523.81 497.89 778.481
523.81 502.11 183.544
523.81 506.329 772.152
523.81 510.549 297.468
523.81 514.768 753.165
523.81 518.987 721.519
523.81 523.207 373.418
523.81 527.426 746.835
523.81 531.646 727.848
523.81 535.865 196.203
523.81 540.084 759.494
523.81 544.304 196.203
523.81 548.523 753.165
523.81 552.743 778.481
523.81 556.962 196.203
523.81 561.181 778.481
523.81 565.401 772.152
523.81 569.62 227.848
523.81 573.84 772.152
523.81 578.059 797.468
523.81 582.278 284.81
523.81 586.498 797.468
523.81 590.717 810.127
523.81 594.937 177.215
523.81 599.156 822.785
523.81 603.376 810.127
523.81 607.595 234.177
523.81 611.814 816.456
523.81 616.034 816.456
523.81 620.253 145.57
523.81 624.473 822.785
523.81 628.692 822.785
523.81 632.911 303.797
523.81 637.131 822.785
523.81 641.35 835.443
523.81 645.57 107.595
523.81 649.789 835.443
523.81 654.008 860.759
523.81 658.228 170.886
523.81 662.447 848.101
523.81 666.667 835.443
523.81 670.886 202.532
523.81 675.105 835.443
523.81 679.325 841.772
523.81 683.544 164.557
523.81 687.764 848.101
523.81 696.203 860.759
523.81 700.422 50.6329
523.81 704.641 860.759
523.81 708.861 867.089
523.81 713.08 31.6456
523.81 717.3 867.089
523.81 721.519 873.418
523.81 725.738 75.9494
523.81 729.958 873.418
523.81 734.177 905.063
523.81 738.397 145.57
523.81 742.616 905.063
523.81 751.055 924.051
523.81 755.274 50.6329
523.81 759.494 930.38
523.81 763.713 936.709
523.81 767.932 0
523.81 772.152 943.038
523.81 780.591 936.709
523.81 784.81 120.253
523.81 789.03 943.038
523.81 793.249 943.038
523.81 797.468 101.266
523.81 801.688 949.367
523.81 810.127 981.013
523.81 814.346 18.9873
523.81 818.565 974.684
523.81 827.004 1000
523.81 831.224 18.9873
523.81 835.443 1000
523.81 839.662 905.063
523.81 843.882 215.19
523.81 848.101 924.051
523.81 856.54 892.405
523.81 860.759 88.6076
523.81 864.979 886.076
523.81 873.418 765.823
523.81 877.637 487.342
523.81 881.857 867.089
528.139 16.8776 455.696
528.139 21.097 455.696
528.139 25.3165 455.696
528.139 37.9747 455.696
528.139 42.1941 455.696
528.139 46.4135 462.025
528.139 54.8523 468.354
528.139 59.0717 468.354
528.139 63.2911 468.354
528.139 75.9494 487.342
528.139 80.1688 487.342
528.139 84.3882 487.342
528.139 92.827 487.342
528.139 97.0464 487.342
528.139 101.266 487.342
528.139 261.603 367.089
528.139 265.823 367.089
528.139 270.042 367.089
528.139 274.262 379.747
528.139 278.481 379.747
528.139 282.7 379.747
528.139 286.92 379.747
528.139 291.139 386.076
528.139 295.359 386.076
528.139 299.578 386.076
528.139 303.797 386.076
528.139 308.017 386.076
528.139 333.333 424.051
528.139 337.553 424.051
528.139 341.772 430.38
528.139 345.992 436.709
528.139 350.211 430.38
528.139 354.43 443.038
528.139 358.65 443.038
528.139 362.869 443.038
528.139 367.089 443.038
528.139 371.308 443.038
528.139 375.527 449.367
528.139 379.747 645.57
528.139 383.966 322.785
528.139 388.186 651.899
528.139 392.405 689.873
528.139 396.624 348.101
528.139 400.844 765.823
528.139 405.063 405.063
528.139 409.283 791.139
528.139 413.502 303.797
528.139 417.722 810.127
528.139 421.941 784.81
528.139 426.16 221.519
528.139 430.38 797.468
528.139 434.599 310.127
528.139 438.819 778.481
528.139 443.038 810.127
528.139 447.257 221.519
528.139 451.477 822.785
528.139 455.696 75.9494
528.139 459.916 848.101
528.139 464.135 791.139
528.139 468.354 63.2911
528.139 472.574 765.823
528.139 476.793 208.861
528.139 481.013 715.19
528.139 485.232 765.823
528.139 489.451 164.557
528.139 493.671 753.165
528.139 497.89 772.152
528.139 502.11 158.228
528.139 506.329 772.152
528.139 510.549 303.797
528.139 514.768 746.835
528.139 518.987 721.519
528.139 523.207 575.949
528.139 527.426 721.519
528.139 531.646 727.848
528.139 535.865 196.203
528.139 540.084 734.177
528.139 544.304 196.203
528.139 548.523 759.494
528.139 552.743 778.481
528.139 556.962 202.532
528.139 561.181 778.481
528.139 565.401 772.152
528.139 569.62 227.848
528.139 573.84 772.152
528.139 578.059 772.152
528.139 582.278 291.139
528.139 586.498 797.468
528.139 590.717 803.797
528.139 594.937 297.468
528.139 599.156 803.797
528.139 603.376 803.797
528.139 607.595 145.57
528.139 611.814 810.127
528.139 616.034 822.785
528.139 620.253 240.506
528.139 624.473 822.785
528.139 628.692 835.443
528.139 632.911 443.038
528.139 637.131 822.785
528.139 641.35 848.101
528.139 645.57 215.19
528.139 649.789 835.443
528.139 654.008 854.43
528.139 658.228 151.899
528.139 662.447 854.43
528.139 666.667 841.772
528.139 670.886 132.911
528.139 675.105 848.101
528.139 679.325 822.785
528.139 683.544 208.861
528.139 687.764 841.772
528.139 696.203 867.089
528.139 700.422 56.962
528.139 704.641 860.759
528.139 708.861 867.089
528.139 713.08 31.6456
528.139 717.3 873.418
528.139 721.519 873.418
528.139 725.738 44.3038
528.139 729.958 873.418
528.139 734.177 892.405
528.139 738.397 132.911
528.139 742.616 905.063
528.139 751.055 924.051
528.139 755.274 50.6329
528.139 759.494 924.051
528.139 763.713 936.709
528.139 772.152 936.709
528.139 780.591 930.38
528.139 784.81 126.582
528.139 789.03 936.709
528.139 793.249 955.696
528.139 797.468 69.6203
528.139 801.688 949.367
528.139 810.127 981.013
528.139 814.346 75.9494
528.139 818.565 981.013
528.139 827.004 1000
528.139 831.224 18.9873
528.139 835.443 1000
528.139 839.662 905.063
528.139 843.882 215.19
528.139 848.101 905.063
528.139 856.54 860.759
528.139 860.759 145.57
528.139 864.979 892.405
528.139 873.418 670.886
528.139 877.637 670.886
528.139 881.857 765.823
528.139 890.295 468.354
528.139 894.515 468.354
528.139 898.734 468.354
532.468 25.3165 455.696
532.468 37.9747 455.696
532.468 42.1941 455.696
532.468 46.4135 455.696
532.468 54.8523 462.025
532.468 59.0717 462.025
532.468 63.2911 468.354
532.468 75.9494 487.342
532.468 80.1688 487.342
532.468 84.3882 487.342
532.468 92.827 487.342
532.468 97.0464 487.342
532.468 101.266 487.342
532.468 113.924 487.342
532.468 118.143 487.342
532.468 122.363 487.342
532.468 261.603 360.759
532.468 265.823 360.759
532.468 270.042 367.089
532.468 274.262 373.418
532.468 278.481 379.747
532.468 282.7 379.747
532.468 286.92 379.747
532.468 291.139 379.747
532.468 295.359 379.747
532.468 299.578 379.747
532.468 303.797 386.076
532.468 308.017 386.076
532.468 333.333 424.051
532.468 337.553 424.051
532.468 341.772 430.38
532.468 345.992 436.709
532.468 350.211 436.709
532.468 354.43 443.038
532.468 358.65 443.038
532.468 362.869 443.038
532.468 367.089 449.367
532.468 371.308 443.038
532.468 375.527 449.367
532.468 379.747 620.253
532.468 383.966 417.722
532.468 388.186 645.57
532.468 392.405 759.494
532.468 396.624 474.684
532.468 400.844 765.823
532.468 405.063 303.797
532.468 409.283 784.81
532.468 413.502 253.165
532.468 417.722 772.152
532.468 421.941 803.797
532.468 426.16 272.152
532.468 430.38 803.797
532.468 434.599 303.797
532.468 438.819 778.481
532.468 443.038 822.785
532.468 447.257 183.544
532.468 451.477 822.785
532.468 455.696 75.9494
532.468 459.916 848.101
532.468 464.135 803.797
532.468 468.354 82.2785
532.468 472.574 784.81
532.468 476.793 221.519
532.468 481.013 721.519
532.468 485.232 765.823
532.468 489.451 170.886
532.468 493.671 765.823
532.468 497.89 772.152
532.468 502.11 177.215
532.468 506.329 765.823
532.468 510.549 265.823
532.468 514.768 759.494
532.468 518.987 772.152
532.468 523.207 544.304
532.468 527.426 772.152
532.468 531.646 708.861
532.468 535.865 177.215
532.468 540.084 734.177
532.468 544.304 202.532
532.468 548.523 759.494
532.468 552.743 778.481
532.468 556.962 202.532
532.468 561.181 778.481
532.468 565.401 778.481
532.468 569.62 284.81
532.468 573.84 784.81
532.468 578.059 772.152
532.468 582.278 291.139
532.468 586.498 772.152
532.468 590.717 803.797
532.468 594.937 202.532
532.468 599.156 803.797
532.468 603.376 803.797
532.468 607.595 145.57
532.468 611.814 803.797
532.468 616.034 829.114
532.468 620.253 253.165
532.468 624.473 822.785
532.468 628.692 841.772
532.468 632.911 322.785
532.468 637.131 841.772
532.468 641.35 841.772
532.468 645.57 196.203
532.468 649.789 848.101
532.468 654.008 835.443
532.468 658.228 88.6076
532.468 662.447 854.43
532.468 666.667 848.101
532.468 670.886 139.241
532.468 675.105 848.101
532.468 679.325 829.114
532.468 683.544 183.544
532.468 687.764 835.443
532.468 696.203 867.089
532.468 700.422 120.253
532.468 704.641 867.089
532.468 708.861 860.759
532.468 713.08 31.6456
532.468 717.3 867.089
532.468 721.519 873.418
532.468 725.738 94.9367
532.468 729.958 873.418
532.468 734.177 879.747
532.468 738.397 94.9367
532.468 742.616 892.405
532.468 751.055 924.051
532.468 755.274 94.9367
532.468 759.494 930.38
532.468 763.713 930.38
532.468 767.932 44.3038
532.468 772.152 936.709
532.468 780.591 924.051
532.468 784.81 139.241
532.468 789.03 930.38
532.468 793.249 943.038
532.468 797.468 94.9367
532.468 801.688 949.367
532.468 810.127 974.684
532.468 814.346 120.253
532.468 818.565 981.013
532.468 827.004 987.342
532.468 831.224 88.6076
532.468 835.443 1000
532.468 839.662 822.785
532.468 848.101 905.063
532.468 856.54 772.152
532.468 864.979 860.759
532.468 873.418 468.354
532.468 877.637 468.354
532.468 881.857 664.557
532.468 890.295 468.354
532.468 894.515 468.354
532.468 898.734 468.354
536.797 46.4135 455.696
536.797 54.8523 455.696
536.797 59.0717 455.696
536.797 63.2911 462.025
536.797 75.9494 474.684
536.797 80.1688 474.684
536.797 84.3882 487.342
536.797 92.827 487.342
536.797 97.0464 487.342
536.797 101.266 487.342
536.797 113.924 487.342
536.797 118.143 487.342
536.797 122.363 487.342
536.797 261.603 360.759
536.797 265.823 360.759
536.797 270.042 367.089
536.797 274.262 373.418
536.797 278.481 373.418
536.797 282.7 379.747
536.797 286.92 379.747
536.797 291.139 379.747
536.797 295.359 379.747
536.797 299.578 379.747
536.797 303.797 379.747
536.797 308.017 379.747
536.797 333.333 424.051
536.797 337.553 424.051
536.797 341.772 430.38
536.797 345.992 436.709
536.797 350.211 436.709
536.797 354.43 443.038
536.797 358.65 443.038
536.797 362.869 443.038
536.797 367.089 449.367
536.797 371.308 544.304
536.797 375.527 550.633
536.797 379.747 715.19
536.797 383.966 556.962
536.797 388.186 727.848
536.797 392.405 708.861
536.797 396.624 373.418
536.797 400.844 765.823
536.797 405.063 303.797
536.797 409.283 753.165
536.797 413.502 253.165
536.797 417.722 765.823
536.797 421.941 803.797
536.797 426.16 310.127
536.797 430.38 803.797
536.797 434.599 316.456
536.797 438.819 778.481
536.797 443.038 810.127
536.797 447.257 196.203
536.797 451.477 829.114
536.797 455.696 88.6076
536.797 459.916 841.772
536.797 464.135 803.797
536.797 468.354 75.9494
536.797 472.574 791.139
536.797 476.793 183.544
536.797 481.013 740.506
536.797 485.232 759.494
536.797 489.451 196.203
536.797 493.671 772.152
536.797 497.89 778.481
536.797 502.11 164.557
536.797 506.329 765.823
536.797 510.549 259.494
536.797 514.768 753.165
536.797 518.987 765.823
536.797 523.207 373.418
536.797 527.426 765.823
536.797 531.646 639.241
536.797 535.865 316.456
536.797 540.084 721.519
536.797 544.304 221.519
536.797 548.523 759.494
536.797 552.743 791.139
536.797 556.962 177.215
536.797 561.181 797.468
536.797 565.401 746.835
536.797 569.62 189.873
536.797 573.84 784.81
536.797 578.059 740.506
536.797 582.278 265.823
536.797 586.498 759.494
536.797 590.717 797.468
536.797 594.937 253.165
536.797 599.156 797.468
536.797 603.376 803.797
536.797 607.595 139.241
536.797 611.814 803.797
536.797 616.034 829.114
536.797 620.253 360.759
536.797 624.473 829.114
536.797 628.692 848.101
536.797 632.911 234.177
536.797 637.131 841.772
536.797 641.35 841.772
536.797 645.57 126.582
536.797 649.789 841.772
536.797 654.008 829.114
536.797 658.228 88.6076
536.797 662.447 829.114
536.797 666.667 848.101
536.797 670.886 158.228
536.797 675.105 841.772
536.797 679.325 835.443
536.797 683.544 196.203
536.797 687.764 835.443
536.797 696.203 867.089
536.797 700.422 120.253
536.797 704.641 867.089
536.797 708.861 860.759
536.797 713.08 31.6456
536.797 717.3 860.759
536.797 721.519 860.759
536.797 725.738 88.6076
536.797 729.958 873.418
536.797 734.177 879.747
536.797 738.397 63.2911
536.797 742.616 879.747
536.797 751.055 924.051
536.797 755.274 82.2785
536.797 759.494 930.38
536.797 763.713 936.709
536.797 767.932 44.3038
536.797 772.152 936.709
536.797 780.591 930.38
536.797 784.81 132.911
536.797 789.03 930.38
536.797 793.249 936.709
536.797 797.468 113.924
536.797 801.688 943.038
536.797 810.127 974.684
536.797 814.346 132.911
536.797 818.565 974.684
536.797 827.004 987.342
536.797 831.224 75.9494
536.797 835.443 987.342
536.797 839.662 772.152
536.797 848.101 822.785
536.797 856.54 746.835
536.797 864.979 765.823
536.797 873.418 455.696
536.797 877.637 455.696
536.797 881.857 468.354
536.797 890.295 474.684
536.797 894.515 474.684
536.797 898.734 468.354
541.126 54.8523 455.696
541.126 59.0717 455.696
541.126 63.2911 455.696
541.126 75.9494 474.684
541.126 80.1688 474.684
541.126 84.3882 474.684
541.126 92.827 481.013
541.126 97.0464 481.013
541.126 101.266 487.342
541.126 113.924 493.671
541.126 118.143 493.671
541.126 122.363 487.342
541.126 270.042 367.089
541.126 274.262 367.089
541.126 278.481 373.418
541.126 282.7 373.418
541.126 286.92 373.418
541.126 299.578 379.747
541.126 303.797 379.747
541.126 308.017 379.747
541.126 333.333 430.38
541.126 337.553 430.38
541.126 341.772 430.38
541.126 345.992 443.038
541.126 350.211 436.709
541.126 354.43 443.038
541.126 358.65 443.038
541.126 362.869 443.038
541.126 367.089 449.367
541.126 371.308 550.633
541.126 375.527 550.633
541.126 379.747 715.19
541.126 383.966 556.962
541.126 388.186 727.848
541.126 392.405 708.861
541.126 396.624 367.089
541.126 400.844 721.519
541.126 405.063 303.797
541.126 409.283 746.835
541.126 413.502 303.797
541.126 417.722 765.823
541.126 421.941 803.797
541.126 426.16 272.152
541.126 430.38 797.468
541.126 434.599 310.127
541.126 438.819 803.797
541.126 443.038 803.797
541.126 447.257 177.215
541.126 451.477 822.785
541.126 455.696 75.9494
541.126 459.916 841.772
541.126 464.135 803.797
541.126 468.354 75.9494
541.126 472.574 784.81
541.126 476.793 221.519
541.126 481.013 765.823
541.126 485.232 765.823
541.126 489.451 227.848
541.126 493.671 759.494
541.126 497.89 784.81
541.126 502.11 164.557
541.126 506.329 772.152
541.126 510.549 253.165
541.126 514.768 765.823
541.126 518.987 765.823
541.126 523.207 284.81
541.126 527.426 765.823
541.126 531.646 727.848
541.126 535.865 417.722
541.126 540.084 740.506
541.126 544.304 221.519
541.126 548.523 753.165
541.126 552.743 797.468
541.126 556.962 202.532
541.126 561.181 791.139
541.126 565.401 753.165
541.126 569.62 196.203
541.126 573.84 746.835
541.126 578.059 734.177
541.126 582.278 265.823
541.126 586.498 740.506
541.126 590.717 791.139
541.126 594.937 145.57
541.126 599.156 791.139
541.126 603.376 797.468
541.126 607.595 145.57
541.126 611.814 803.797
541.126 616.034 829.114
541.126 620.253 259.494
541.126 624.473 829.114
541.126 628.692 848.101
541.126 632.911 240.506
541.126 637.131 841.772
541.126 641.35 841.772
541.126 645.57 132.911
541.126 649.789 841.772
541.126 654.008 829.114
541.126 658.228 88.6076
541.126 662.447 829.114
541.126 666.667 841.772
541.126 670.886 316.456
541.126 675.105 848.101
541.126 679.325 835.443
541.126 683.544 94.9367
541.126 687.764 835.443
541.126 696.203 873.418
541.126 700.422 126.582
541.126 704.641 867.089
541.126 708.861 860.759
541.126 713.08 31.6456
541.126 717.3 860.759
541.126 721.519 854.43
541.126 725.738 75.9494
541.126 729.958 860.759
541.126 734.177 886.076
541.126 738.397 183.544
541.126 742.616 892.405
541.126 751.055 924.051
541.126 755.274 88.6076
541.126 759.494 924.051
541.126 763.713 924.051
541.126 767.932 6.32911
541.126 772.152 936.709
541.126 780.591 936.709
541.126 784.81 113.924
541.126 789.03 930.38
541.126 793.249 936.709
541.126 797.468 37.9747
541.126 801.688 936.709
541.126 810.127 974.684
541.126 814.346 69.6203
541.126 818.565 974.684
541.126 827.004 987.342
541.126 831.224 6.32911
541.126 835.443 987.342
541.126 839.662 759.494
541.126 848.101 765.823
541.126 856.54 740.506
541.126 864.979 753.165
541.126 873.418 455.696
541.126 877.637 455.696
541.126 881.857 455.696
541.126 890.295 474.684
541.126 894.515 474.684
541.126 898.734 474.684
545.455 63.2911 455.696
545.455 75.9494 474.684
545.455 80.1688 474.684
545.455 84.3882 474.684
545.455 92.827 481.013
545.455 97.0464 481.013
545.455 101.266 481.013
545.455 113.924 493.671
545.455 118.143 493.671
545.455 122.363 493.671
545.455 270.042 367.089
545.455 274.262 367.089
545.455 278.481 367.089
545.455 282.7 373.418
545.455 286.92 373.418
545.455 299.578 379.747
545.455 303.797 379.747
545.455 308.017 379.747
545.455 333.333 430.38
545.455 337.553 430.38
545.455 341.772 430.38
545.455 345.992 443.038
545.455 350.211 443.038
545.455 354.43 443.038
545.455 358.65 443.038
545.455 362.869 449.367
545.455 367.089 455.696
545.455 371.308 550.633
545.455 375.527 556.962
545.455 379.747 715.19
545.455 383.966 449.367
545.455 388.186 727.848
545.455 392.405 708.861
545.455 396.624 367.089
545.455 400.844 721.519
545.455 405.063 303.797
545.455 409.283 778.481
545.455 413.502 341.772
545.455 417.722 791.139
545.455 421.941 797.468
545.455 426.16 303.797
545.455 430.38 803.797
545.455 434.599 310.127
545.455 438.819 784.81
545.455 443.038 797.468
545.455 447.257 322.785
545.455 451.477 816.456
545.455 455.696 94.9367
545.455 459.916 835.443
545.455 464.135 784.81
545.455 468.354 82.2785
545.455 472.574 784.81
545.455 476.793 164.557
545.455 481.013 759.494
545.455 485.232 791.139
545.455 489.451 316.456
545.455 493.671 772.152
545.455 497.89 778.481
545.455 502.11 158.228
545.455 506.329 772.152
545.455 510.549 170.886
545.455 514.768 765.823
545.455 518.987 759.494
545.455 523.207 278.481
545.455 527.426 759.494
545.455 531.646 759.494
545.455 535.865 443.038
545.455 540.084 753.165
545.455 544.304 297.468
545.455 548.523 778.481
545.455 552.743 797.468
545.455 556.962 202.532
545.455 561.181 797.468
545.455 565.401 778.481
545.455 569.62 310.127
545.455 573.84 772.152
545.455 578.059 740.506
545.455 582.278 259.494
545.455 586.498 734.177
545.455 590.717 784.81
545.455 594.937 145.57
545.455 599.156 791.139
545.455 603.376 797.468
545.455 607.595 145.57
545.455 611.814 797.468
545.455 616.034 829.114
545.455 620.253 259.494
545.455 624.473 829.114
545.455 628.692 841.772
545.455 632.911 240.506
545.455 637.131 848.101
545.455 641.35 822.785
545.455 645.57 139.241
545.455 649.789 835.443
545.455 654.008 829.114
545.455 658.228 88.6076
545.455 662.447 829.114
545.455 666.667 848.101
545.455 670.886 259.494
545.455 675.105 848.101
545.455 679.325 829.114
545.455 683.544 107.595
545.455 687.764 835.443
545.455 696.203 860.759
545.455 700.422 88.6076
545.455 704.641 873.418
545.455 708.861 854.43
545.455 713.08 31.6456
545.455 717.3 854.43
545.455 721.519 854.43
545.455 725.738 82.2785
545.455 729.958 854.43
545.455 734.177 879.747
545.455 738.397 88.6076
545.455 742.616 886.076
545.455 751.055 917.722
545.455 755.274 44.3038
545.455 759.494 924.051
545.455 763.713 930.38
545.455 767.932 12.6582
545.455 772.152 930.38
545.455 780.591 930.38
545.455 784.81 82.2785
545.455 789.03 936.709
545.455 793.249 936.709
545.455 797.468 158.228
545.455 801.688 943.038
545.455 810.127 968.354
545.455 814.346 88.6076
545.455 818.565 974.684
545.455 827.004 981.013
545.455 831.224 31.6456
545.455 835.443 981.013
545.455 839.662 791.139
545.455 848.101 803.797
545.455 856.54 632.911
545.455 860.759 310.127
545.455 864.979 740.506
545.455 873.418 455.696
545.455 877.637 455.696
545.455 881.857 455.696
545.455 890.295 474.684
545.455 894.515 474.684
545.455 898.734 474.684
549.784 75.9494 468.354
549.784 80.1688 468.354
549.784 84.3882 468.354
549.784 92.827 481.013
549.784 97.0464 481.013
549.784 101.266 481.013
549.784 113.924 493.671
549.784 118.143 493.671
549.784 122.363 493.671
549.784 270.042 360.759
549.784 274.262 360.759
549.784 278.481 367.089
549.784 282.7 367.089
549.784 286.92 373.418
549.784 308.017 379.747
549.784 324.895 424.051
549.784 329.114 424.051
549.784 333.333 430.38
549.784 337.553 430.38
549.784 341.772 430.38
549.784 345.992 443.038
549.784 350.211 443.038
549.784 354.43 449.367
549.784 358.65 449.367
549.784 362.869 449.367
549.784 367.089 455.696
549.784 371.308 449.367
549.784 379.747 721.519
549.784 383.966 449.367
549.784 388.186 658.228
549.784 392.405 670.886
549.784 396.624 462.025
549.784 400.844 715.19
549.784 405.063 303.797
549.784 409.283 772.152
549.784 413.502 341.772
549.784 417.722 784.81
549.784 421.941 797.468
549.784 426.16 272.152
549.784 430.38 797.468
549.784 434.599 272.152
549.784 438.819 803.797
549.784 443.038 803.797
549.784 447.257 278.481
549.784 451.477 816.456
549.784 455.696 82.2785
549.784 459.916 835.443
549.784 464.135 797.468
549.784 468.354 75.9494
549.784 472.574 778.481
549.784 476.793 158.228
549.784 481.013 772.152
549.784 485.232 778.481
549.784 489.451 240.506
549.784 493.671 784.81
549.784 497.89 772.152
549.784 502.11 158.228
549.784 506.329 772.152
549.784 510.549 278.481
549.784 514.768 778.481
549.784 518.987 753.165
549.784 523.207 272.152
549.784 527.426 759.494
549.784 531.646 803.797
549.784 535.865 354.43
549.784 540.084 784.81
549.784 544.304 341.772
549.784 548.523 778.481
549.784 552.743 797.468
549.784 556.962 202.532
549.784 561.181 797.468
549.784 565.401 772.152
549.784 569.62 221.519
549.784 573.84 772.152
549.784 578.059 708.861
549.784 582.278 221.519
549.784 586.498 727.848
549.784 590.717 778.481
549.784 594.937 145.57
549.784 599.156 784.81
549.784 603.376 803.797
549.784 607.595 246.835
549.784 611.814 797.468
549.784 616.034 822.785
549.784 620.253 259.494
549.784 624.473 822.785
549.784 628.692 841.772
549.784 632.911 221.519
549.784 637.131 841.772
549.784 641.35 822.785
549.784 645.57 202.532
549.784 649.789 829.114
549.784 654.008 822.785
549.784 658.228 88.6076
549.784 662.447 822.785
549.784 666.667 841.772
549.784 670.886 164.557
549.784 675.105 841.772
549.784 679.325 829.114
549.784 683.544 107.595
549.784 687.764 829.114
549.784 696.203 854.43
549.784 700.422 82.2785
549.784 704.641 860.759
549.784 708.861 854.43
549.784 713.08 31.6456
549.784 717.3 854.43
549.784 721.519 854.43
549.784 725.738 75.9494
549.784 729.958 854.43
549.784 734.177 867.089
549.784 738.397 37.9747
549.784 742.616 879.747
549.784 751.055 911.392
549.784 755.274 44.3038
549.784 759.494 917.722
549.784 763.713 930.38
549.784 767.932 25.3165
549.784 772.152 930.38
549.784 780.591 930.38
549.784 784.81 25.3165
549.784 789.03 936.709
549.784 793.249 949.367
549.784 797.468 101.266
549.784 801.688 949.367
549.784 810.127 974.684
549.784 814.346 69.6203
549.784 818.565 974.684
549.784 827.004 974.684
549.784 831.224 18.9873
549.784 835.443 981.013
549.784 839.662 778.481
549.784 848.101 791.139
549.784 864.979 632.911
549.784 873.418 455.696
549.784 877.637 455.696
549.784 881.857 455.696
549.784 890.295 474.684
549.784 894.515 474.684
549.784 898.734 474.684
549.784 907.173 474.684
549.784 911.392 474.684
549.784 915.612 474.684
554.113 75.9494 468.354
554.113 80.1688 468.354
554.113 84.3882 468.354
554.113 92.827 487.342
554.113 97.0464 487.342
554.113 101.266 481.013
554.113 113.924 493.671
554.113 118.143 493.671
554.113 122.363 493.671
554.113 270.042 360.759
554.113 274.262 360.759
554.113 278.481 360.759
554.113 282.7 360.759
554.113 286.92 367.089
554.113 324.895 424.051
554.113 329.114 424.051
554.113 333.333 424.051
554.113 337.553 430.38
554.113 341.772 430.38
554.113 345.992 443.038
554.113 350.211 443.038
554.113 354.43 455.696
554.113 358.65 455.696
554.113 362.869 449.367
554.113 371.308 683.544
554.113 375.527 537.975
554.113 379.747 658.228
554.113 383.966 449.367
554.113 388.186 658.228
554.113 392.405 670.886
554.113 396.624 468.354
554.113 400.844 715.19
554.113 405.063 303.797
554.113 409.283 765.823
554.113 413.502 341.772
554.113 417.722 778.481
554.113 421.941 797.468
554.113 426.16 272.152
554.113 430.38 797.468
554.113 434.599 272.152
554.113 438.819 797.468
554.113 443.038 778.481
554.113 447.257 189.873
554.113 451.477 810.127
554.113 455.696 82.2785
554.113 459.916 810.127
554.113 464.135 810.127
554.113 468.354 37.9747
554.113 472.574 784.81
554.113 476.793 189.873
554.113 481.013 765.823
554.113 485.232 772.152
554.113 489.451 158.228
554.113 493.671 778.481
554.113 497.89 784.81
554.113 502.11 221.519
554.113 506.329 797.468
554.113 510.549 240.506
554.113 514.768 784.81
554.113 518.987 784.81
554.113 523.207 392.405
554.113 527.426 791.139
554.113 531.646 803.797
554.113 535.865 259.494
554.113 540.084 791.139
554.113 544.304 297.468
554.113 548.523 778.481
554.113 552.743 778.481
554.113 556.962 196.203
554.113 561.181 791.139
554.113 565.401 753.165
554.113 569.62 234.177
554.113 573.84 772.152
554.113 578.059 734.177
554.113 582.278 297.468
554.113 586.498 740.506
554.113 590.717 778.481
554.113 594.937 145.57
554.113 599.156 778.481
554.113 603.376 803.797
554.113 607.595 259.494
554.113 611.814 803.797
554.113 616.034 822.785
554.113 620.253 177.215
554.113 624.473 822.785
554.113 628.692 829.114
554.113 632.911 259.494
554.113 637.131 835.443
554.113 641.35 816.456
554.113 645.57 113.924
554.113 649.789 822.785
554.113 654.008 822.785
554.113 658.228 94.9367
554.113 662.447 822.785
554.113 666.667 841.772
554.113 670.886 107.595
554.113 675.105 841.772
554.113 679.325 829.114
554.113 683.544 170.886
554.113 687.764 829.114
554.113 696.203 841.772
554.113 700.422 151.899
554.113 704.641 848.101
554.113 708.861 860.759
554.113 713.08 75.9494
554.113 717.3 860.759
554.113 721.519 854.43
554.113 725.738 75.9494
554.113 729.958 854.43
554.113 734.177 873.418
554.113 738.397 126.582
554.113 742.616 867.089
554.113 751.055 905.063
554.113 755.274 50.6329
554.113 759.494 911.392
554.113 763.713 936.709
554.113 767.932 31.6456
554.113 772.152 936.709
554.113 780.591 936.709
554.113 784.81 25.3165
554.113 789.03 930.38
554.113 793.249 943.038
554.113 797.468 101.266
554.113 801.688 949.367
554.113 810.127 974.684
554.113 814.346 6.32911
554.113 818.565 974.684
554.113 827.004 974.684
554.113 831.224 18.9873
554.113 835.443 974.684
554.113 839.662 772.152
554.113 848.101 778.481
554.113 873.418 455.696
