109.453 64.3275 222.88
109.453 70.1754 465.483
109.453 76.0234 463.511
109.453 81.8713 463.511
109.453 87.7193 463.511
109.453 93.5673 303.748
109.453 99.4152 303.748
109.453 105.263 303.748
109.453 111.111 303.748
109.453 116.959 303.748
109.453 122.807 465.483
109.453 128.655 465.483
109.453 134.503 465.483
109.453 140.351 303.748
109.453 146.199 303.748
109.453 152.047 305.72
109.453 157.895 305.72
109.453 163.743 303.748
109.453 169.591 305.72
109.453 175.439 303.748
109.453 181.287 303.748
109.453 187.135 303.748
109.453 192.982 303.748
109.453 198.83 303.748
109.453 204.678 303.748
109.453 210.526 303.748
109.453 216.374 303.748
109.453 222.222 305.72
109.453 228.07 627.219
109.453 233.918 629.191
109.453 239.766 629.191
109.453 245.614 629.191
109.453 251.462 629.191
109.453 257.31 465.483
109.453 263.158 465.483
109.453 269.006 465.483
109.453 274.854 465.483
109.453 280.702 465.483
109.453 286.55 465.483
109.453 467.836 420.118
109.453 473.684 420.118
109.453 479.532 418.146
109.453 485.38 418.146
109.453 491.228 280.079
109.453 497.076 278.107
109.453 502.924 731.755
109.453 508.772 483.235
109.453 514.62 266.272
109.453 520.468 25.641
109.453 526.316 27.6134
109.453 532.164 27.6134
109.453 538.012 21.6963
109.453 543.86 23.6686
109.453 549.708 37.4753
109.453 555.556 31.5582
109.453 561.404 21.6963
109.453 567.251 23.6686
109.453 573.099 23.6686
109.453 578.947 31.5582
109.453 584.795 37.4753
109.453 590.643 86.785
109.453 596.491 542.406
109.453 602.339 591.716
109.453 608.187 451.677
109.453 614.035 518.738
109.453 619.883 670.611
109.453 625.731 429.98
114.428 11.6959 625.247
114.428 17.5439 625.247
114.428 23.3918 627.219
114.428 29.2398 627.219
114.428 35.0877 627.219
114.428 40.9357 627.219
114.428 46.7836 625.247
114.428 52.6316 625.247
114.428 58.4795 463.511
114.428 64.3275 301.775
114.428 70.1754 301.775
114.428 76.0234 222.88
114.428 81.8713 224.852
114.428 87.7193 463.511
114.428 93.5673 625.247
114.428 99.4152 625.247
114.428 105.263 465.483
114.428 111.111 465.483
114.428 116.959 465.483
114.428 122.807 625.247
114.428 128.655 465.483
114.428 134.503 465.483
114.428 140.351 303.748
114.428 146.199 303.748
114.428 152.047 305.72
114.428 157.895 305.72
114.428 163.743 303.748
114.428 169.591 305.72
114.428 175.439 303.748
114.428 181.287 303.748
114.428 187.135 303.748
114.428 192.982 303.748
114.428 198.83 303.748
114.428 204.678 303.748
114.428 210.526 303.748
114.428 216.374 303.748
114.428 222.222 305.72
114.428 228.07 305.72
114.428 233.918 305.72
114.428 239.766 305.72
114.428 245.614 307.692
114.428 251.462 307.692
114.428 257.31 307.692
114.428 263.158 309.665
114.428 269.006 311.637
114.428 274.854 311.637
114.428 280.702 311.637
114.428 286.55 637.081
114.428 292.398 637.081
114.428 298.246 637.081
114.428 461.988 420.118
114.428 467.836 420.118
114.428 473.684 420.118
114.428 479.532 556.213
114.428 485.38 556.213
114.428 491.228 416.174
114.428 497.076 788.955
114.428 502.924 739.645
114.428 508.772 406.312
114.428 514.62 138.067
114.428 520.468 106.509
114.428 526.316 23.6686
114.428 532.164 27.6134
114.428 538.012 25.641
114.428 543.86 21.6963
114.428 549.708 19.7239
114.428 555.556 23.6686
114.428 561.404 21.6963
114.428 567.251 23.6686
114.428 573.099 23.6686
114.428 578.947 31.5582
114.428 584.795 41.4201
114.428 590.643 335.306
114.428 596.491 573.964
114.428 602.339 353.057
114.428 608.187 451.677
114.428 614.035 518.738
114.428 619.883 668.639
114.428 625.731 431.953
119.403 17.5439 629.191
119.403 23.3918 627.219
119.403 29.2398 629.191
119.403 35.0877 627.219
119.403 40.9357 627.219
119.403 46.7836 625.247
119.403 52.6316 625.247
119.403 58.4795 625.247
119.403 64.3275 623.274
119.403 70.1754 623.274
119.403 76.0234 623.274
119.403 81.8713 463.511
119.403 87.7193 301.775
119.403 93.5673 303.748
119.403 99.4152 303.748
119.403 105.263 303.748
119.403 111.111 303.748
119.403 116.959 303.748
119.403 122.807 625.247
119.403 128.655 625.247
119.403 134.503 625.247
119.403 140.351 463.511
119.403 146.199 465.483
119.403 152.047 465.483
119.403 157.895 465.483
119.403 163.743 465.483
119.403 169.591 465.483
119.403 175.439 463.511
119.403 181.287 303.748
119.403 187.135 303.748
119.403 192.982 303.748
119.403 198.83 303.748
119.403 204.678 303.748
119.403 210.526 303.748
119.403 216.374 303.748
119.403 222.222 305.72
119.403 228.07 305.72
119.403 233.918 305.72
119.403 239.766 307.692
119.403 245.614 305.72
119.403 251.462 307.692
119.403 257.31 309.665
119.403 263.158 309.665
119.403 269.006 311.637
119.403 274.854 311.637
119.403 280.702 309.665
119.403 286.55 309.665
119.403 292.398 311.637
119.403 298.246 637.081
119.403 304.094 637.081
119.403 309.942 637.081
119.403 456.14 420.118
119.403 461.988 420.118
119.403 467.836 420.118
119.403 473.684 556.213
119.403 479.532 556.213
119.403 485.38 205.128
119.403 491.228 714.004
119.403 497.076 672.584
119.403 502.924 321.499
119.403 508.772 177.515
119.403 514.62 163.708
119.403 520.468 102.564
119.403 526.316 19.7239
119.403 532.164 19.7239
119.403 538.012 19.7239
119.403 543.86 19.7239
119.403 549.708 53.2544
119.403 555.556 49.3097
119.403 561.404 49.3097
119.403 567.251 49.3097
119.403 573.099 49.3097
119.403 578.947 19.7239
119.403 584.795 27.6134
119.403 590.643 467.456
119.403 596.491 508.876
119.403 602.339 329.389
119.403 608.187 451.677
119.403 614.035 775.148
119.403 619.883 717.949
119.403 625.731 431.953
124.378 23.3918 629.191
124.378 29.2398 627.219
124.378 35.0877 627.219
124.378 40.9357 625.247
124.378 46.7836 625.247
124.378 52.6316 625.247
124.378 58.4795 625.247
124.378 64.3275 623.274
124.378 70.1754 623.274
124.378 76.0234 623.274
124.378 81.8713 625.247
124.378 87.7193 625.247
124.378 93.5673 222.88
124.378 99.4152 303.748
124.378 105.263 303.748
124.378 111.111 303.748
124.378 116.959 303.748
124.378 122.807 303.748
124.378 128.655 303.748
124.378 134.503 303.748
124.378 140.351 303.748
124.378 146.199 222.88
124.378 152.047 222.88
124.378 157.895 222.88
124.378 163.743 175.542
124.378 169.591 175.542
124.378 175.439 368.836
124.378 181.287 368.836
124.378 187.135 368.836
124.378 192.982 366.864
124.378 198.83 224.852
124.378 204.678 226.824
124.378 210.526 226.824
124.378 216.374 224.852
124.378 222.222 224.852
124.378 228.07 226.824
124.378 233.918 226.824
124.378 239.766 226.824
124.378 245.614 226.824
124.378 251.462 226.824
124.378 257.31 309.665
124.378 263.158 309.665
124.378 269.006 311.637
124.378 274.854 311.637
124.378 280.702 309.665
124.378 286.55 309.665
124.378 292.398 311.637
124.378 298.246 311.637
124.378 304.094 311.637
124.378 309.942 637.081
124.378 315.789 637.081
124.378 321.637 635.108
124.378 421.053 463.511
124.378 426.901 629.191
124.378 432.749 629.191
124.378 438.596 627.219
124.378 444.444 627.219
124.378 450.292 465.483
124.378 456.14 453.649
124.378 461.988 449.704
124.378 467.836 445.759
124.378 473.684 441.815
124.378 479.532 376.726
124.378 485.38 721.893
124.378 491.228 743.59
124.378 497.076 351.085
124.378 502.924 161.736
124.378 508.772 140.039
124.378 514.62 157.791
124.378 520.468 88.7574
124.378 526.316 55.2268
124.378 532.164 49.3097
124.378 538.012 53.2544
124.378 543.86 51.2821
124.378 549.708 49.3097
124.378 555.556 17.7515
124.378 561.404 19.7239
124.378 567.251 17.7515
124.378 573.099 51.2821
124.378 578.947 51.2821
124.378 584.795 59.1716
124.378 590.643 504.931
124.378 596.491 487.179
124.378 602.339 325.444
124.378 608.187 295.858
124.378 614.035 682.446
124.378 619.883 599.606
124.378 625.731 431.953
129.353 29.2398 621.302
129.353 35.0877 625.247
129.353 40.9357 625.247
129.353 46.7836 625.247
129.353 52.6316 625.247
129.353 58.4795 623.274
129.353 64.3275 623.274
129.353 70.1754 623.274
129.353 76.0234 623.274
129.353 81.8713 623.274
129.353 87.7193 465.483
129.353 93.5673 465.483
129.353 99.4152 175.542
129.353 105.263 222.88
129.353 111.111 224.852
129.353 116.959 222.88
129.353 122.807 222.88
129.353 128.655 303.748
129.353 134.503 303.748
129.353 140.351 303.748
129.353 146.199 303.748
129.353 152.047 303.748
129.353 157.895 175.542
129.353 163.743 224.852
129.353 169.591 222.88
129.353 175.439 175.542
129.353 181.287 175.542
129.353 187.135 175.542
129.353 192.982 366.864
129.353 198.83 366.864
129.353 204.678 224.852
129.353 210.526 224.852
129.353 216.374 226.824
129.353 222.222 224.852
129.353 228.07 226.824
129.353 233.918 226.824
129.353 239.766 226.824
129.353 245.614 226.824
129.353 251.462 228.797
129.353 257.31 309.665
129.353 263.158 309.665
129.353 269.006 311.637
129.353 274.854 311.637
129.353 280.702 311.637
129.353 286.55 309.665
129.353 292.398 309.665
129.353 298.246 311.637
129.353 304.094 311.637
129.353 309.942 309.665
129.353 315.789 313.609
129.353 321.637 637.081
129.353 327.485 637.081
129.353 333.333 637.081
129.353 339.181 477.318
129.353 345.029 637.081
129.353 350.877 637.081
129.353 356.725 637.081
129.353 362.573 635.108
129.353 368.421 635.108
129.353 374.269 633.136
129.353 380.117 473.373
129.353 385.965 471.4
129.353 391.813 469.428
129.353 397.661 467.456
129.353 403.509 465.483
129.353 409.357 631.164
129.353 415.205 631.164
129.353 421.053 629.191
129.353 426.901 305.72
129.353 432.749 305.72
129.353 438.596 305.72
129.353 444.444 469.428
129.353 450.292 461.538
129.353 456.14 453.649
129.353 461.988 546.351
129.353 467.836 238.659
129.353 473.684 232.742
129.353 479.532 704.142
129.353 485.38 790.927
129.353 491.228 382.643
129.353 497.076 181.46
129.353 502.924 118.343
129.353 508.772 161.736
129.353 514.62 102.564
129.353 520.468 27.6134
129.353 526.316 57.1992
129.353 532.164 53.2544
129.353 538.012 19.7239
129.353 543.86 21.6963
129.353 549.708 17.7515
129.353 555.556 17.7515
129.353 561.404 19.7239
129.353 567.251 19.7239
129.353 573.099 19.7239
129.353 578.947 55.2268
129.353 584.795 92.7022
129.353 590.643 319.527
129.353 596.491 465.483
129.353 602.339 299.803
129.353 608.187 357.002
129.353 614.035 684.418
129.353 619.883 785.01
129.353 625.731 605.523
134.328 35.0877 459.566
134.328 40.9357 621.302
134.328 46.7836 625.247
134.328 52.6316 623.274
134.328 58.4795 623.274
134.328 64.3275 706.114
134.328 70.1754 706.114
134.328 76.0234 463.511
134.328 81.8713 463.511
134.328 87.7193 463.511
134.328 93.5673 463.511
134.328 99.4152 465.483
134.328 105.263 366.864
134.328 111.111 173.57
134.328 116.959 173.57
134.328 122.807 173.57
134.328 128.655 222.88
134.328 134.503 303.748
134.328 140.351 303.748
134.328 146.199 303.748
134.328 152.047 222.88
134.328 157.895 222.88
134.328 163.743 224.852
134.328 169.591 224.852
134.328 175.439 224.852
134.328 181.287 175.542
134.328 187.135 175.542
134.328 192.982 175.542
134.328 198.83 366.864
134.328 204.678 366.864
134.328 210.526 368.836
134.328 216.374 368.836
134.328 222.222 368.836
134.328 228.07 224.852
134.328 233.918 226.824
134.328 239.766 226.824
134.328 245.614 228.797
134.328 251.462 228.797
134.328 257.31 228.797
134.328 263.158 309.665
134.328 269.006 309.665
134.328 274.854 311.637
134.328 280.702 228.797
134.328 286.55 228.797
134.328 292.398 228.797
134.328 298.246 230.769
134.328 304.094 230.769
134.328 309.942 230.769
134.328 315.789 230.769
134.328 321.637 230.769
134.328 327.485 230.769
134.328 333.333 475.345
134.328 339.181 637.081
134.328 345.029 475.345
134.328 350.877 230.769
134.328 356.725 228.797
134.328 362.573 230.769
134.328 368.421 228.797
134.328 374.269 471.4
134.328 380.117 471.4
134.328 385.965 631.164
134.328 391.813 469.428
134.328 397.661 469.428
134.328 403.509 467.456
134.328 409.357 467.456
134.328 415.205 467.456
134.328 421.053 465.483
134.328 426.901 467.456
134.328 432.749 228.797
134.328 438.596 226.824
134.328 444.444 228.797
134.328 450.292 222.88
134.328 456.14 240.631
134.328 461.988 232.742
134.328 467.836 228.797
134.328 473.684 723.866
134.328 479.532 812.623
134.328 485.38 536.489
134.328 491.228 230.769
134.328 497.076 82.8402
134.328 502.924 147.929
134.328 508.772 132.15
134.328 514.62 25.641
134.328 520.468 29.5858
134.328 526.316 33.5306
134.328 532.164 27.6134
134.328 538.012 23.6686
134.328 543.86 19.7239
134.328 549.708 19.7239
134.328 555.556 19.7239
134.328 561.404 19.7239
134.328 567.251 19.7239
134.328 573.099 19.7239
134.328 578.947 53.2544
134.328 584.795 21.6963
134.328 590.643 309.665
134.328 596.491 550.296
134.328 602.339 410.256
134.328 608.187 323.471
134.328 614.035 222.88
134.328 619.883 656.805
134.328 625.731 741.617
134.328 631.579 463.511
139.303 46.7836 621.302
139.303 52.6316 623.274
139.303 58.4795 623.274
139.303 64.3275 625.247
139.303 70.1754 625.247
139.303 76.0234 625.247
139.303 81.8713 706.114
139.303 87.7193 463.511
139.303 93.5673 463.511
139.303 99.4152 465.483
139.303 105.263 465.483
139.303 111.111 627.219
139.303 116.959 370.809
139.303 122.807 370.809
139.303 128.655 465.483
139.303 134.503 222.88
139.303 140.351 222.88
139.303 146.199 222.88
139.303 152.047 175.542
139.303 157.895 175.542
139.303 163.743 175.542
139.303 169.591 175.542
139.303 175.439 175.542
139.303 181.287 224.852
139.303 187.135 222.88
139.303 192.982 175.542
139.303 198.83 175.542
139.303 204.678 175.542
139.303 210.526 175.542
139.303 216.374 177.515
139.303 222.222 368.836
139.303 228.07 366.864
139.303 233.918 368.836
139.303 239.766 368.836
139.303 245.614 370.809
139.303 251.462 370.809
139.303 257.31 370.809
139.303 263.158 370.809
139.303 269.006 469.428
139.303 274.854 370.809
139.303 280.702 372.781
139.303 286.55 374.753
139.303 292.398 372.781
139.303 298.246 374.753
139.303 304.094 230.769
139.303 309.942 230.769
139.303 315.789 230.769
139.303 321.637 230.769
139.303 327.485 230.769
139.303 333.333 230.769
139.303 339.181 230.769
139.303 345.029 230.769
139.303 350.877 230.769
139.303 356.725 228.797
139.303 362.573 228.797
139.303 368.421 228.797
139.303 374.269 228.797
139.303 380.117 228.797
139.303 385.965 228.797
139.303 391.813 226.824
139.303 397.661 226.824
139.303 403.509 226.824
139.303 409.357 226.824
139.303 415.205 226.824
139.303 421.053 177.515
139.303 426.901 370.809
139.303 432.749 370.809
139.303 438.596 473.373
139.303 444.444 479.29
139.303 450.292 479.29
139.303 456.14 477.318
139.303 461.988 648.915
139.303 467.836 812.623
139.303 473.684 828.402
139.303 479.532 479.29
139.303 485.38 171.598
139.303 491.228 82.8402
139.303 497.076 112.426
139.303 502.924 98.6193
139.303 508.772 57.1992
139.303 514.62 27.6134
139.303 520.468 27.6134
139.303 526.316 39.4477
139.303 532.164 37.4753
139.303 538.012 31.5582
139.303 543.86 27.6134
139.303 549.708 23.6686
139.303 555.556 23.6686
139.303 561.404 29.5858
139.303 567.251 29.5858
139.303 573.099 35.503
139.303 578.947 72.9783
139.303 584.795 76.9231
139.303 590.643 209.073
139.303 596.491 435.897
139.303 602.339 552.268
139.303 608.187 422.091
139.303 614.035 325.444
139.303 619.883 335.306
139.303 625.731 662.722
139.303 631.579 621.302
139.303 637.427 621.302
144.279 35.0877 463.511
144.279 40.9357 463.511
144.279 46.7836 463.511
144.279 52.6316 621.302
144.279 58.4795 623.274
144.279 64.3275 625.247
144.279 70.1754 625.247
144.279 76.0234 625.247
144.279 81.8713 625.247
144.279 87.7193 625.247
144.279 93.5673 706.114
144.279 99.4152 625.247
144.279 105.263 625.247
144.279 111.111 467.456
144.279 116.959 467.456
144.279 122.807 467.456
144.279 128.655 467.456
144.279 134.503 467.456
144.279 140.351 370.809
144.279 146.199 175.542
144.279 152.047 175.542
144.279 157.895 175.542
144.279 163.743 222.88
144.279 169.591 224.852
144.279 175.439 175.542
144.279 181.287 177.515
144.279 187.135 175.542
144.279 192.982 224.852
144.279 198.83 175.542
144.279 204.678 175.542
144.279 210.526 175.542
144.279 216.374 175.542
144.279 222.222 177.515
144.279 228.07 175.542
144.279 233.918 177.515
144.279 239.766 177.515
144.279 245.614 177.515
144.279 251.462 177.515
144.279 257.31 177.515
144.279 263.158 177.515
144.279 269.006 177.515
144.279 274.854 179.487
144.279 280.702 177.515
144.279 286.55 179.487
144.279 292.398 179.487
144.279 298.246 374.753
144.279 304.094 374.753
144.279 309.942 374.753
144.279 315.789 374.753
144.279 321.637 374.753
144.279 327.485 230.769
144.279 333.333 230.769
144.279 339.181 230.769
144.279 345.029 228.797
144.279 350.877 228.797
144.279 356.725 228.797
144.279 362.573 230.769
144.279 368.421 230.769
144.279 374.269 228.797
144.279 380.117 230.769
144.279 385.965 228.797
144.279 391.813 228.797
144.279 397.661 226.824
144.279 403.509 226.824
144.279 409.357 177.515
144.279 415.205 179.487
144.279 421.053 309.665
144.279 426.901 406.312
144.279 432.749 575.937
144.279 438.596 723.866
144.279 444.444 660.75
144.279 450.292 646.943
144.279 456.14 769.231
144.279 461.988 769.231
144.279 467.836 704.142
144.279 473.684 293.886
144.279 479.532 181.46
144.279 485.38 120.316
144.279 491.228 112.426
144.279 497.076 67.0611
144.279 502.924 27.6134
144.279 508.772 23.6686
144.279 514.62 29.5858
144.279 520.468 33.5306
144.279 526.316 37.4753
144.279 532.164 41.4201
144.279 538.012 33.5306
144.279 543.86 31.5582
144.279 549.708 29.5858
144.279 555.556 29.5858
144.279 561.404 29.5858
144.279 567.251 33.5306
144.279 573.099 37.4753
144.279 578.947 39.4477
144.279 584.795 88.7574
144.279 590.643 179.487
144.279 596.491 384.615
144.279 602.339 536.489
144.279 608.187 526.627
144.279 614.035 426.036
144.279 619.883 362.919
144.279 625.731 526.627
144.279 631.579 465.483
144.279 637.427 700.197
144.279 643.275 623.274
144.279 649.123 463.511
149.254 29.2398 463.511
149.254 35.0877 463.511
149.254 40.9357 463.511
149.254 46.7836 463.511
149.254 52.6316 463.511
149.254 58.4795 463.511
149.254 64.3275 623.274
149.254 70.1754 625.247
149.254 76.0234 625.247
149.254 81.8713 625.247
149.254 87.7193 625.247
149.254 93.5673 625.247
149.254 99.4152 625.247
149.254 105.263 708.087
149.254 111.111 627.219
149.254 116.959 467.456
149.254 122.807 467.456
149.254 128.655 467.456
149.254 134.503 467.456
149.254 140.351 467.456
149.254 146.199 467.456
149.254 152.047 372.781
149.254 157.895 177.515
149.254 163.743 224.852
149.254 169.591 224.852
149.254 175.439 224.852
149.254 181.287 224.852
149.254 187.135 177.515
149.254 192.982 175.542
149.254 198.83 175.542
149.254 204.678 175.542
149.254 210.526 175.542
149.254 216.374 175.542
149.254 222.222 175.542
149.254 228.07 177.515
149.254 233.918 177.515
149.254 239.766 177.515
149.254 245.614 177.515
149.254 251.462 177.515
149.254 257.31 177.515
149.254 263.158 177.515
149.254 269.006 179.487
149.254 274.854 228.797
149.254 280.702 179.487
149.254 286.55 179.487
149.254 292.398 179.487
149.254 298.246 179.487
149.254 304.094 179.487
149.254 309.942 179.487
149.254 315.789 179.487
149.254 321.637 372.781
149.254 327.485 372.781
149.254 333.333 372.781
149.254 339.181 228.797
149.254 345.029 228.797
149.254 350.877 230.769
149.254 356.725 230.769
149.254 362.573 230.769
149.254 368.421 228.797
149.254 374.269 230.769
149.254 380.117 230.769
149.254 385.965 228.797
149.254 391.813 228.797
149.254 397.661 226.824
149.254 403.509 181.46
149.254 409.357 179.487
149.254 415.205 311.637
149.254 421.053 670.611
149.254 426.901 727.811
149.254 432.749 729.783
149.254 438.596 617.357
149.254 444.444 641.026
149.254 450.292 542.406
149.254 456.14 479.29
149.254 461.988 420.118
149.254 467.836 319.527
149.254 473.684 114.398
149.254 479.532 72.9783
149.254 485.38 25.641
149.254 491.228 25.641
149.254 497.076 33.5306
149.254 502.924 27.6134
149.254 508.772 25.641
149.254 514.62 27.6134
149.254 520.468 25.641
149.254 526.316 39.4477
149.254 532.164 35.503
149.254 538.012 33.5306
149.254 543.86 41.4201
149.254 549.708 37.4753
149.254 555.556 37.4753
149.254 561.404 35.503
149.254 567.251 43.3925
149.254 573.099 47.3373
149.254 578.947 41.4201
149.254 584.795 88.7574
149.254 590.643 90.7298
149.254 596.491 104.536
149.254 602.339 289.941
149.254 608.187 522.682
149.254 614.035 550.296
149.254 619.883 629.191
149.254 625.731 420.118
149.254 631.579 400.394
149.254 637.427 536.489
149.254 643.275 627.219
149.254 649.123 700.197
149.254 654.971 625.247
149.254 660.819 463.511
154.229 29.2398 463.511
154.229 35.0877 463.511
154.229 40.9357 463.511
154.229 46.7836 463.511
154.229 52.6316 463.511
154.229 58.4795 463.511
154.229 64.3275 465.483
154.229 70.1754 625.247
154.229 76.0234 625.247
154.229 81.8713 625.247
154.229 87.7193 625.247
154.229 93.5673 625.247
154.229 99.4152 625.247
154.229 105.263 625.247
154.229 111.111 625.247
154.229 116.959 708.087
154.229 122.807 708.087
154.229 128.655 627.219
154.229 134.503 467.456
154.229 140.351 467.456
154.229 146.199 467.456
154.229 152.047 467.456
154.229 157.895 372.781
154.229 163.743 177.515
154.229 169.591 177.515
154.229 175.439 177.515
154.229 181.287 177.515
154.229 187.135 224.852
154.229 192.982 224.852
154.229 198.83 224.852
154.229 204.678 175.542
154.229 210.526 175.542
154.229 216.374 175.542
154.229 222.222 175.542
154.229 228.07 175.542
154.229 233.918 177.515
154.229 239.766 177.515
154.229 245.614 177.515
154.229 251.462 177.515
154.229 257.31 177.515
154.229 263.158 179.487
154.229 269.006 179.487
154.229 274.854 228.797
154.229 280.702 179.487
154.229 286.55 177.515
154.229 292.398 179.487
154.229 298.246 177.515
154.229 304.094 179.487
154.229 309.942 179.487
154.229 315.789 181.46
154.229 321.637 181.46
154.229 327.485 181.46
154.229 333.333 374.753
154.229 339.181 372.781
154.229 345.029 372.781
154.229 350.877 372.781
154.229 356.725 372.781
154.229 362.573 372.781
154.229 368.421 372.781
154.229 374.269 370.809
154.229 380.117 370.809
154.229 385.965 230.769
154.229 391.813 303.748
154.229 397.661 305.72
154.229 403.509 303.748
154.229 409.357 607.495
154.229 415.205 761.341
154.229 421.053 777.12
154.229 426.901 453.649
154.229 432.749 244.576
154.229 438.596 124.26
154.229 444.444 305.72
154.229 450.292 299.803
154.229 456.14 280.079
154.229 461.988 122.288
154.229 467.836 51.2821
154.229 473.684 25.641
154.229 479.532 25.641
154.229 485.38 23.6686
154.229 491.228 33.5306
154.229 497.076 29.5858
154.229 502.924 23.6686
154.229 508.772 23.6686
154.229 514.62 25.641
154.229 520.468 33.5306
154.229 526.316 35.503
154.229 532.164 27.6134
154.229 538.012 35.503
154.229 543.86 43.3925
154.229 549.708 43.3925
154.229 555.556 41.4201
154.229 561.404 37.4753
154.229 567.251 39.4477
154.229 573.099 47.3373
154.229 578.947 41.4201
154.229 584.795 76.9231
154.229 590.643 63.1164
154.229 596.491 57.1992
154.229 602.339 143.984
154.229 608.187 264.3
154.229 614.035 402.367
154.229 619.883 587.771
154.229 625.731 672.584
154.229 631.579 662.722
154.229 637.427 753.452
154.229 643.275 704.142
154.229 649.123 680.473
154.229 654.971 625.247
154.229 660.819 708.087
154.229 666.667 619.329
154.229 672.515 463.511
154.229 678.363 463.511
154.229 684.211 463.511
159.204 11.6959 463.511
159.204 17.5439 463.511
159.204 23.3918 461.538
159.204 29.2398 623.274
159.204 35.0877 621.302
159.204 40.9357 463.511
159.204 46.7836 463.511
159.204 52.6316 463.511
159.204 58.4795 463.511
159.204 64.3275 463.511
159.204 70.1754 463.511
159.204 76.0234 463.511
159.204 81.8713 625.247
159.204 87.7193 625.247
159.204 93.5673 625.247
159.204 99.4152 625.247
159.204 105.263 625.247
159.204 111.111 627.219
159.204 116.959 625.247
159.204 122.807 625.247
159.204 128.655 625.247
159.204 134.503 708.087
159.204 140.351 710.059
159.204 146.199 710.059
159.204 152.047 712.032
159.204 157.895 467.456
159.204 163.743 467.456
159.204 169.591 374.753
159.204 175.439 374.753
159.204 181.287 177.515
159.204 187.135 179.487
159.204 192.982 177.515
159.204 198.83 177.515
159.204 204.678 177.515
159.204 210.526 177.515
159.204 216.374 175.542
159.204 222.222 175.542
159.204 228.07 177.515
159.204 233.918 175.542
159.204 239.766 177.515
159.204 245.614 179.487
159.204 251.462 179.487
159.204 257.31 179.487
159.204 263.158 179.487
159.204 269.006 179.487
159.204 274.854 179.487
159.204 280.702 228.797
159.204 286.55 230.769
159.204 292.398 179.487
159.204 298.246 179.487
159.204 304.094 181.46
159.204 309.942 230.769
159.204 315.789 179.487
159.204 321.637 179.487
159.204 327.485 179.487
159.204 333.333 179.487
159.204 339.181 179.487
159.204 345.029 179.487
159.204 350.877 179.487
159.204 356.725 179.487
159.204 362.573 179.487
159.204 368.421 151.874
159.204 374.269 149.901
159.204 380.117 307.692
159.204 385.965 307.692
159.204 391.813 305.72
159.204 397.661 149.901
159.204 403.509 475.345
159.204 409.357 737.673
159.204 415.205 641.026
159.204 421.053 213.018
159.204 426.901 122.288
159.204 432.749 140.039
159.204 438.596 203.156
159.204 444.444 163.708
159.204 450.292 149.901
159.204 456.14 78.8955
159.204 461.988 63.1164
159.204 467.836 72.9783
159.204 473.684 57.1992
159.204 479.532 49.3097
159.204 485.38 72.9783
159.204 491.228 71.0059
159.204 497.076 25.641
159.204 502.924 21.6963
159.204 508.772 25.641
159.204 514.62 29.5858
159.204 520.468 29.5858
159.204 526.316 29.5858
159.204 532.164 21.6963
159.204 538.012 55.2268
159.204 543.86 63.1164
159.204 549.708 80.8679
159.204 555.556 65.0888
159.204 561.404 35.503
159.204 567.251 41.4201
159.204 573.099 43.3925
159.204 578.947 39.4477
159.204 584.795 65.0888
159.204 590.643 25.641
159.204 596.491 55.2268
159.204 602.339 61.144
159.204 608.187 41.4201
159.204 614.035 222.88
159.204 619.883 388.56
159.204 625.731 368.836
159.204 631.579 244.576
159.204 637.427 609.467
159.204 643.275 714.004
159.204 649.123 743.59
159.204 654.971 743.59
159.204 660.819 714.004
159.204 666.667 672.584
159.204 672.515 562.13
159.204 678.363 617.357
159.204 684.211 463.511
159.204 690.058 463.511
164.179 5.84795 463.511
164.179 11.6959 463.511
164.179 17.5439 463.511
164.179 23.3918 461.538
164.179 29.2398 623.274
164.179 35.0877 623.274
164.179 40.9357 623.274
164.179 46.7836 623.274
164.179 52.6316 623.274
164.179 58.4795 621.302
164.179 64.3275 621.302
164.179 70.1754 623.274
164.179 76.0234 623.274
164.179 81.8713 625.247
164.179 87.7193 625.247
164.179 93.5673 706.114
164.179 99.4152 706.114
164.179 105.263 706.114
164.179 111.111 625.247
164.179 116.959 625.247
164.179 122.807 625.247
164.179 128.655 625.247
164.179 134.503 625.247
164.179 140.351 627.219
164.179 146.199 627.219
164.179 152.047 629.191
164.179 157.895 629.191
164.179 163.743 714.004
164.179 169.591 467.456
164.179 175.439 467.456
164.179 181.287 467.456
164.179 187.135 372.781
164.179 192.982 175.542
164.179 198.83 175.542
164.179 204.678 177.515
164.179 210.526 175.542
164.179 216.374 175.542
164.179 222.222 177.515
164.179 228.07 177.515
164.179 233.918 177.515
164.179 239.766 177.515
164.179 245.614 179.487
164.179 251.462 177.515
164.179 257.31 177.515
164.179 263.158 179.487
164.179 269.006 179.487
164.179 274.854 181.46
164.179 280.702 228.797
164.179 286.55 230.769
164.179 292.398 228.797
164.179 298.246 228.797
164.179 304.094 228.797
164.179 309.942 179.487
164.179 315.789 179.487
164.179 321.637 179.487
164.179 327.485 179.487
164.179 333.333 179.487
164.179 339.181 179.487
164.179 345.029 179.487
164.179 350.877 181.46
164.179 356.725 149.901
164.179 362.573 149.901
164.179 368.421 149.901
164.179 374.269 149.901
164.179 380.117 149.901
164.179 385.965 147.929
164.179 391.813 145.957
164.179 397.661 147.929
164.179 403.509 723.866
164.179 409.357 607.495
164.179 415.205 136.095
164.179 421.053 92.7022
164.179 426.901 216.963
164.179 432.749 171.598
164.179 438.596 106.509
164.179 444.444 23.6686
164.179 450.292 21.6963
164.179 456.14 23.6686
164.179 461.988 21.6963
164.179 467.836 21.6963
164.179 473.684 29.5858
164.179 479.532 29.5858
164.179 485.38 25.641
164.179 491.228 59.1716
164.179 497.076 51.2821
164.179 502.924 51.2821
164.179 508.772 25.641
164.179 514.62 31.5582
164.179 520.468 25.641
164.179 526.316 61.144
164.179 532.164 55.2268
164.179 538.012 49.3097
164.179 543.86 23.6686
164.179 549.708 23.6686
164.179 555.556 57.1992
164.179 561.404 72.9783
164.179 567.251 43.3925
164.179 573.099 51.2821
164.179 578.947 47.3373
164.179 584.795 69.0335
164.179 590.643 29.5858
164.179 596.491 23.6686
164.179 602.339 69.0335
164.179 608.187 80.8679
164.179 614.035 86.785
164.179 619.883 80.8679
164.179 625.731 189.349
164.179 631.579 191.321
164.179 637.427 268.245
164.179 643.275 390.533
164.179 649.123 678.501
164.179 654.971 660.75
164.179 660.819 575.937
164.179 666.667 591.716
164.179 672.515 633.136
164.179 678.363 670.611
164.179 684.211 461.538
164.179 690.058 463.511
164.179 695.906 463.511
169.154 0 463.511
169.154 5.84795 463.511
169.154 11.6959 463.511
169.154 17.5439 463.511
169.154 23.3918 463.511
169.154 29.2398 463.511
169.154 35.0877 623.274
169.154 40.9357 623.274
169.154 46.7836 623.274
169.154 52.6316 623.274
169.154 58.4795 623.274
169.154 64.3275 623.274
169.154 70.1754 623.274
169.154 76.0234 623.274
169.154 81.8713 623.274
169.154 87.7193 623.274
169.154 93.5673 625.247
169.154 99.4152 625.247
169.154 105.263 625.247
169.154 111.111 706.114
169.154 116.959 706.114
169.154 122.807 706.114
169.154 128.655 704.142
169.154 134.503 704.142
169.154 140.351 704.142
169.154 146.199 629.191
169.154 152.047 629.191
169.154 157.895 631.164
169.154 163.743 631.164
169.154 169.591 631.164
169.154 175.439 714.004
169.154 181.287 714.004
169.154 187.135 631.164
169.154 192.982 631.164
169.154 198.83 469.428
169.154 204.678 177.515
169.154 210.526 175.542
169.154 216.374 179.487
169.154 222.222 145.957
169.154 228.07 145.957
169.154 233.918 177.515
169.154 239.766 177.515
169.154 245.614 179.487
169.154 251.462 147.929
169.154 257.31 179.487
169.154 263.158 179.487
169.154 269.006 179.487
169.154 274.854 179.487
169.154 280.702 179.487
169.154 286.55 228.797
169.154 292.398 228.797
169.154 298.246 179.487
169.154 304.094 179.487
169.154 309.942 179.487
169.154 315.789 179.487
169.154 321.637 179.487
169.154 327.485 179.487
169.154 333.333 179.487
169.154 339.181 179.487
169.154 345.029 149.901
169.154 350.877 149.901
169.154 356.725 149.901
169.154 362.573 149.901
169.154 368.421 149.901
169.154 374.269 149.901
169.154 380.117 149.901
169.154 385.965 147.929
169.154 391.813 145.957
169.154 397.661 560.158
169.154 403.509 712.032
169.154 409.357 252.465
169.154 415.205 136.095
169.154 421.053 195.266
169.154 426.901 228.797
169.154 432.749 130.178
169.154 438.596 29.5858
169.154 444.444 23.6686
169.154 450.292 23.6686
169.154 456.14 23.6686
169.154 461.988 25.641
169.154 467.836 27.6134
169.154 473.684 31.5582
169.154 479.532 21.6963
169.154 485.38 23.6686
169.154 491.228 21.6963
169.154 497.076 21.6963
169.154 502.924 49.3097
169.154 508.772 55.2268
169.154 514.62 53.2544
169.154 520.468 49.3097
169.154 526.316 61.144
169.154 532.164 25.641
169.154 538.012 19.7239
169.154 543.86 21.6963
169.154 549.708 23.6686
169.154 555.556 23.6686
169.154 561.404 63.1164
169.154 567.251 92.7022
169.154 573.099 51.2821
169.154 578.947 51.2821
169.154 584.795 69.0335
169.154 590.643 76.9231
169.154 596.491 25.641
169.154 602.339 25.641
169.154 608.187 37.4753
169.154 614.035 71.0059
169.154 619.883 69.0335
169.154 625.731 96.6469
169.154 631.579 29.5858
169.154 637.427 118.343
169.154 643.275 132.15
169.154 649.123 357.002
169.154 654.971 660.75
169.154 660.819 644.97
169.154 666.667 433.925
169.154 672.515 353.057
169.154 678.363 591.716
169.154 684.211 670.611
169.154 690.058 558.185
169.154 695.906 700.197
169.154 701.754 463.511
174.129 0 463.511
174.129 5.84795 463.511
174.129 11.6959 463.511
174.129 17.5439 463.511
174.129 23.3918 463.511
174.129 29.2398 463.511
174.129 35.0877 463.511
174.129 40.9357 463.511
174.129 46.7836 623.274
174.129 52.6316 623.274
174.129 58.4795 623.274
174.129 64.3275 623.274
174.129 70.1754 623.274
174.129 76.0234 623.274
174.129 81.8713 623.274
174.129 87.7193 623.274
174.129 93.5673 623.274
174.129 99.4152 623.274
174.129 105.263 623.274
174.129 111.111 623.274
174.129 116.959 625.247
174.129 122.807 625.247
174.129 128.655 625.247
174.129 134.503 625.247
174.129 140.351 706.114
174.129 146.199 706.114
174.129 152.047 706.114
174.129 157.895 631.164
174.129 163.743 629.191
174.129 169.591 629.191
174.129 175.439 629.191
174.129 181.287 629.191
174.129 187.135 629.191
174.129 192.982 714.004
174.129 198.83 714.004
174.129 204.678 467.456
174.129 210.526 372.781
174.129 216.374 143.984
174.129 222.222 145.957
174.129 228.07 145.957
174.129 233.918 179.487
174.129 239.766 145.957
174.129 245.614 145.957
174.129 251.462 258.383
174.129 257.31 305.72
174.129 263.158 305.72
174.129 269.006 305.72
174.129 274.854 305.72
174.129 280.702 179.487
174.129 286.55 181.46
174.129 292.398 179.487
174.129 298.246 179.487
174.129 304.094 179.487
174.129 309.942 179.487
174.129 315.789 179.487
174.129 321.637 179.487
174.129 327.485 179.487
174.129 333.333 179.487
174.129 339.181 149.901
174.129 345.029 149.901
174.129 350.877 151.874
174.129 356.725 149.901
174.129 362.573 149.901
174.129 368.421 149.901
174.129 374.269 151.874
174.129 380.117 149.901
174.129 385.965 147.929
174.129 391.813 145.957
174.129 397.661 698.225
174.129 403.509 623.274
174.129 409.357 228.797
174.129 415.205 147.929
174.129 421.053 248.521
174.129 426.901 124.26
174.129 432.749 122.288
174.129 438.596 41.4201
174.129 444.444 31.5582
174.129 450.292 47.3373
174.129 456.14 31.5582
174.129 461.988 31.5582
174.129 467.836 25.641
174.129 473.684 23.6686
174.129 479.532 23.6686
174.129 485.38 21.6963
174.129 491.228 17.7515
174.129 497.076 21.6963
174.129 502.924 21.6963
174.129 508.772 21.6963
174.129 514.62 19.7239
174.129 520.468 23.6686
174.129 526.316 25.641
174.129 532.164 31.5582
174.129 538.012 27.6134
174.129 543.86 21.6963
174.129 549.708 19.7239
174.129 555.556 19.7239
174.129 561.404 23.6686
174.129 567.251 65.0888
174.129 573.099 39.4477
174.129 578.947 39.4477
174.129 584.795 33.5306
174.129 590.643 65.0888
174.129 596.491 72.9783
174.129 602.339 27.6134
174.129 608.187 27.6134
174.129 614.035 31.5582
174.129 619.883 37.4753
174.129 625.731 74.9507
174.129 631.579 69.0335
174.129 637.427 29.5858
174.129 643.275 31.5582
174.129 649.123 98.6193
174.129 654.971 313.609
174.129 660.819 587.771
174.129 666.667 658.777
174.129 672.515 473.373
174.129 678.363 351.085
174.129 684.211 469.428
174.129 690.058 534.517
174.129 695.906 558.185
174.129 701.754 700.197
174.129 707.602 463.511
179.104 5.84795 463.511
179.104 11.6959 463.511
179.104 17.5439 463.511
179.104 23.3918 463.511
179.104 29.2398 463.511
179.104 35.0877 463.511
179.104 40.9357 463.511
179.104 46.7836 463.511
179.104 52.6316 463.511
179.104 58.4795 623.274
179.104 64.3275 623.274
179.104 70.1754 623.274
179.104 76.0234 623.274
179.104 81.8713 623.274
179.104 87.7193 463.511
179.104 93.5673 463.511
179.104 99.4152 463.511
179.104 105.263 463.511
179.104 111.111 463.511
179.104 116.959 463.511
179.104 122.807 463.511
179.104 128.655 625.247
179.104 134.503 625.247
179.104 140.351 625.247
179.104 146.199 467.456
179.104 152.047 708.087
179.104 157.895 708.087
179.104 163.743 706.114
179.104 169.591 564.103
179.104 175.439 564.103
179.104 181.287 562.13
179.104 187.135 467.456
179.104 192.982 631.164
179.104 198.83 631.164
179.104 204.678 469.428
179.104 210.526 715.976
179.104 216.374 374.753
179.104 222.222 179.487
179.104 228.07 179.487
179.104 233.918 305.72
179.104 239.766 305.72
179.104 245.614 260.355
179.104 251.462 260.355
179.104 257.31 147.929
179.104 263.158 147.929
179.104 269.006 147.929
179.104 274.854 260.355
179.104 280.702 262.327
179.104 286.55 262.327
179.104 292.398 262.327
179.104 298.246 260.355
179.104 304.094 262.327
179.104 309.942 149.901
179.104 315.789 147.929
179.104 321.637 147.929
179.104 327.485 149.901
179.104 333.333 149.901
179.104 339.181 149.901
179.104 345.029 149.901
179.104 350.877 151.874
179.104 356.725 149.901
179.104 362.573 151.874
179.104 368.421 149.901
179.104 374.269 149.901
179.104 380.117 149.901
179.104 385.965 124.26
179.104 391.813 518.738
179.104 397.661 688.363
179.104 403.509 331.361
179.104 409.357 177.515
179.104 415.205 284.024
179.104 421.053 262.327
179.104 426.901 112.426
179.104 432.749 112.426
179.104 438.596 43.3925
179.104 444.444 29.5858
179.104 450.292 29.5858
179.104 456.14 23.6686
179.104 461.988 19.7239
179.104 467.836 19.7239
179.104 473.684 19.7239
179.104 479.532 19.7239
179.104 485.38 17.7515
179.104 491.228 19.7239
179.104 497.076 19.7239
179.104 502.924 19.7239
179.104 508.772 19.7239
179.104 514.62 27.6134
179.104 520.468 25.641
179.104 526.316 31.5582
179.104 532.164 35.503
179.104 538.012 35.503
179.104 543.86 31.5582
179.104 549.708 23.6686
179.104 555.556 19.7239
179.104 561.404 21.6963
179.104 567.251 55.2268
179.104 573.099 31.5582
179.104 578.947 33.5306
179.104 584.795 31.5582
179.104 590.643 27.6134
179.104 596.491 76.9231
179.104 602.339 86.785
179.104 608.187 63.1164
179.104 614.035 23.6686
179.104 619.883 27.6134
179.104 625.731 33.5306
179.104 631.579 76.9231
179.104 637.427 76.9231
179.104 643.275 35.503
179.104 649.123 63.1164
179.104 654.971 78.8955
179.104 660.819 287.968
179.104 666.667 599.606
179.104 672.515 672.584
179.104 678.363 390.533
179.104 684.211 351.085
179.104 690.058 396.45
179.104 695.906 461.538
179.104 701.754 459.566
179.104 707.602 700.197
179.104 713.45 463.511
184.08 5.84795 463.511
184.08 11.6959 463.511
184.08 17.5439 463.511
184.08 23.3918 463.511
184.08 29.2398 463.511
184.08 35.0877 463.511
184.08 40.9357 463.511
184.08 46.7836 463.511
184.08 52.6316 463.511
184.08 58.4795 463.511
184.08 64.3275 463.511
184.08 70.1754 463.511
184.08 76.0234 463.511
184.08 81.8713 463.511
184.08 87.7193 463.511
184.08 93.5673 463.511
184.08 99.4152 463.511
184.08 105.263 463.511
184.08 111.111 463.511
184.08 116.959 463.511
184.08 122.807 463.511
184.08 128.655 463.511
184.08 134.503 463.511
184.08 140.351 463.511
184.08 146.199 625.247
184.08 152.047 627.219
184.08 157.895 566.075
184.08 163.743 566.075
184.08 169.591 566.075
184.08 175.439 564.103
184.08 181.287 757.396
184.08 187.135 759.369
184.08 192.982 761.341
184.08 198.83 715.976
184.08 204.678 715.976
184.08 210.526 761.341
184.08 216.374 763.314
184.08 222.222 633.136
184.08 228.07 542.406
184.08 233.918 402.367
184.08 239.766 179.487
184.08 245.614 147.929
184.08 251.462 179.487
184.08 257.31 177.515
184.08 263.158 177.515
184.08 269.006 122.288
184.08 274.854 145.957
184.08 280.702 145.957
184.08 286.55 147.929
184.08 292.398 145.957
184.08 298.246 147.929
184.08 304.094 262.327
184.08 309.942 262.327
184.08 315.789 262.327
184.08 321.637 264.3
184.08 327.485 149.901
184.08 333.333 262.327
184.08 339.181 262.327
184.08 345.029 262.327
184.08 350.877 264.3
184.08 356.725 264.3
184.08 362.573 264.3
184.08 368.421 262.327
184.08 374.269 228.797
184.08 380.117 260.355
184.08 385.965 224.852
184.08 391.813 546.351
184.08 397.661 502.959
184.08 403.509 179.487
184.08 409.357 157.791
184.08 415.205 195.266
184.08 421.053 98.6193
184.08 426.901 71.0059
184.08 432.749 80.8679
184.08 438.596 19.7239
184.08 444.444 19.7239
184.08 450.292 19.7239
184.08 456.14 17.7515
184.08 461.988 17.7515
184.08 467.836 17.7515
184.08 473.684 15.7791
184.08 479.532 21.6963
184.08 485.38 23.6686
184.08 491.228 21.6963
184.08 497.076 21.6963
184.08 502.924 19.7239
184.08 508.772 25.641
184.08 514.62 25.641
184.08 520.468 27.6134
184.08 526.316 41.4201
184.08 532.164 41.4201
184.08 538.012 37.4753
184.08 543.86 35.503
184.08 549.708 25.641
184.08 555.556 21.6963
184.08 561.404 19.7239
184.08 567.251 57.1992
184.08 573.099 21.6963
184.08 578.947 31.5582
184.08 584.795 29.5858
184.08 590.643 19.7239
184.08 596.491 27.6134
184.08 602.339 45.3649
184.08 608.187 80.8679
184.08 614.035 65.0888
184.08 619.883 27.6134
184.08 625.731 25.641
184.08 631.579 29.5858
184.08 637.427 82.8402
184.08 643.275 94.6746
184.08 649.123 57.1992
184.08 654.971 69.0335
184.08 660.819 78.8955
184.08 666.667 252.465
184.08 672.515 617.357
184.08 678.363 672.584
184.08 684.211 422.091
184.08 690.058 351.085
184.08 695.906 534.517
184.08 701.754 362.919
184.08 707.602 459.566
184.08 713.45 700.197
184.08 719.298 463.511
189.055 11.6959 463.511
189.055 17.5439 463.511
189.055 23.3918 463.511
189.055 29.2398 463.511
189.055 35.0877 463.511
189.055 40.9357 463.511
189.055 46.7836 463.511
189.055 52.6316 463.511
189.055 58.4795 463.511
189.055 64.3275 463.511
189.055 70.1754 463.511
189.055 76.0234 463.511
189.055 81.8713 463.511
189.055 87.7193 463.511
189.055 93.5673 463.511
189.055 99.4152 463.511
189.055 105.263 463.511
189.055 111.111 463.511
189.055 116.959 463.511
189.055 122.807 463.511
189.055 128.655 463.511
189.055 134.503 463.511
189.055 140.351 463.511
189.055 146.199 463.511
189.055 152.047 625.247
189.055 157.895 625.247
189.055 163.743 625.247
189.055 169.591 627.219
189.055 175.439 627.219
189.055 181.287 627.219
189.055 187.135 467.456
189.055 192.982 710.059
189.055 198.83 710.059
189.055 204.678 710.059
189.055 210.526 710.059
189.055 216.374 471.4
189.055 222.222 473.373
189.055 228.07 573.964
189.055 233.918 372.781
189.055 239.766 571.992
189.055 245.614 311.637
189.055 251.462 145.957
189.055 257.31 179.487
189.055 263.158 145.957
189.055 269.006 122.288
189.055 274.854 122.288
189.055 280.702 145.957
189.055 286.55 147.929
189.055 292.398 147.929
189.055 298.246 147.929
189.055 304.094 147.929
189.055 309.942 147.929
189.055 315.789 149.901
189.055 321.637 264.3
189.055 327.485 264.3
189.055 333.333 262.327
189.055 339.181 126.233
189.055 345.029 149.901
189.055 350.877 151.874
189.055 356.725 149.901
189.055 362.573 149.901
189.055 368.421 108.481
189.055 374.269 108.481
189.055 380.117 108.481
189.055 385.965 343.195
189.055 391.813 629.191
189.055 397.661 451.677
189.055 403.509 167.653
189.055 409.357 157.791
189.055 415.205 80.8679
189.055 421.053 21.6963
189.055 426.901 21.6963
189.055 432.749 74.9507
189.055 438.596 47.3373
189.055 444.444 19.7239
189.055 450.292 19.7239
189.055 456.14 17.7515
189.055 461.988 15.7791
189.055 467.836 15.7791
189.055 473.684 15.7791
189.055 479.532 17.7515
189.055 485.38 17.7515
189.055 491.228 17.7515
189.055 497.076 17.7515
189.055 502.924 19.7239
189.055 508.772 23.6686
189.055 514.62 23.6686
189.055 520.468 27.6134
189.055 526.316 27.6134
189.055 532.164 31.5582
189.055 538.012 29.5858
189.055 543.86 33.5306
189.055 549.708 33.5306
189.055 555.556 21.6963
189.055 561.404 23.6686
189.055 567.251 49.3097
189.055 573.099 55.2268
189.055 578.947 27.6134
189.055 584.795 33.5306
189.055 590.643 25.641
189.055 596.491 21.6963
189.055 602.339 27.6134
189.055 608.187 37.4753
189.055 614.035 98.6193
189.055 619.883 76.9231
189.055 625.731 27.6134
189.055 631.579 29.5858
189.055 637.427 25.641
189.055 643.275 72.9783
189.055 649.123 86.785
189.055 654.971 47.3373
189.055 660.819 43.3925
189.055 666.667 71.0059
189.055 672.515 252.465
189.055 678.363 704.142
189.055 684.211 658.777
189.055 690.058 378.698
189.055 695.906 351.085
189.055 701.754 463.511
189.055 707.602 222.88
189.055 713.45 459.566
189.055 719.298 700.197
189.055 725.146 463.511
194.03 17.5439 463.511
194.03 23.3918 463.511
194.03 29.2398 463.511
194.03 35.0877 463.511
194.03 40.9357 463.511
194.03 46.7836 463.511
194.03 52.6316 463.511
194.03 58.4795 463.511
194.03 64.3275 463.511
194.03 70.1754 463.511
194.03 76.0234 463.511
194.03 81.8713 463.511
194.03 87.7193 463.511
194.03 93.5673 463.511
194.03 99.4152 463.511
194.03 105.263 463.511
194.03 111.111 463.511
194.03 116.959 463.511
194.03 122.807 463.511
194.03 128.655 463.511
194.03 134.503 463.511
194.03 140.351 625.247
194.03 146.199 625.247
194.03 152.047 625.247
194.03 157.895 625.247
194.03 163.743 627.219
194.03 169.591 627.219
194.03 175.439 629.191
194.03 181.287 629.191
194.03 187.135 631.164
194.03 192.982 467.456
194.03 198.83 471.4
194.03 204.678 471.4
194.03 210.526 471.4
194.03 216.374 473.373
194.03 222.222 473.373
194.03 228.07 473.373
194.03 233.918 571.992
194.03 239.766 374.753
194.03 245.614 473.373
194.03 251.462 573.964
194.03 257.31 311.637
194.03 263.158 145.957
194.03 269.006 122.288
194.03 274.854 122.288
194.03 280.702 124.26
194.03 286.55 147.929
194.03 292.398 147.929
194.03 298.246 147.929
194.03 304.094 147.929
194.03 309.942 147.929
194.03 315.789 149.901
194.03 321.637 147.929
194.03 327.485 149.901
194.03 333.333 151.874
194.03 339.181 149.901
194.03 345.029 149.901
194.03 350.877 149.901
194.03 356.725 126.233
194.03 362.573 126.233
194.03 368.421 108.481
194.03 374.269 108.481
194.03 380.117 108.481
194.03 385.965 587.771
194.03 391.813 548.323
194.03 397.661 167.653
194.03 403.509 114.398
194.03 409.357 132.15
194.03 415.205 69.0335
194.03 421.053 19.7239
194.03 426.901 17.7515
194.03 432.749 45.3649
194.03 438.596 47.3373
194.03 444.444 19.7239
194.03 450.292 15.7791
194.03 456.14 17.7515
194.03 461.988 17.7515
194.03 467.836 19.7239
194.03 473.684 17.7515
194.03 479.532 15.7791
194.03 485.38 17.7515
194.03 491.228 19.7239
194.03 497.076 17.7515
194.03 502.924 21.6963
194.03 508.772 29.5858
194.03 514.62 31.5582
194.03 520.468 27.6134
194.03 526.316 25.641
194.03 532.164 29.5858
194.03 538.012 29.5858
194.03 543.86 35.503
194.03 549.708 45.3649
194.03 555.556 41.4201
194.03 561.404 25.641
194.03 567.251 23.6686
194.03 573.099 55.2268
194.03 578.947 21.6963
194.03 584.795 23.6686
194.03 590.643 29.5858
194.03 596.491 25.641
194.03 602.339 21.6963
194.03 608.187 23.6686
194.03 614.035 29.5858
194.03 619.883 98.6193
194.03 625.731 82.8402
194.03 631.579 35.503
194.03 637.427 29.5858
194.03 643.275 27.6134
194.03 649.123 61.144
194.03 654.971 29.5858
194.03 660.819 39.4477
194.03 666.667 39.4477
194.03 672.515 71.0059
194.03 678.363 287.968
194.03 684.211 658.777
194.03 690.058 343.195
194.03 695.906 420.118
194.03 701.754 396.45
194.03 707.602 463.511
194.03 713.45 222.88
194.03 719.298 459.566
194.03 725.146 627.219
199.005 23.3918 463.511
199.005 29.2398 463.511
199.005 35.0877 463.511
199.005 40.9357 463.511
199.005 46.7836 463.511
199.005 52.6316 463.511
199.005 58.4795 463.511
199.005 64.3275 463.511
199.005 70.1754 463.511
199.005 76.0234 463.511
199.005 81.8713 463.511
199.005 87.7193 463.511
199.005 93.5673 463.511
199.005 99.4152 463.511
199.005 105.263 463.511
199.005 111.111 463.511
199.005 116.959 463.511
199.005 122.807 463.511
199.005 128.655 461.538
199.005 134.503 625.247
199.005 140.351 625.247
199.005 146.199 625.247
199.005 152.047 625.247
199.005 157.895 625.247
199.005 163.743 625.247
199.005 169.591 627.219
199.005 175.439 629.191
199.005 181.287 631.164
199.005 187.135 631.164
199.005 192.982 631.164
199.005 198.83 469.428
199.005 204.678 469.428
199.005 210.526 471.4
199.005 216.374 471.4
199.005 222.222 473.373
199.005 228.07 473.373
199.005 233.918 473.373
199.005 239.766 573.964
199.005 245.614 471.4
199.005 251.462 473.373
199.005 257.31 473.373
199.005 263.158 475.345
199.005 269.006 124.26
199.005 274.854 122.288
199.005 280.702 124.26
199.005 286.55 124.26
199.005 292.398 147.929
199.005 298.246 147.929
199.005 304.094 147.929
199.005 309.942 149.901
199.005 315.789 149.901
199.005 321.637 149.901
199.005 327.485 149.901
199.005 333.333 149.901
199.005 339.181 149.901
199.005 345.029 149.901
199.005 350.877 126.233
199.005 356.725 126.233
199.005 362.573 126.233
199.005 368.421 110.454
199.005 374.269 108.481
199.005 380.117 512.821
199.005 385.965 631.164
199.005 391.813 230.769
199.005 397.661 147.929
199.005 403.509 86.785
199.005 409.357 102.564
199.005 415.205 21.6963
199.005 421.053 19.7239
199.005 426.901 17.7515
199.005 432.749 49.3097
199.005 438.596 53.2544
199.005 444.444 19.7239
199.005 450.292 19.7239
199.005 456.14 21.6963
199.005 461.988 19.7239
199.005 467.836 17.7515
199.005 473.684 17.7515
199.005 479.532 17.7515
199.005 485.38 27.6134
199.005 491.228 31.5582
199.005 497.076 39.4477
199.005 502.924 37.4753
199.005 508.772 37.4753
199.005 514.62 33.5306
199.005 520.468 29.5858
199.005 526.316 33.5306
199.005 532.164 37.4753
199.005 538.012 37.4753
199.005 543.86 37.4753
199.005 549.708 39.4477
199.005 555.556 37.4753
199.005 561.404 41.4201
199.005 567.251 29.5858
199.005 573.099 63.1164
199.005 578.947 55.2268
199.005 584.795 49.3097
199.005 590.643 23.6686
199.005 596.491 27.6134
199.005 602.339 21.6963
199.005 608.187 21.6963
199.005 614.035 21.6963
199.005 619.883 31.5582
199.005 625.731 78.8955
