659.898 717.391 136.612
659.898 728.261 393.443
659.898 739.13 136.612
659.898 750 136.612
659.898 760.87 398.907
659.898 771.739 158.47
659.898 782.609 131.148
659.898 793.478 76.5027
659.898 804.348 229.508
664.975 206.522 524.59
664.975 217.391 562.842
664.975 228.261 519.126
664.975 239.13 284.153
664.975 250 426.23
664.975 260.87 284.153
664.975 271.739 426.23
664.975 282.609 284.153
664.975 293.478 459.016
664.975 304.348 519.126
664.975 315.217 601.093
664.975 326.087 557.377
664.975 336.957 508.197
664.975 347.826 371.585
664.975 358.696 377.049
664.975 369.565 377.049
664.975 380.435 377.049
664.975 391.304 377.049
664.975 402.174 377.049
664.975 413.043 322.404
664.975 423.913 344.262
664.975 434.783 377.049
664.975 445.652 327.869
664.975 456.522 311.475
664.975 467.391 306.011
664.975 478.261 306.011
664.975 489.13 333.333
664.975 500 333.333
664.975 510.87 338.798
664.975 521.739 382.514
664.975 532.609 502.732
664.975 543.478 513.661
664.975 554.348 486.339
664.975 565.217 606.557
664.975 576.087 502.732
664.975 586.957 530.055
664.975 597.826 480.874
664.975 608.696 316.94
664.975 619.565 142.077
664.975 630.435 125.683
664.975 641.304 366.12
664.975 652.174 371.585
664.975 663.043 131.148
664.975 673.913 377.049
664.975 684.783 136.612
664.975 695.652 234.973
664.975 706.522 387.978
664.975 717.391 136.612
664.975 728.261 393.443
664.975 739.13 136.612
664.975 750 142.077
664.975 760.87 142.077
664.975 771.739 158.47
664.975 782.609 131.148
664.975 793.478 98.3607
664.975 804.348 136.612
670.051 206.522 557.377
670.051 217.391 579.235
670.051 228.261 502.732
670.051 239.13 338.798
670.051 250 448.087
670.051 260.87 333.333
670.051 271.739 453.552
670.051 282.609 284.153
670.051 293.478 437.158
670.051 304.348 524.59
670.051 315.217 579.235
670.051 326.087 546.448
670.051 336.957 508.197
670.051 347.826 371.585
670.051 358.696 377.049
670.051 369.565 377.049
670.051 380.435 377.049
670.051 391.304 377.049
670.051 402.174 377.049
670.051 413.043 322.404
670.051 423.913 333.333
670.051 434.783 464.481
670.051 445.652 431.694
670.051 456.522 371.585
670.051 467.391 306.011
670.051 478.261 306.011
670.051 489.13 338.798
670.051 500 377.049
670.051 510.87 404.372
670.051 521.739 420.765
670.051 532.609 355.191
670.051 543.478 513.661
670.051 554.348 497.268
670.051 565.217 601.093
670.051 576.087 557.377
670.051 586.957 453.552
670.051 597.826 535.519
670.051 608.696 316.94
670.051 619.565 163.934
670.051 630.435 174.863
670.051 641.304 382.514
670.051 652.174 371.585
670.051 663.043 131.148
670.051 673.913 377.049
670.051 684.783 136.612
670.051 695.652 387.978
670.051 706.522 393.443
670.051 717.391 185.792
670.051 728.261 393.443
670.051 739.13 136.612
670.051 750 142.077
670.051 760.87 142.077
670.051 771.739 174.863
670.051 793.478 120.219
670.051 804.348 136.612
675.127 206.522 278.689
675.127 217.391 508.197
675.127 228.261 524.59
675.127 239.13 459.016
675.127 250 284.153
675.127 260.87 387.978
675.127 271.739 284.153
675.127 282.609 289.617
675.127 293.478 469.945
675.127 304.348 508.197
675.127 315.217 557.377
675.127 326.087 546.448
675.127 336.957 508.197
675.127 347.826 371.585
675.127 358.696 377.049
675.127 369.565 377.049
675.127 380.435 377.049
675.127 391.304 377.049
675.127 402.174 377.049
675.127 413.043 316.94
675.127 423.913 333.333
675.127 434.783 486.339
675.127 445.652 497.268
675.127 456.522 404.372
675.127 467.391 349.727
675.127 478.261 382.514
675.127 489.13 344.262
675.127 500 377.049
675.127 510.87 404.372
675.127 521.739 540.984
675.127 532.609 480.874
675.127 543.478 579.235
675.127 554.348 546.448
675.127 565.217 502.732
675.127 576.087 573.77
675.127 586.957 508.197
675.127 597.826 568.306
675.127 608.696 437.158
675.127 619.565 338.798
675.127 630.435 229.508
675.127 641.304 393.443
675.127 652.174 377.049
675.127 663.043 180.328
675.127 673.913 377.049
675.127 684.783 136.612
675.127 695.652 387.978
675.127 706.522 131.148
675.127 717.391 240.437
675.127 728.261 393.443
675.127 739.13 136.612
675.127 750 142.077
675.127 760.87 169.399
675.127 771.739 234.973
675.127 782.609 27.3224
675.127 793.478 174.863
680.203 217.391 595.628
680.203 228.261 508.197
680.203 239.13 524.59
680.203 250 284.153
680.203 260.87 426.23
680.203 271.739 284.153
680.203 282.609 338.798
680.203 293.478 420.765
680.203 304.348 540.984
680.203 315.217 530.055
680.203 326.087 546.448
680.203 336.957 524.59
680.203 347.826 371.585
680.203 358.696 371.585
680.203 369.565 377.049
680.203 380.435 377.049
680.203 391.304 377.049
680.203 402.174 316.94
680.203 413.043 316.94
680.203 423.913 338.798
680.203 434.783 464.481
680.203 445.652 459.016
680.203 456.522 464.481
680.203 467.391 519.126
680.203 478.261 426.23
680.203 489.13 426.23
680.203 500 371.585
680.203 510.87 508.197
680.203 521.739 508.197
680.203 532.609 540.984
680.203 543.478 437.158
680.203 554.348 622.951
680.203 565.217 524.59
680.203 576.087 612.022
680.203 586.957 530.055
680.203 597.826 557.377
680.203 608.696 437.158
680.203 619.565 338.798
680.203 630.435 377.049
680.203 641.304 409.836
680.203 652.174 125.683
680.203 663.043 229.508
680.203 673.913 377.049
680.203 684.783 136.612
680.203 695.652 387.978
680.203 706.522 131.148
680.203 717.391 387.978
680.203 728.261 387.978
680.203 739.13 142.077
680.203 750 163.934
680.203 760.87 174.863
680.203 771.739 191.257
680.203 782.609 49.1803
680.203 793.478 174.863
685.279 217.391 617.486
685.279 228.261 502.732
685.279 239.13 502.732
685.279 250 338.798
685.279 260.87 453.552
685.279 271.739 284.153
685.279 282.609 338.798
685.279 293.478 426.23
685.279 304.348 464.481
685.279 315.217 524.59
685.279 326.087 546.448
685.279 336.957 562.842
685.279 347.826 377.049
685.279 358.696 371.585
685.279 369.565 377.049
685.279 380.435 377.049
685.279 391.304 377.049
685.279 402.174 316.94
685.279 413.043 316.94
685.279 423.913 322.404
685.279 434.783 459.016
685.279 445.652 453.552
685.279 456.522 459.016
685.279 467.391 524.59
685.279 478.261 420.765
685.279 489.13 486.339
685.279 500 546.448
685.279 510.87 431.694
685.279 521.739 508.197
685.279 532.609 622.951
685.279 543.478 431.694
685.279 554.348 524.59
685.279 565.217 595.628
685.279 576.087 579.235
685.279 586.957 524.59
685.279 597.826 557.377
685.279 608.696 491.803
685.279 619.565 338.798
685.279 630.435 382.514
685.279 641.304 491.803
685.279 652.174 333.333
685.279 663.043 327.869
685.279 673.913 377.049
685.279 684.783 136.612
685.279 695.652 387.978
685.279 706.522 131.148
685.279 717.391 387.978
685.279 728.261 398.907
685.279 739.13 213.115
685.279 750 142.077
685.279 760.87 174.863
685.279 771.739 191.257
685.279 782.609 393.443
685.279 793.478 202.186
690.355 217.391 540.984
690.355 228.261 568.306
690.355 239.13 524.59
690.355 250 459.016
690.355 260.87 284.153
690.355 271.739 284.153
690.355 282.609 382.514
690.355 293.478 453.552
690.355 304.348 491.803
690.355 315.217 540.984
690.355 326.087 513.661
690.355 336.957 540.984
690.355 347.826 415.301
690.355 358.696 377.049
690.355 369.565 377.049
690.355 380.435 377.049
690.355 391.304 377.049
690.355 402.174 316.94
690.355 413.043 311.475
690.355 423.913 311.475
690.355 434.783 453.552
690.355 445.652 442.623
690.355 456.522 382.514
690.355 467.391 546.448
690.355 478.261 469.945
690.355 489.13 535.519
690.355 500 442.623
690.355 510.87 431.694
690.355 521.739 546.448
690.355 532.609 513.661
690.355 543.478 453.552
690.355 554.348 524.59
690.355 565.217 579.235
690.355 576.087 628.415
690.355 586.957 628.415
690.355 597.826 530.055
690.355 608.696 486.339
690.355 619.565 131.148
690.355 630.435 377.049
690.355 641.304 486.339
690.355 652.174 486.339
690.355 663.043 278.689
690.355 673.913 377.049
690.355 684.783 136.612
690.355 695.652 387.978
690.355 706.522 131.148
690.355 717.391 387.978
690.355 728.261 142.077
690.355 739.13 142.077
690.355 750 153.005
690.355 760.87 213.115
690.355 771.739 191.257
690.355 782.609 404.372
690.355 793.478 196.721
695.431 217.391 519.126
695.431 228.261 568.306
695.431 239.13 475.41
695.431 250 459.016
695.431 260.87 284.153
695.431 271.739 382.514
695.431 282.609 453.552
695.431 293.478 284.153
695.431 304.348 437.158
695.431 315.217 530.055
695.431 326.087 464.481
695.431 336.957 464.481
695.431 347.826 453.552
695.431 358.696 377.049
695.431 369.565 377.049
695.431 380.435 377.049
695.431 391.304 377.049
695.431 402.174 306.011
695.431 413.043 300.546
695.431 423.913 311.475
695.431 434.783 344.262
695.431 445.652 442.623
695.431 456.522 398.907
695.431 467.391 448.087
695.431 478.261 491.803
695.431 489.13 420.765
695.431 500 459.016
695.431 510.87 459.016
695.431 521.739 562.842
695.431 532.609 519.126
695.431 543.478 415.301
695.431 554.348 524.59
695.431 565.217 502.732
695.431 576.087 617.486
695.431 586.957 562.842
695.431 597.826 426.23
695.431 608.696 497.268
695.431 619.565 131.148
695.431 630.435 371.585
695.431 641.304 459.016
695.431 652.174 371.585
695.431 663.043 131.148
695.431 673.913 377.049
695.431 684.783 136.612
695.431 695.652 387.978
695.431 706.522 131.148
695.431 717.391 398.907
695.431 728.261 191.257
695.431 739.13 142.077
695.431 750 174.863
695.431 760.87 169.399
695.431 771.739 142.077
695.431 782.609 180.328
700.508 217.391 524.59
700.508 228.261 524.59
700.508 239.13 502.732
700.508 250 486.339
700.508 260.87 284.153
700.508 271.739 426.23
700.508 282.609 284.153
700.508 293.478 289.617
700.508 304.348 540.984
700.508 315.217 524.59
700.508 326.087 415.301
700.508 336.957 404.372
700.508 347.826 464.481
700.508 358.696 377.049
700.508 369.565 377.049
700.508 380.435 377.049
700.508 391.304 377.049
700.508 402.174 300.546
700.508 413.043 300.546
700.508 423.913 306.011
700.508 434.783 442.623
700.508 445.652 415.301
700.508 456.522 371.585
700.508 467.391 420.765
700.508 478.261 508.197
700.508 489.13 415.301
700.508 500 568.306
700.508 510.87 459.016
700.508 521.739 524.59
700.508 532.609 508.197
700.508 543.478 415.301
700.508 554.348 524.59
700.508 565.217 502.732
700.508 576.087 650.273
700.508 586.957 568.306
700.508 597.826 508.197
700.508 608.696 535.519
700.508 619.565 131.148
700.508 630.435 366.12
700.508 641.304 431.694
700.508 652.174 371.585
700.508 663.043 131.148
700.508 673.913 377.049
700.508 684.783 136.612
700.508 695.652 387.978
700.508 706.522 142.077
700.508 717.391 131.148
700.508 728.261 251.366
700.508 739.13 207.65
700.508 750 158.47
700.508 760.87 142.077
700.508 771.739 147.541
700.508 782.609 240.437
705.584 217.391 513.661
705.584 228.261 540.984
705.584 239.13 530.055
705.584 250 497.268
705.584 260.87 284.153
705.584 271.739 426.23
705.584 282.609 284.153
705.584 293.478 338.798
705.584 304.348 557.377
705.584 315.217 562.842
705.584 326.087 442.623
705.584 336.957 404.372
705.584 347.826 459.016
705.584 358.696 377.049
705.584 369.565 377.049
705.584 380.435 377.049
705.584 391.304 300.546
705.584 402.174 295.082
705.584 413.043 300.546
705.584 423.913 306.011
705.584 434.783 442.623
705.584 445.652 382.514
705.584 456.522 519.126
705.584 467.391 409.836
705.584 478.261 508.197
705.584 489.13 431.694
705.584 500 448.087
705.584 510.87 524.59
705.584 521.739 535.519
705.584 532.609 491.803
705.584 543.478 415.301
705.584 554.348 524.59
705.584 565.217 420.765
705.584 576.087 633.88
705.584 586.957 584.699
705.584 597.826 546.448
705.584 608.696 480.874
705.584 619.565 131.148
705.584 630.435 366.12
705.584 641.304 371.585
705.584 652.174 371.585
705.584 663.043 131.148
705.584 673.913 377.049
705.584 684.783 136.612
705.584 695.652 387.978
705.584 706.522 136.612
705.584 717.391 142.077
705.584 728.261 136.612
705.584 739.13 142.077
705.584 750 191.257
705.584 760.87 180.328
705.584 771.739 87.4317
705.584 782.609 213.115
710.66 228.261 519.126
710.66 239.13 530.055
710.66 250 486.339
710.66 260.87 284.153
710.66 271.739 464.481
710.66 282.609 284.153
710.66 293.478 300.546
710.66 304.348 579.235
710.66 315.217 584.699
710.66 326.087 382.514
710.66 336.957 355.191
710.66 347.826 377.049
710.66 358.696 377.049
710.66 369.565 377.049
710.66 380.435 300.546
710.66 391.304 300.546
710.66 402.174 295.082
710.66 413.043 300.546
710.66 423.913 295.082
710.66 434.783 349.727
710.66 445.652 349.727
710.66 456.522 530.055
710.66 467.391 404.372
710.66 478.261 508.197
710.66 489.13 486.339
710.66 500 502.732
710.66 510.87 551.913
710.66 521.739 442.623
710.66 532.609 491.803
710.66 543.478 415.301
710.66 554.348 524.59
710.66 565.217 420.765
710.66 576.087 628.415
710.66 586.957 568.306
710.66 597.826 557.377
710.66 608.696 480.874
710.66 619.565 131.148
710.66 630.435 366.12
710.66 641.304 366.12
710.66 652.174 377.049
710.66 663.043 180.328
710.66 673.913 377.049
710.66 684.783 136.612
710.66 695.652 387.978
710.66 706.522 142.077
710.66 717.391 136.612
710.66 728.261 142.077
710.66 739.13 169.399
710.66 750 273.224
710.66 760.87 131.148
710.66 771.739 147.541
715.736 228.261 573.77
715.736 239.13 557.377
715.736 250 486.339
715.736 260.87 284.153
715.736 271.739 464.481
715.736 282.609 284.153
715.736 293.478 382.514
715.736 304.348 551.913
715.736 315.217 519.126
715.736 326.087 442.623
715.736 336.957 398.907
715.736 347.826 300.546
715.736 358.696 377.049
715.736 369.565 377.049
715.736 380.435 300.546
715.736 391.304 295.082
715.736 402.174 300.546
715.736 413.043 311.475
715.736 423.913 355.191
715.736 434.783 453.552
715.736 445.652 404.372
715.736 456.522 606.557
715.736 467.391 404.372
715.736 478.261 508.197
715.736 489.13 606.557
715.736 500 442.623
715.736 510.87 437.158
715.736 521.739 448.087
715.736 532.609 524.59
715.736 543.478 415.301
715.736 554.348 524.59
715.736 565.217 459.016
715.736 576.087 628.415
715.736 586.957 557.377
715.736 597.826 584.699
715.736 608.696 475.41
715.736 619.565 131.148
715.736 630.435 366.12
715.736 641.304 371.585
715.736 652.174 169.399
715.736 663.043 224.044
715.736 673.913 382.514
715.736 684.783 185.792
715.736 695.652 387.978
715.736 706.522 142.077
715.736 717.391 136.612
715.736 728.261 153.005
715.736 739.13 147.541
715.736 750 284.153
715.736 760.87 49.1803
715.736 771.739 158.47
720.812 228.261 382.514
720.812 239.13 475.41
720.812 250 486.339
720.812 260.87 284.153
720.812 271.739 464.481
720.812 282.609 284.153
720.812 293.478 420.765
720.812 304.348 568.306
720.812 315.217 519.126
720.812 326.087 524.59
720.812 336.957 398.907
720.812 347.826 131.148
720.812 358.696 377.049
720.812 369.565 306.011
720.812 380.435 316.94
720.812 391.304 311.475
720.812 402.174 306.011
720.812 413.043 322.404
720.812 423.913 459.016
720.812 434.783 459.016
720.812 445.652 420.765
720.812 456.522 606.557
720.812 467.391 404.372
720.812 478.261 508.197
720.812 489.13 595.628
720.812 500 448.087
720.812 510.87 426.23
720.812 521.739 469.945
720.812 532.609 524.59
720.812 543.478 409.836
720.812 554.348 524.59
720.812 565.217 497.268
720.812 576.087 530.055
720.812 586.957 568.306
720.812 597.826 590.164
720.812 608.696 530.055
720.812 619.565 131.148
720.812 630.435 366.12
720.812 641.304 371.585
720.812 652.174 142.077
720.812 663.043 377.049
720.812 673.913 136.612
720.812 684.783 234.973
720.812 695.652 387.978
720.812 706.522 142.077
720.812 717.391 136.612
720.812 728.261 158.47
720.812 739.13 158.47
720.812 750 213.115
720.812 760.87 27.3224
720.812 771.739 120.219
725.888 239.13 573.77
725.888 250 568.306
725.888 260.87 284.153
725.888 271.739 426.23
725.888 282.609 284.153
725.888 293.478 486.339
725.888 304.348 338.798
725.888 315.217 524.59
725.888 326.087 497.268
725.888 336.957 420.765
725.888 347.826 87.4317
725.888 358.696 267.76
725.888 369.565 191.257
725.888 380.435 256.831
725.888 391.304 224.044
725.888 402.174 322.404
725.888 413.043 322.404
725.888 423.913 453.552
725.888 434.783 469.945
725.888 445.652 404.372
725.888 456.522 606.557
725.888 467.391 404.372
725.888 478.261 508.197
725.888 489.13 480.874
725.888 500 431.694
725.888 510.87 464.481
725.888 521.739 480.874
725.888 532.609 524.59
725.888 543.478 409.836
725.888 554.348 524.59
725.888 565.217 497.268
725.888 576.087 530.055
725.888 586.957 601.093
725.888 597.826 584.699
725.888 608.696 535.519
725.888 619.565 180.328
725.888 630.435 366.12
725.888 641.304 371.585
725.888 652.174 131.148
725.888 663.043 377.049
725.888 673.913 136.612
725.888 684.783 387.978
725.888 695.652 387.978
725.888 706.522 136.612
725.888 717.391 87.4317
725.888 728.261 153.005
725.888 739.13 163.934
725.888 760.87 27.3224
725.888 771.739 158.47
730.964 239.13 612.022
730.964 250 601.093
730.964 260.87 344.262
730.964 271.739 448.087
730.964 282.609 284.153
730.964 293.478 344.262
730.964 304.348 289.617
730.964 315.217 530.055
730.964 326.087 535.519
730.964 336.957 469.945
730.964 347.826 98.3607
730.964 358.696 180.328
730.964 369.565 256.831
730.964 380.435 382.514
730.964 391.304 382.514
730.964 402.174 344.262
730.964 413.043 344.262
730.964 423.913 453.552
730.964 434.783 437.158
730.964 445.652 377.049
730.964 456.522 601.093
730.964 467.391 453.552
730.964 478.261 508.197
730.964 489.13 491.803
730.964 500 437.158
730.964 510.87 502.732
730.964 521.739 404.372
730.964 532.609 519.126
730.964 543.478 415.301
730.964 554.348 524.59
730.964 565.217 497.268
730.964 576.087 530.055
730.964 586.957 595.628
730.964 597.826 568.306
730.964 608.696 546.448
730.964 619.565 229.508
730.964 630.435 366.12
730.964 641.304 371.585
730.964 652.174 131.148
730.964 663.043 387.978
730.964 673.913 136.612
730.964 684.783 387.978
730.964 695.652 393.443
730.964 706.522 185.792
730.964 717.391 393.443
730.964 728.261 153.005
730.964 739.13 163.934
730.964 760.87 27.3224
730.964 771.739 158.47
736.041 239.13 628.415
736.041 250 519.126
736.041 260.87 524.59
736.041 271.739 311.475
736.041 282.609 289.617
736.041 293.478 344.262
736.041 304.348 344.262
736.041 315.217 584.699
736.041 326.087 513.661
736.041 336.957 426.23
736.041 347.826 262.295
736.041 358.696 262.295
736.041 369.565 382.514
736.041 380.435 382.514
736.041 391.304 382.514
736.041 402.174 382.514
736.041 413.043 333.333
736.041 423.913 453.552
736.041 434.783 404.372
736.041 445.652 486.339
736.041 456.522 568.306
736.041 467.391 475.41
736.041 478.261 497.268
736.041 489.13 486.339
736.041 500 398.907
736.041 510.87 502.732
736.041 521.739 404.372
736.041 532.609 546.448
736.041 543.478 453.552
736.041 554.348 546.448
736.041 565.217 497.268
736.041 576.087 530.055
736.041 586.957 590.164
736.041 597.826 551.913
736.041 608.696 513.661
736.041 619.565 371.585
736.041 630.435 366.12
736.041 641.304 371.585
736.041 652.174 131.148
736.041 663.043 377.049
736.041 673.913 136.612
736.041 684.783 387.978
736.041 695.652 142.077
736.041 706.522 240.437
736.041 717.391 398.907
736.041 728.261 196.721
736.041 739.13 158.47
736.041 771.739 142.077
741.117 239.13 278.689
741.117 250 535.519
741.117 260.87 579.235
741.117 271.739 469.945
741.117 282.609 415.301
741.117 293.478 382.514
741.117 304.348 349.727
741.117 315.217 431.694
741.117 326.087 519.126
741.117 336.957 524.59
741.117 347.826 382.514
741.117 358.696 398.907
741.117 369.565 382.514
741.117 380.435 382.514
741.117 391.304 382.514
741.117 402.174 382.514
741.117 413.043 300.546
741.117 423.913 459.016
741.117 434.783 404.372
741.117 445.652 606.557
741.117 456.522 535.519
741.117 467.391 442.623
741.117 478.261 535.519
741.117 489.13 486.339
741.117 500 398.907
741.117 510.87 513.661
741.117 521.739 404.372
741.117 532.609 562.842
741.117 543.478 491.803
741.117 554.348 415.301
741.117 565.217 491.803
741.117 576.087 530.055
741.117 586.957 584.699
741.117 597.826 551.913
741.117 608.696 366.12
741.117 619.565 448.087
741.117 630.435 366.12
741.117 641.304 371.585
741.117 652.174 131.148
741.117 663.043 377.049
741.117 673.913 136.612
741.117 684.783 387.978
741.117 695.652 136.612
741.117 706.522 387.978
741.117 717.391 409.836
741.117 728.261 256.831
741.117 739.13 191.257
741.117 750 185.792
741.117 760.87 27.3224
741.117 771.739 207.65
746.193 250 606.557
746.193 260.87 606.557
746.193 271.739 497.268
746.193 282.609 573.77
746.193 293.478 469.945
746.193 304.348 426.23
746.193 315.217 486.339
746.193 326.087 573.77
746.193 336.957 568.306
746.193 347.826 480.874
746.193 358.696 398.907
746.193 369.565 382.514
746.193 380.435 382.514
746.193 391.304 382.514
746.193 402.174 382.514
746.193 413.043 327.869
746.193 423.913 382.514
746.193 434.783 409.836
746.193 445.652 606.557
746.193 456.522 475.41
746.193 467.391 475.41
746.193 478.261 426.23
746.193 489.13 497.268
746.193 500 431.694
746.193 510.87 530.055
746.193 521.739 442.623
746.193 532.609 469.945
746.193 543.478 491.803
746.193 554.348 415.301
746.193 565.217 524.59
746.193 576.087 524.59
746.193 586.957 606.557
746.193 597.826 551.913
746.193 608.696 377.049
746.193 619.565 502.732
746.193 630.435 366.12
746.193 641.304 371.585
746.193 652.174 131.148
746.193 663.043 377.049
746.193 673.913 81.9672
746.193 684.783 338.798
746.193 695.652 136.612
746.193 706.522 393.443
746.193 717.391 147.541
746.193 728.261 147.541
746.193 739.13 229.508
746.193 750 234.973
746.193 760.87 76.5027
746.193 771.739 196.721
751.269 250 606.557
751.269 260.87 475.41
751.269 271.739 530.055
751.269 282.609 469.945
751.269 293.478 469.945
751.269 304.348 497.268
751.269 315.217 557.377
751.269 326.087 672.131
751.269 336.957 557.377
751.269 347.826 480.874
751.269 358.696 398.907
751.269 369.565 382.514
751.269 380.435 382.514
751.269 391.304 382.514
751.269 402.174 382.514
751.269 413.043 327.869
751.269 423.913 338.798
751.269 434.783 404.372
751.269 445.652 612.022
751.269 456.522 491.803
751.269 467.391 475.41
751.269 478.261 420.765
751.269 489.13 508.197
751.269 500 469.945
751.269 510.87 415.301
751.269 521.739 480.874
751.269 532.609 404.372
751.269 543.478 524.59
751.269 554.348 453.552
751.269 565.217 546.448
751.269 576.087 546.448
751.269 586.957 612.022
751.269 597.826 557.377
751.269 608.696 338.798
751.269 619.565 453.552
751.269 630.435 366.12
751.269 641.304 371.585
751.269 652.174 131.148
751.269 663.043 377.049
751.269 673.913 377.049
751.269 684.783 289.617
751.269 695.652 136.612
751.269 706.522 393.443
751.269 717.391 147.541
751.269 728.261 158.47
751.269 739.13 234.973
751.269 750 393.443
751.269 760.87 81.9672
751.269 771.739 163.934
756.345 250 639.344
756.345 260.87 398.907
756.345 271.739 595.628
756.345 282.609 469.945
756.345 293.478 524.59
756.345 304.348 513.661
756.345 315.217 601.093
756.345 326.087 672.131
756.345 336.957 540.984
756.345 347.826 464.481
756.345 358.696 398.907
756.345 369.565 382.514
756.345 380.435 382.514
756.345 391.304 387.978
756.345 402.174 387.978
756.345 413.043 327.869
756.345 423.913 338.798
756.345 434.783 453.552
756.345 445.652 530.055
756.345 456.522 469.945
756.345 467.391 491.803
756.345 478.261 464.481
756.345 489.13 519.126
756.345 500 469.945
756.345 510.87 453.552
756.345 521.739 524.59
756.345 532.609 404.372
756.345 543.478 546.448
756.345 554.348 497.268
756.345 565.217 415.301
756.345 576.087 546.448
756.345 586.957 628.415
756.345 597.826 557.377
756.345 608.696 502.732
756.345 619.565 431.694
756.345 630.435 366.12
756.345 641.304 371.585
756.345 652.174 131.148
756.345 663.043 377.049
756.345 673.913 377.049
756.345 684.783 136.612
756.345 695.652 92.8962
756.345 706.522 349.727
756.345 717.391 163.934
756.345 728.261 213.115
756.345 739.13 196.721
756.345 760.87 125.683
761.421 250 508.197
761.421 260.87 404.372
761.421 271.739 612.022
761.421 282.609 469.945
761.421 293.478 579.235
761.421 304.348 469.945
761.421 315.217 573.77
761.421 326.087 677.596
761.421 336.957 590.164
761.421 347.826 459.016
761.421 358.696 398.907
761.421 369.565 382.514
761.421 380.435 387.978
761.421 391.304 387.978
761.421 402.174 387.978
761.421 413.043 327.869
761.421 423.913 338.798
761.421 434.783 486.339
761.421 445.652 426.23
761.421 456.522 497.268
761.421 467.391 475.41
761.421 478.261 480.874
761.421 489.13 426.23
761.421 500 475.41
761.421 510.87 475.41
761.421 521.739 398.907
761.421 532.609 404.372
761.421 543.478 546.448
761.421 554.348 497.268
761.421 565.217 415.301
761.421 576.087 595.628
761.421 586.957 617.486
761.421 597.826 590.164
761.421 608.696 491.803
761.421 619.565 415.301
761.421 630.435 366.12
761.421 641.304 371.585
761.421 652.174 131.148
761.421 663.043 382.514
761.421 673.913 382.514
761.421 684.783 136.612
761.421 695.652 387.978
761.421 706.522 147.541
761.421 717.391 147.541
761.421 728.261 153.005
761.421 739.13 196.721
761.421 750 27.3224
761.421 760.87 191.257
766.497 250 480.874
766.497 260.87 568.306
766.497 271.739 639.344
766.497 282.609 469.945
766.497 293.478 557.377
766.497 304.348 469.945
766.497 315.217 573.77
766.497 326.087 628.415
766.497 336.957 579.235
766.497 347.826 459.016
766.497 358.696 420.765
766.497 369.565 382.514
766.497 380.435 387.978
766.497 391.304 387.978
766.497 402.174 387.978
766.497 413.043 322.404
766.497 423.913 333.333
766.497 434.783 486.339
766.497 445.652 426.23
766.497 456.522 508.197
766.497 467.391 502.732
766.497 478.261 475.41
766.497 489.13 387.978
766.497 500 508.197
766.497 510.87 475.41
766.497 521.739 398.907
766.497 532.609 437.158
766.497 543.478 546.448
766.497 554.348 497.268
766.497 565.217 415.301
766.497 576.087 622.951
766.497 586.957 590.164
766.497 597.826 617.486
766.497 608.696 601.093
766.497 619.565 404.372
766.497 630.435 366.12
766.497 641.304 371.585
766.497 652.174 136.612
766.497 663.043 382.514
766.497 673.913 382.514
766.497 684.783 136.612
766.497 695.652 387.978
766.497 706.522 147.541
766.497 717.391 98.3607
766.497 728.261 103.825
766.497 739.13 196.721
766.497 750 65.5738
766.497 760.87 240.437
771.574 250 409.836
771.574 260.87 612.022
771.574 271.739 540.984
771.574 282.609 497.268
771.574 293.478 562.842
771.574 304.348 469.945
771.574 315.217 573.77
771.574 326.087 622.951
771.574 336.957 551.913
771.574 347.826 437.158
771.574 358.696 382.514
771.574 369.565 382.514
771.574 380.435 387.978
771.574 391.304 387.978
771.574 402.174 327.869
771.574 413.043 322.404
771.574 423.913 333.333
771.574 434.783 486.339
771.574 445.652 437.158
771.574 456.522 508.197
771.574 467.391 497.268
771.574 478.261 508.197
771.574 489.13 398.907
771.574 500 497.268
771.574 510.87 469.945
771.574 521.739 398.907
771.574 532.609 437.158
771.574 543.478 546.448
771.574 554.348 497.268
771.574 565.217 415.301
771.574 576.087 524.59
771.574 586.957 546.448
771.574 597.826 633.88
771.574 608.696 590.164
771.574 619.565 398.907
771.574 630.435 366.12
771.574 641.304 366.12
771.574 652.174 136.612
771.574 663.043 382.514
771.574 673.913 382.514
771.574 684.783 131.148
771.574 695.652 387.978
771.574 706.522 147.541
771.574 717.391 147.541
771.574 728.261 322.404
771.574 739.13 131.148
771.574 750 65.5738
771.574 760.87 240.437
776.65 250 409.836
776.65 260.87 540.984
776.65 271.739 540.984
776.65 282.609 524.59
776.65 293.478 562.842
776.65 304.348 469.945
776.65 315.217 573.77
776.65 326.087 628.415
776.65 336.957 557.377
776.65 347.826 404.372
776.65 358.696 382.514
776.65 369.565 382.514
776.65 380.435 387.978
776.65 391.304 387.978
776.65 402.174 316.94
776.65 413.043 316.94
776.65 423.913 322.404
776.65 434.783 448.087
776.65 445.652 491.803
776.65 456.522 524.59
776.65 467.391 497.268
776.65 478.261 486.339
776.65 489.13 459.016
776.65 500 508.197
776.65 510.87 475.41
776.65 521.739 393.443
776.65 532.609 475.41
776.65 543.478 568.306
776.65 554.348 497.268
776.65 565.217 415.301
776.65 576.087 524.59
776.65 586.957 590.164
776.65 597.826 639.344
776.65 608.696 606.557
776.65 619.565 459.016
776.65 630.435 366.12
776.65 641.304 366.12
776.65 652.174 136.612
776.65 663.043 382.514
776.65 673.913 387.978
776.65 684.783 185.792
776.65 695.652 387.978
776.65 706.522 92.8962
776.65 717.391 87.4317
776.65 728.261 174.863
776.65 739.13 131.148
776.65 750 71.0383
776.65 760.87 196.721
781.726 250 409.836
781.726 260.87 497.268
781.726 271.739 502.732
781.726 282.609 524.59
781.726 293.478 562.842
781.726 304.348 475.41
781.726 315.217 579.235
781.726 326.087 644.809
781.726 336.957 557.377
781.726 347.826 382.514
781.726 358.696 382.514
781.726 369.565 387.978
781.726 380.435 387.978
781.726 391.304 382.514
781.726 402.174 316.94
781.726 413.043 316.94
781.726 423.913 322.404
781.726 434.783 387.978
781.726 445.652 415.301
781.726 456.522 431.694
781.726 467.391 486.339
781.726 478.261 486.339
781.726 489.13 491.803
781.726 500 404.372
781.726 510.87 448.087
781.726 521.739 398.907
781.726 532.609 513.661
781.726 543.478 562.842
781.726 554.348 497.268
781.726 565.217 415.301
781.726 576.087 590.164
781.726 586.957 551.913
781.726 597.826 633.88
781.726 608.696 557.377
781.726 619.565 387.978
781.726 630.435 360.656
781.726 641.304 371.585
781.726 652.174 185.792
781.726 663.043 382.514
781.726 673.913 131.148
781.726 684.783 234.973
781.726 695.652 387.978
781.726 706.522 142.077
781.726 717.391 289.617
781.726 728.261 125.683
781.726 750 49.1803
781.726 760.87 169.399
786.802 250 409.836
786.802 260.87 497.268
786.802 271.739 491.803
786.802 282.609 524.59
786.802 293.478 551.913
786.802 304.348 475.41
786.802 315.217 562.842
786.802 326.087 655.738
786.802 336.957 551.913
786.802 347.826 382.514
786.802 358.696 387.978
786.802 369.565 387.978
786.802 380.435 387.978
786.802 391.304 316.94
786.802 402.174 316.94
786.802 413.043 316.94
786.802 423.913 316.94
786.802 434.783 349.727
786.802 445.652 338.798
786.802 456.522 579.235
786.802 467.391 480.874
786.802 478.261 486.339
786.802 489.13 486.339
786.802 500 437.158
786.802 510.87 502.732
786.802 521.739 437.158
786.802 532.609 513.661
786.802 543.478 568.306
786.802 554.348 524.59
786.802 565.217 415.301
786.802 576.087 612.022
786.802 586.957 513.661
786.802 597.826 595.628
786.802 608.696 546.448
786.802 619.565 284.153
786.802 630.435 360.656
786.802 641.304 136.612
786.802 652.174 234.973
786.802 663.043 377.049
786.802 673.913 131.148
786.802 684.783 387.978
786.802 695.652 387.978
786.802 706.522 131.148
786.802 717.391 98.3607
786.802 728.261 125.683
786.802 739.13 131.148
786.802 750 49.1803
786.802 760.87 174.863
791.878 250 437.158
791.878 260.87 420.765
791.878 271.739 464.481
791.878 282.609 606.557
791.878 293.478 540.984
791.878 304.348 475.41
791.878 315.217 573.77
791.878 326.087 677.596
791.878 336.957 568.306
791.878 347.826 382.514
791.878 358.696 382.514
791.878 369.565 387.978
791.878 380.435 387.978
791.878 391.304 316.94
791.878 402.174 316.94
791.878 413.043 311.475
791.878 423.913 316.94
791.878 434.783 355.191
791.878 445.652 606.557
791.878 456.522 546.448
791.878 467.391 469.945
791.878 478.261 480.874
791.878 489.13 475.41
791.878 500 469.945
791.878 510.87 398.907
791.878 521.739 404.372
791.878 532.609 530.055
791.878 543.478 409.836
791.878 554.348 524.59
791.878 565.217 415.301
791.878 576.087 617.486
791.878 586.957 530.055
791.878 597.826 551.913
791.878 608.696 459.016
791.878 619.565 191.257
791.878 630.435 360.656
791.878 641.304 131.148
791.878 652.174 371.585
791.878 663.043 371.585
791.878 673.913 136.612
791.878 684.783 387.978
791.878 695.652 387.978
791.878 706.522 131.148
791.878 717.391 393.443
791.878 728.261 295.082
791.878 739.13 191.257
791.878 750 32.7869
791.878 760.87 180.328
796.954 250 437.158
796.954 260.87 420.765
796.954 271.739 464.481
796.954 282.609 606.557
796.954 293.478 535.519
796.954 304.348 475.41
796.954 315.217 546.448
796.954 326.087 628.415
796.954 336.957 557.377
796.954 347.826 382.514
796.954 358.696 387.978
796.954 369.565 393.443
796.954 380.435 316.94
796.954 391.304 316.94
796.954 402.174 316.94
796.954 413.043 311.475
796.954 423.913 316.94
796.954 434.783 338.798
796.954 445.652 579.235
796.954 456.522 491.803
796.954 467.391 475.41
796.954 478.261 486.339
796.954 489.13 486.339
796.954 500 469.945
796.954 510.87 398.907
796.954 521.739 486.339
796.954 532.609 437.158
796.954 543.478 409.836
796.954 554.348 551.913
796.954 565.217 415.301
796.954 576.087 595.628
796.954 586.957 622.951
796.954 597.826 562.842
796.954 608.696 387.978
796.954 619.565 131.148
796.954 630.435 360.656
796.954 641.304 131.148
796.954 652.174 371.585
796.954 663.043 371.585
796.954 673.913 136.612
796.954 684.783 387.978
796.954 695.652 387.978
796.954 706.522 81.9672
796.954 717.391 344.262
796.954 728.261 163.934
796.954 739.13 196.721
796.954 760.87 114.754
802.03 250 448.087
802.03 260.87 420.765
802.03 271.739 491.803
802.03 282.609 644.809
802.03 293.478 535.519
802.03 304.348 475.41
802.03 315.217 546.448
802.03 326.087 633.88
802.03 336.957 590.164
802.03 347.826 382.514
802.03 358.696 382.514
802.03 369.565 393.443
802.03 380.435 426.23
802.03 391.304 491.803
802.03 402.174 311.475
802.03 413.043 311.475
802.03 423.913 311.475
802.03 434.783 322.404
802.03 445.652 519.126
802.03 456.522 475.41
802.03 467.391 480.874
802.03 478.261 491.803
802.03 489.13 486.339
802.03 500 469.945
802.03 510.87 398.907
802.03 521.739 508.197
802.03 532.609 360.656
802.03 543.478 442.623
802.03 554.348 551.913
802.03 565.217 420.765
802.03 576.087 601.093
802.03 586.957 601.093
802.03 597.826 513.661
802.03 608.696 300.546
802.03 619.565 131.148
802.03 630.435 355.191
802.03 641.304 81.9672
802.03 652.174 322.404
802.03 663.043 371.585
802.03 673.913 136.612
802.03 684.783 387.978
802.03 695.652 387.978
802.03 706.522 387.978
802.03 717.391 289.617
802.03 728.261 163.934
802.03 739.13 234.973
802.03 760.87 76.5027
802.03 771.739 295.082
807.107 250 333.333
807.107 260.87 442.623
807.107 271.739 519.126
807.107 282.609 497.268
807.107 293.478 535.519
807.107 304.348 475.41
807.107 315.217 562.842
807.107 326.087 622.951
807.107 336.957 601.093
807.107 347.826 382.514
807.107 358.696 382.514
807.107 369.565 382.514
807.107 380.435 327.869
807.107 391.304 459.016
807.107 402.174 491.803
807.107 413.043 491.803
807.107 423.913 491.803
807.107 434.783 497.268
807.107 445.652 409.836
807.107 456.522 579.235
807.107 467.391 475.41
807.107 478.261 480.874
807.107 489.13 491.803
807.107 500 469.945
807.107 510.87 398.907
807.107 521.739 508.197
807.107 532.609 382.514
807.107 543.478 469.945
807.107 554.348 519.126
807.107 565.217 382.514
807.107 576.087 524.59
807.107 586.957 568.306
807.107 597.826 491.803
807.107 608.696 251.366
807.107 619.565 136.612
807.107 630.435 355.191
807.107 641.304 360.656
807.107 652.174 273.224
807.107 663.043 371.585
807.107 673.913 87.4317
807.107 684.783 338.798
807.107 695.652 387.978
807.107 706.522 387.978
807.107 717.391 147.541
807.107 728.261 163.934
807.107 739.13 245.902
807.107 760.87 65.5738
807.107 771.739 240.437
812.183 250 327.869
812.183 260.87 420.765
812.183 271.739 382.514
812.183 282.609 519.126
812.183 293.478 612.022
812.183 304.348 475.41
812.183 315.217 524.59
812.183 326.087 639.344
812.183 336.957 606.557
812.183 347.826 382.514
812.183 358.696 382.514
812.183 369.565 382.514
812.183 380.435 344.262
812.183 391.304 393.443
812.183 402.174 459.016
812.183 413.043 497.268
812.183 423.913 491.803
812.183 434.783 491.803
812.183 445.652 502.732
812.183 456.522 655.738
812.183 467.391 486.339
812.183 478.261 475.41
812.183 489.13 486.339
812.183 500 469.945
812.183 510.87 398.907
812.183 521.739 508.197
812.183 532.609 415.301
812.183 543.478 426.23
812.183 554.348 491.803
812.183 565.217 562.842
812.183 576.087 513.661
812.183 586.957 497.268
812.183 597.826 513.661
812.183 608.696 344.262
812.183 619.565 180.328
812.183 630.435 355.191
812.183 641.304 360.656
812.183 652.174 136.612
812.183 663.043 371.585
812.183 673.913 371.585
812.183 684.783 289.617
812.183 695.652 387.978
812.183 706.522 387.978
812.183 717.391 147.541
812.183 728.261 163.934
812.183 739.13 191.257
812.183 760.87 49.1803
812.183 771.739 218.579
817.259 260.87 278.689
817.259 271.739 448.087
817.259 282.609 431.694
817.259 293.478 573.77
817.259 304.348 502.732
817.259 315.217 584.699
817.259 326.087 683.06
817.259 336.957 655.738
817.259 347.826 448.087
817.259 358.696 382.514
817.259 369.565 382.514
817.259 380.435 327.869
817.259 391.304 453.552
817.259 402.174 360.656
817.259 413.043 387.978
817.259 423.913 382.514
817.259 434.783 382.514
817.259 445.652 431.694
817.259 456.522 579.235
817.259 467.391 606.557
817.259 478.261 453.552
817.259 489.13 486.339
817.259 500 469.945
817.259 510.87 398.907
817.259 521.739 508.197
817.259 532.609 415.301
817.259 543.478 453.552
817.259 554.348 497.268
817.259 565.217 540.984
817.259 576.087 688.525
817.259 586.957 502.732
817.259 597.826 524.59
817.259 608.696 136.612
817.259 619.565 224.044
817.259 630.435 355.191
817.259 641.304 355.191
817.259 652.174 87.4317
817.259 663.043 327.869
817.259 673.913 377.049
817.259 684.783 142.077
817.259 695.652 387.978
817.259 706.522 387.978
817.259 717.391 185.792
817.259 728.261 207.65
817.259 739.13 142.077
817.259 760.87 27.3224
817.259 771.739 191.257
822.335 260.87 327.869
822.335 271.739 426.23
822.335 282.609 382.514
822.335 293.478 519.126
822.335 304.348 519.126
822.335 315.217 622.951
822.335 326.087 655.738
822.335 336.957 721.311
822.335 347.826 475.41
822.335 358.696 382.514
822.335 369.565 316.94
822.335 380.435 316.94
822.335 391.304 415.301
822.335 402.174 486.339
822.335 413.043 491.803
822.335 423.913 491.803
822.335 434.783 491.803
822.335 445.652 513.661
822.335 456.522 508.197
822.335 467.391 551.913
822.335 478.261 469.945
822.335 489.13 486.339
822.335 500 469.945
822.335 510.87 398.907
822.335 521.739 508.197
822.335 532.609 448.087
822.335 543.478 475.41
822.335 554.348 491.803
822.335 565.217 579.235
822.335 576.087 655.738
822.335 586.957 469.945
822.335 597.826 551.913
822.335 608.696 142.077
822.335 619.565 355.191
822.335 630.435 355.191
822.335 641.304 360.656
822.335 652.174 360.656
822.335 663.043 278.689
822.335 673.913 377.049
822.335 684.783 136.612
822.335 695.652 387.978
822.335 706.522 393.443
822.335 717.391 196.721
822.335 728.261 262.295
822.335 739.13 131.148
822.335 760.87 49.1803
822.335 771.739 218.579
827.411 271.739 284.153
827.411 282.609 426.23
827.411 293.478 540.984
827.411 304.348 562.842
827.411 315.217 617.486
827.411 326.087 601.093
827.411 336.957 693.989
827.411 347.826 502.732
827.411 358.696 404.372
827.411 369.565 311.475
827.411 380.435 295.082
827.411 391.304 322.404
827.411 402.174 480.874
827.411 413.043 480.874
827.411 423.913 486.339
827.411 434.783 486.339
827.411 445.652 502.732
827.411 456.522 606.557
827.411 467.391 612.022
827.411 478.261 513.661
827.411 489.13 486.339
827.411 500 469.945
827.411 510.87 393.443
827.411 521.739 508.197
827.411 532.609 491.803
827.411 543.478 415.301
827.411 554.348 491.803
827.411 565.217 601.093
827.411 576.087 573.77
827.411 586.957 469.945
827.411 597.826 475.41
827.411 608.696 234.973
827.411 619.565 355.191
827.411 630.435 355.191
827.411 641.304 360.656
827.411 652.174 360.656
827.411 663.043 136.612
827.411 673.913 377.049
827.411 684.783 136.612
827.411 695.652 387.978
827.411 706.522 393.443
827.411 717.391 202.186
827.411 728.261 163.934
827.411 739.13 131.148
827.411 760.87 76.5027
827.411 771.739 202.186
832.487 271.739 366.12
832.487 282.609 502.732
832.487 293.478 540.984
832.487 304.348 562.842
832.487 315.217 513.661
832.487 326.087 622.951
832.487 336.957 710.383
832.487 347.826 546.448
832.487 358.696 327.869
832.487 369.565 295.082
832.487 380.435 295.082
832.487 391.304 306.011
832.487 402.174 442.623
832.487 413.043 480.874
832.487 423.913 480.874
832.487 434.783 486.339
832.487 445.652 502.732
832.487 456.522 601.093
832.487 467.391 601.093
832.487 478.261 606.557
832.487 489.13 486.339
832.487 500 469.945
832.487 510.87 398.907
832.487 521.739 508.197
832.487 532.609 491.803
832.487 543.478 415.301
832.487 554.348 524.59
832.487 565.217 650.273
832.487 576.087 535.519
832.487 586.957 562.842
832.487 597.826 464.481
832.487 608.696 387.978
832.487 619.565 355.191
832.487 630.435 355.191
832.487 641.304 355.191
832.487 652.174 371.585
832.487 663.043 185.792
832.487 673.913 377.049
832.487 684.783 136.612
832.487 695.652 387.978
832.487 706.522 393.443
832.487 717.391 163.934
832.487 728.261 125.683
832.487 739.13 191.257
832.487 760.87 65.5738
832.487 771.739 202.186
837.563 282.609 409.836
837.563 293.478 475.41
837.563 304.348 579.235
837.563 315.217 508.197
837.563 326.087 617.486
837.563 336.957 666.667
837.563 347.826 557.377
837.563 358.696 295.082
837.563 369.565 295.082
837.563 380.435 289.617
837.563 391.304 295.082
837.563 402.174 404.372
837.563 413.043 480.874
837.563 423.913 486.339
837.563 434.783 486.339
837.563 445.652 491.803
837.563 456.522 568.306
837.563 467.391 601.093
837.563 478.261 601.093
837.563 489.13 497.268
837.563 500 469.945
837.563 510.87 431.694
837.563 521.739 524.59
837.563 532.609 491.803
837.563 543.478 540.984
837.563 554.348 579.235
837.563 565.217 628.415
837.563 576.087 459.016
837.563 586.957 535.519
837.563 597.826 442.623
837.563 608.696 469.945
837.563 619.565 355.191
837.563 630.435 355.191
837.563 641.304 360.656
837.563 652.174 136.612
837.563 663.043 234.973
837.563 673.913 387.978
837.563 684.783 185.792
837.563 695.652 393.443
837.563 706.522 387.978
837.563 717.391 92.8962
837.563 728.261 349.727
837.563 739.13 371.585
837.563 760.87 49.1803
837.563 771.739 174.863
842.64 282.609 469.945
842.64 293.478 409.836
842.64 304.348 601.093
842.64 315.217 480.874
842.64 326.087 633.88
842.64 336.957 688.525
842.64 347.826 601.093
842.64 358.696 295.082
842.64 369.565 289.617
842.64 380.435 295.082
842.64 391.304 295.082
842.64 402.174 316.94
842.64 413.043 480.874
842.64 423.913 486.339
842.64 434.783 486.339
842.64 445.652 480.874
842.64 456.522 540.984
842.64 467.391 601.093
842.64 478.261 595.628
842.64 489.13 601.093
842.64 500 469.945
842.64 510.87 469.945
842.64 521.739 398.907
842.64 532.609 491.803
842.64 543.478 540.984
842.64 554.348 677.596
842.64 565.217 573.77
842.64 576.087 469.945
842.64 586.957 513.661
842.64 597.826 426.23
842.64 608.696 464.481
842.64 619.565 355.191
842.64 630.435 355.191
842.64 641.304 360.656
842.64 652.174 136.612
842.64 663.043 377.049
842.64 673.913 136.612
842.64 684.783 240.437
842.64 695.652 393.443
842.64 706.522 393.443
842.64 717.391 142.077
842.64 728.261 300.546
842.64 739.13 267.76
842.64 760.87 32.7869
842.64 771.739 207.65
847.716 282.609 284.153
847.716 293.478 338.798
847.716 304.348 606.557
847.716 315.217 530.055
847.716 326.087 590.164
847.716 336.957 683.06
847.716 347.826 568.306
847.716 358.696 316.94
847.716 369.565 311.475
847.716 380.435 300.546
847.716 391.304 300.546
847.716 402.174 344.262
847.716 413.043 486.339
847.716 423.913 486.339
847.716 434.783 486.339
847.716 445.652 480.874
847.716 456.522 491.803
847.716 467.391 601.093
847.716 478.261 590.164
847.716 489.13 601.093
847.716 500 469.945
847.716 510.87 469.945
847.716 521.739 398.907
847.716 532.609 513.661
847.716 543.478 573.77
847.716 554.348 661.202
847.716 565.217 562.842
847.716 576.087 524.59
847.716 586.957 535.519
847.716 597.826 431.694
847.716 608.696 469.945
847.716 619.565 355.191
847.716 630.435 355.191
847.716 641.304 360.656
847.716 652.174 136.612
847.716 663.043 377.049
847.716 673.913 142.077
847.716 684.783 393.443
847.716 695.652 393.443
847.716 706.522 393.443
847.716 717.391 142.077
847.716 728.261 185.792
847.716 739.13 278.689
847.716 750 27.3224
847.716 760.87 76.5027
847.716 771.739 245.902
852.792 293.478 382.514
852.792 304.348 617.486
852.792 315.217 573.77
852.792 326.087 551.913
852.792 336.957 557.377
852.792 347.826 590.164
852.792 358.696 371.585
852.792 369.565 234.973
852.792 380.435 349.727
852.792 391.304 327.869
852.792 402.174 371.585
852.792 413.043 486.339
852.792 423.913 486.339
852.792 434.783 486.339
852.792 445.652 480.874
852.792 456.522 491.803
852.792 467.391 601.093
852.792 478.261 579.235
852.792 489.13 601.093
852.792 500 469.945
852.792 510.87 469.945
852.792 521.739 398.907
852.792 532.609 513.661
852.792 543.478 633.88
852.792 554.348 655.738
852.792 565.217 535.519
852.792 576.087 546.448
852.792 586.957 530.055
852.792 597.826 475.41
852.792 608.696 469.945
852.792 619.565 360.656
852.792 630.435 355.191
852.792 641.304 360.656
852.792 652.174 136.612
852.792 663.043 377.049
852.792 673.913 142.077
852.792 684.783 393.443
852.792 695.652 393.443
852.792 706.522 393.443
852.792 717.391 169.399
852.792 728.261 267.76
852.792 739.13 76.5027
852.792 750 27.3224
852.792 760.87 76.5027
852.792 771.739 256.831
857.868 293.478 387.978
857.868 304.348 551.913
857.868 315.217 551.913
857.868 326.087 508.197
857.868 336.957 579.235
857.868 347.826 628.415
857.868 358.696 513.661
857.868 369.565 387.978
857.868 380.435 387.978
857.868 391.304 234.973
857.868 402.174 491.803
857.868 413.043 480.874
857.868 423.913 486.339
857.868 434.783 480.874
857.868 445.652 480.874
857.868 456.522 491.803
857.868 467.391 601.093
857.868 478.261 584.699
857.868 489.13 606.557
857.868 500 475.41
857.868 510.87 469.945
857.868 521.739 431.694
857.868 532.609 530.055
857.868 543.478 612.022
857.868 554.348 639.344
857.868 565.217 535.519
857.868 576.087 502.732
857.868 586.957 497.268
857.868 597.826 426.23
857.868 608.696 469.945
857.868 619.565 360.656
857.868 630.435 360.656
857.868 641.304 360.656
857.868 652.174 136.612
857.868 663.043 377.049
857.868 673.913 142.077
857.868 684.783 393.443
857.868 695.652 393.443
857.868 706.522 393.443
857.868 717.391 196.721
857.868 728.261 355.191
857.868 739.13 43.7158
857.868 750 27.3224
857.868 760.87 76.5027
857.868 771.739 218.579
862.944 282.609 284.153
862.944 293.478 513.661
862.944 304.348 535.519
862.944 315.217 661.202
862.944 326.087 551.913
862.944 336.957 590.164
862.944 347.826 672.131
862.944 358.696 568.306
862.944 369.565 387.978
862.944 380.435 387.978
862.944 391.304 349.727
862.944 402.174 453.552
862.944 413.043 497.268
862.944 423.913 491.803
862.944 434.783 491.803
862.944 445.652 491.803
862.944 456.522 491.803
862.944 467.391 595.628
862.944 478.261 595.628
862.944 489.13 601.093
862.944 500 612.022
862.944 510.87 469.945
862.944 521.739 469.945
862.944 532.609 398.907
862.944 543.478 622.951
862.944 554.348 622.951
862.944 565.217 535.519
862.944 576.087 502.732
862.944 586.957 540.984
862.944 597.826 327.869
862.944 608.696 437.158
862.944 619.565 360.656
862.944 630.435 360.656
862.944 641.304 371.585
862.944 652.174 185.792
862.944 663.043 377.049
862.944 673.913 142.077
862.944 684.783 398.907
862.944 695.652 404.372
862.944 706.522 420.765
862.944 717.391 306.011
862.944 739.13 98.3607
862.944 750 131.148
862.944 760.87 76.5027
862.944 771.739 202.186
868.02 282.609 284.153
868.02 293.478 513.661
868.02 304.348 530.055
868.02 315.217 508.197
868.02 326.087 480.874
868.02 336.957 557.377
868.02 347.826 655.738
868.02 358.696 579.235
868.02 369.565 387.978
868.02 380.435 387.978
868.02 391.304 344.262
868.02 402.174 442.623
868.02 413.043 513.661
868.02 423.913 448.087
868.02 434.783 453.552
868.02 445.652 448.087
868.02 456.522 448.087
868.02 467.391 606.557
868.02 478.261 584.699
868.02 489.13 606.557
868.02 500 617.486
868.02 510.87 469.945
868.02 521.739 469.945
868.02 532.609 398.907
868.02 543.478 568.306
868.02 554.348 628.415
868.02 565.217 508.197
868.02 576.087 502.732
868.02 586.957 508.197
868.02 597.826 306.011
868.02 608.696 404.372
868.02 619.565 360.656
868.02 630.435 360.656
868.02 641.304 136.612
868.02 652.174 234.973
868.02 663.043 382.514
868.02 673.913 169.399
868.02 684.783 437.158
868.02 695.652 464.481
868.02 706.522 475.41
868.02 717.391 366.12
868.02 728.261 32.7869
868.02 739.13 147.541
868.02 750 136.612
868.02 760.87 92.8962
873.096 293.478 530.055
873.096 304.348 404.372
873.096 315.217 508.197
873.096 326.087 573.77
873.096 336.957 573.77
873.096 347.826 683.06
873.096 358.696 584.699
873.096 369.565 387.978
873.096 380.435 387.978
873.096 391.304 387.978
873.096 402.174 349.727
873.096 413.043 475.41
873.096 423.913 513.661
873.096 434.783 513.661
873.096 445.652 513.661
873.096 456.522 530.055
873.096 467.391 622.951
873.096 478.261 546.448
873.096 489.13 612.022
873.096 500 617.486
873.096 510.87 469.945
873.096 521.739 469.945
873.096 532.609 393.443
873.096 543.478 639.344
873.096 554.348 633.88
