122.727 494.253 260.536
122.727 505.747 358.238
122.727 517.241 130.268
122.727 528.736 365.9
122.727 540.23 300.766
122.727 551.724 335.249
122.727 563.218 316.092
122.727 574.713 298.851
122.727 586.207 647.51
122.727 597.701 848.659
122.727 609.195 674.33
122.727 620.69 411.877
122.727 632.184 413.793
122.727 643.678 275.862
122.727 655.172 275.862
122.727 666.667 277.778
122.727 678.161 275.862
122.727 689.655 275.862
122.727 701.149 547.893
122.727 712.644 614.943
122.727 724.138 659.004
122.727 735.632 415.709
122.727 747.126 329.502
122.727 758.621 270.115
122.727 770.115 270.115
122.727 781.609 270.115
122.727 793.103 268.199
122.727 804.598 160.92
122.727 816.092 160.92
122.727 827.586 160.92
122.727 839.08 160.92
122.727 850.575 323.755
122.727 862.069 404.215
122.727 873.563 544.061
122.727 885.057 413.793
127.273 126.437 404.215
127.273 137.931 404.215
127.273 149.425 404.215
127.273 160.92 404.215
127.273 172.414 406.13
127.273 183.908 408.046
127.273 195.402 409.962
127.273 206.897 409.962
127.273 218.391 409.962
127.273 229.885 411.877
127.273 241.379 411.877
127.273 252.874 411.877
127.273 264.368 411.877
127.273 275.862 411.877
127.273 287.356 411.877
127.273 298.851 411.877
127.273 310.345 411.877
127.273 321.839 411.877
127.273 333.333 687.739
127.273 344.828 827.586
127.273 356.322 544.061
127.273 367.816 302.682
127.273 379.31 176.245
127.273 390.805 268.199
127.273 402.299 157.088
127.273 413.793 147.51
127.273 425.287 273.946
127.273 436.782 126.437
127.273 448.276 53.6398
127.273 459.77 168.582
127.273 494.253 36.3985
127.273 505.747 375.479
127.273 517.241 250.958
127.273 528.736 314.176
127.273 540.23 342.912
127.273 551.724 264.368
127.273 563.218 296.935
127.273 574.713 335.249
127.273 586.207 296.935
127.273 597.701 699.234
127.273 609.195 791.188
127.273 620.69 413.793
127.273 632.184 413.793
127.273 643.678 273.946
127.273 655.172 273.946
127.273 666.667 275.862
127.273 678.161 275.862
127.273 689.655 275.862
127.273 701.149 275.862
127.273 712.644 616.858
127.273 724.138 691.571
127.273 735.632 415.709
127.273 747.126 327.586
127.273 758.621 270.115
127.273 770.115 272.031
127.273 781.609 272.031
127.273 793.103 325.67
127.273 804.598 160.92
127.273 816.092 160.92
127.273 827.586 160.92
127.273 839.08 159.004
127.273 850.575 323.755
127.273 862.069 408.046
127.273 873.563 544.061
127.273 885.057 413.793
131.818 137.931 404.215
131.818 149.425 404.215
131.818 160.92 404.215
131.818 172.414 406.13
131.818 183.908 409.962
131.818 195.402 409.962
131.818 206.897 411.877
131.818 218.391 411.877
131.818 229.885 411.877
131.818 241.379 413.793
131.818 252.874 413.793
131.818 264.368 413.793
131.818 275.862 413.793
131.818 287.356 413.793
131.818 298.851 413.793
131.818 310.345 413.793
131.818 321.839 413.793
131.818 333.333 779.693
131.818 344.828 754.789
131.818 356.322 285.441
131.818 367.816 227.969
131.818 379.31 210.728
131.818 390.805 254.789
131.818 402.299 210.728
131.818 413.793 249.042
131.818 425.287 283.525
131.818 436.782 49.8084
131.818 448.276 139.847
131.818 459.77 139.847
131.818 505.747 206.897
131.818 517.241 358.238
131.818 528.736 160.92
131.818 540.23 281.609
131.818 551.724 220.307
131.818 563.218 172.414
131.818 574.713 385.057
131.818 586.207 229.885
131.818 597.701 538.314
131.818 609.195 812.261
131.818 620.69 588.123
131.818 632.184 413.793
131.818 643.678 273.946
131.818 655.172 273.946
131.818 666.667 273.946
131.818 678.161 273.946
131.818 689.655 273.946
131.818 701.149 273.946
131.818 712.644 409.962
131.818 724.138 662.835
131.818 735.632 597.701
131.818 747.126 327.586
131.818 758.621 272.031
131.818 770.115 272.031
131.818 781.609 329.502
131.818 793.103 329.502
131.818 804.598 204.981
131.818 816.092 160.92
131.818 827.586 160.92
131.818 839.08 160.92
131.818 850.575 325.67
131.818 862.069 408.046
131.818 873.563 544.061
131.818 885.057 413.793
131.818 896.552 413.793
136.364 149.425 404.215
136.364 160.92 404.215
136.364 172.414 408.046
136.364 183.908 409.962
136.364 195.402 411.877
136.364 206.897 413.793
136.364 218.391 413.793
136.364 229.885 413.793
136.364 241.379 413.793
136.364 252.874 413.793
136.364 264.368 413.793
136.364 275.862 413.793
136.364 287.356 413.793
136.364 298.851 413.793
136.364 310.345 413.793
136.364 321.839 413.793
136.364 333.333 840.996
136.364 344.828 469.349
136.364 356.322 214.559
136.364 367.816 302.682
136.364 379.31 266.284
136.364 390.805 254.789
136.364 402.299 105.364
136.364 413.793 187.739
136.364 425.287 168.582
136.364 436.782 44.0613
136.364 448.276 139.847
136.364 459.77 63.2184
136.364 505.747 34.4828
136.364 517.241 342.912
136.364 528.736 226.054
136.364 540.23 285.441
136.364 551.724 235.632
136.364 563.218 159.004
136.364 574.713 235.632
136.364 586.207 340.996
136.364 597.701 530.651
136.364 609.195 777.778
136.364 620.69 590.038
136.364 632.184 413.793
136.364 643.678 273.946
136.364 655.172 273.946
136.364 666.667 273.946
136.364 678.161 273.946
136.364 689.655 273.946
136.364 701.149 273.946
136.364 712.644 275.862
136.364 724.138 409.962
136.364 735.632 714.559
136.364 747.126 352.49
136.364 758.621 272.031
136.364 770.115 272.031
136.364 781.609 329.502
136.364 793.103 329.502
136.364 804.598 204.981
136.364 816.092 204.981
136.364 827.586 204.981
136.364 839.08 204.981
136.364 850.575 409.962
136.364 862.069 549.808
136.364 873.563 272.031
136.364 885.057 413.793
136.364 896.552 413.793
140.909 172.414 406.13
140.909 183.908 409.962
140.909 195.402 413.793
140.909 206.897 413.793
140.909 218.391 413.793
140.909 229.885 413.793
140.909 241.379 413.793
140.909 252.874 413.793
140.909 264.368 413.793
140.909 275.862 413.793
140.909 287.356 413.793
140.909 298.851 413.793
140.909 310.345 413.793
140.909 321.839 681.992
140.909 333.333 783.525
140.909 344.828 252.874
140.909 356.322 289.272
140.909 367.816 264.368
140.909 379.31 203.065
140.909 390.805 180.077
140.909 402.299 88.1226
140.909 413.793 185.824
140.909 425.287 170.498
140.909 436.782 126.437
140.909 448.276 147.51
140.909 517.241 227.969
140.909 528.736 181.992
140.909 540.23 302.682
140.909 551.724 206.897
140.909 563.218 183.908
140.909 574.713 296.935
140.909 586.207 325.67
140.909 597.701 318.008
140.909 609.195 772.031
140.909 620.69 678.161
140.909 632.184 413.793
140.909 643.678 273.946
140.909 655.172 273.946
140.909 666.667 273.946
140.909 678.161 273.946
140.909 689.655 275.862
140.909 701.149 277.778
140.909 712.644 277.778
140.909 724.138 413.793
140.909 735.632 555.556
140.909 747.126 477.011
140.909 758.621 272.031
140.909 770.115 272.031
140.909 781.609 272.031
140.909 793.103 272.031
140.909 804.598 352.49
140.909 816.092 273.946
140.909 827.586 273.946
140.909 839.08 273.946
140.909 850.575 409.962
140.909 862.069 494.253
140.909 873.563 270.115
140.909 885.057 413.793
140.909 896.552 413.793
145.455 183.908 413.793
145.455 195.402 413.793
145.455 206.897 413.793
145.455 218.391 413.793
145.455 229.885 413.793
145.455 241.379 413.793
145.455 252.874 413.793
145.455 264.368 413.793
145.455 275.862 413.793
145.455 287.356 413.793
145.455 298.851 413.793
145.455 310.345 413.793
145.455 321.839 773.946
145.455 333.333 639.847
145.455 344.828 147.51
145.455 356.322 363.985
145.455 367.816 191.571
145.455 379.31 226.054
145.455 390.805 74.7126
145.455 402.299 120.69
145.455 413.793 226.054
145.455 425.287 147.51
145.455 436.782 147.51
145.455 448.276 36.3985
145.455 517.241 210.728
145.455 528.736 216.475
145.455 540.23 358.238
145.455 551.724 220.307
145.455 563.218 201.149
145.455 574.713 360.153
145.455 586.207 335.249
145.455 597.701 385.057
145.455 609.195 833.333
145.455 620.69 754.789
145.455 632.184 590.038
145.455 643.678 273.946
145.455 655.172 273.946
145.455 666.667 273.946
145.455 678.161 273.946
145.455 689.655 275.862
145.455 701.149 277.778
145.455 712.644 277.778
145.455 724.138 419.54
145.455 735.632 559.387
145.455 747.126 561.303
145.455 758.621 356.322
145.455 770.115 272.031
145.455 781.609 272.031
145.455 793.103 354.406
145.455 804.598 354.406
145.455 816.092 132.184
145.455 827.586 132.184
145.455 839.08 132.184
145.455 850.575 268.199
145.455 862.069 329.502
145.455 873.563 413.793
145.455 885.057 273.946
145.455 896.552 413.793
150 195.402 411.877
150 206.897 411.877
150 218.391 411.877
150 229.885 413.793
150 241.379 413.793
150 252.874 413.793
150 264.368 413.793
150 275.862 413.793
150 287.356 413.793
150 298.851 413.793
150 310.345 413.793
150 321.839 800.766
150 333.333 557.471
150 344.828 264.368
150 356.322 340.996
150 367.816 105.364
150 379.31 180.077
150 390.805 97.7011
150 402.299 136.015
150 413.793 160.92
150 425.287 191.571
150 436.782 114.943
150 517.241 181.992
150 528.736 208.812
150 540.23 381.226
150 551.724 159.004
150 563.218 185.824
150 574.713 511.494
150 586.207 385.057
150 597.701 296.935
150 609.195 766.284
150 620.69 783.525
150 632.184 680.077
150 643.678 413.793
150 655.172 273.946
150 666.667 273.946
150 678.161 275.862
150 689.655 275.862
150 701.149 277.778
150 712.644 279.693
150 724.138 421.456
150 735.632 337.165
150 747.126 484.674
150 758.621 356.322
150 770.115 241.379
150 781.609 316.092
150 793.103 362.069
150 804.598 344.828
150 816.092 272.031
150 827.586 160.92
150 839.08 160.92
150 850.575 132.184
150 862.069 157.088
150 873.563 415.709
150 885.057 415.709
150 896.552 561.303
154.545 195.402 409.962
154.545 206.897 411.877
154.545 218.391 411.877
154.545 229.885 413.793
154.545 241.379 413.793
154.545 252.874 413.793
154.545 264.368 413.793
154.545 275.862 413.793
154.545 287.356 413.793
154.545 298.851 413.793
154.545 310.345 413.793
154.545 321.839 862.069
154.545 333.333 475.096
154.545 344.828 289.272
154.545 356.322 208.812
154.545 367.816 97.7011
154.545 379.31 141.762
154.545 390.805 97.7011
154.545 402.299 157.088
154.545 413.793 212.644
154.545 425.287 203.065
154.545 517.241 145.594
154.545 528.736 218.391
154.545 540.23 425.287
154.545 551.724 222.222
154.545 563.218 185.824
154.545 574.713 511.494
154.545 586.207 385.057
154.545 597.701 404.215
154.545 609.195 540.23
154.545 620.69 647.51
154.545 632.184 716.475
154.545 643.678 413.793
154.545 655.172 272.031
154.545 666.667 273.946
154.545 678.161 275.862
154.545 689.655 275.862
154.545 701.149 277.778
154.545 712.644 279.693
154.545 724.138 423.372
154.545 735.632 339.08
154.545 747.126 425.287
154.545 758.621 427.203
154.545 770.115 241.379
154.545 781.609 363.985
154.545 793.103 241.379
154.545 804.598 237.548
154.545 816.092 344.828
154.545 827.586 262.452
154.545 839.08 262.452
154.545 850.575 160.92
154.545 862.069 201.149
154.545 873.563 201.149
154.545 885.057 415.709
154.545 896.552 561.303
159.091 206.897 413.793
159.091 218.391 411.877
159.091 229.885 413.793
159.091 241.379 413.793
159.091 252.874 413.793
159.091 264.368 413.793
159.091 275.862 413.793
159.091 287.356 413.793
159.091 298.851 413.793
159.091 310.345 413.793
159.091 321.839 862.069
159.091 333.333 229.885
159.091 344.828 350.575
159.091 356.322 195.402
159.091 367.816 97.7011
159.091 379.31 134.1
159.091 390.805 86.2069
159.091 402.299 132.184
159.091 413.793 247.126
159.091 425.287 153.257
159.091 517.241 159.004
159.091 528.736 218.391
159.091 540.23 340.996
159.091 551.724 237.548
159.091 563.218 220.307
159.091 574.713 417.625
159.091 586.207 335.249
159.091 597.701 404.215
159.091 609.195 461.686
159.091 620.69 404.215
159.091 632.184 756.705
159.091 643.678 591.954
159.091 655.172 273.946
159.091 666.667 273.946
159.091 678.161 275.862
159.091 689.655 273.946
159.091 701.149 277.778
159.091 712.644 277.778
159.091 724.138 423.372
159.091 735.632 339.08
159.091 747.126 371.648
159.091 758.621 427.203
159.091 770.115 316.092
159.091 781.609 316.092
159.091 793.103 191.571
159.091 804.598 191.571
159.091 816.092 272.031
159.091 827.586 272.031
159.091 839.08 222.222
159.091 850.575 224.138
159.091 862.069 272.031
159.091 873.563 157.088
159.091 885.057 415.709
159.091 896.552 636.015
159.091 908.046 565.134
163.636 218.391 413.793
163.636 229.885 413.793
163.636 241.379 413.793
163.636 252.874 413.793
163.636 264.368 413.793
163.636 275.862 413.793
163.636 287.356 413.793
163.636 298.851 413.793
163.636 310.345 413.793
163.636 321.839 852.49
163.636 333.333 340.996
163.636 344.828 350.575
163.636 356.322 164.751
163.636 367.816 59.387
163.636 379.31 189.655
163.636 390.805 97.7011
163.636 402.299 139.847
163.636 413.793 204.981
163.636 425.287 147.51
163.636 517.241 45.977
163.636 528.736 220.307
163.636 540.23 283.525
163.636 551.724 323.755
163.636 563.218 203.065
163.636 574.713 350.575
163.636 586.207 296.935
163.636 597.701 214.559
163.636 609.195 505.747
163.636 620.69 406.13
163.636 632.184 645.594
163.636 643.678 660.92
163.636 655.172 273.946
163.636 666.667 273.946
163.636 678.161 273.946
163.636 689.655 273.946
163.636 701.149 275.862
163.636 712.644 277.778
163.636 724.138 505.747
163.636 735.632 289.272
163.636 747.126 369.732
163.636 758.621 427.203
163.636 770.115 316.092
163.636 781.609 191.571
163.636 793.103 191.571
163.636 804.598 191.571
163.636 816.092 191.571
163.636 827.586 273.946
163.636 839.08 203.065
163.636 850.575 233.716
163.636 862.069 291.188
163.636 873.563 159.004
163.636 885.057 159.004
163.636 896.552 417.625
163.636 908.046 636.015
163.636 919.54 421.456
168.182 218.391 413.793
168.182 229.885 413.793
168.182 241.379 413.793
168.182 252.874 413.793
168.182 264.368 415.709
168.182 275.862 415.709
168.182 287.356 415.709
168.182 298.851 413.793
168.182 310.345 413.793
168.182 321.839 806.513
168.182 333.333 475.096
168.182 344.828 333.333
168.182 356.322 130.268
168.182 367.816 84.2912
168.182 379.31 189.655
168.182 390.805 99.6169
168.182 402.299 214.559
168.182 413.793 183.908
168.182 425.287 128.352
168.182 517.241 47.8927
168.182 528.736 149.425
168.182 540.23 258.621
168.182 551.724 346.743
168.182 563.218 268.199
168.182 574.713 350.575
168.182 586.207 266.284
168.182 597.701 214.559
168.182 609.195 555.556
168.182 620.69 337.165
168.182 632.184 524.904
168.182 643.678 660.92
168.182 655.172 273.946
168.182 666.667 272.031
168.182 678.161 273.946
168.182 689.655 273.946
168.182 701.149 275.862
168.182 712.644 279.693
168.182 724.138 505.747
168.182 735.632 285.441
168.182 747.126 429.119
168.182 758.621 536.398
168.182 770.115 287.356
168.182 781.609 191.571
168.182 793.103 191.571
168.182 804.598 193.487
168.182 816.092 193.487
168.182 827.586 273.946
168.182 839.08 275.862
168.182 850.575 203.065
168.182 862.069 293.103
168.182 873.563 222.222
168.182 885.057 260.536
168.182 896.552 160.92
168.182 908.046 637.931
168.182 919.54 570.881
172.727 229.885 413.793
172.727 241.379 413.793
172.727 252.874 413.793
172.727 264.368 415.709
172.727 275.862 415.709
172.727 287.356 415.709
172.727 298.851 415.709
172.727 310.345 415.709
172.727 321.839 747.126
172.727 333.333 731.801
172.727 344.828 360.153
172.727 356.322 170.498
172.727 367.816 65.1341
172.727 379.31 189.655
172.727 390.805 134.1
172.727 402.299 195.402
172.727 413.793 114.943
172.727 425.287 147.51
172.727 517.241 47.8927
172.727 528.736 181.992
172.727 540.23 256.705
172.727 551.724 283.525
172.727 563.218 270.115
172.727 574.713 350.575
172.727 586.207 296.935
172.727 597.701 296.935
172.727 609.195 591.954
172.727 620.69 457.854
172.727 632.184 614.943
172.727 643.678 662.835
172.727 655.172 273.946
172.727 666.667 273.946
172.727 678.161 273.946
172.727 689.655 275.862
172.727 701.149 275.862
172.727 712.644 279.693
172.727 724.138 346.743
172.727 735.632 431.034
172.727 747.126 429.119
172.727 758.621 375.479
172.727 770.115 386.973
172.727 781.609 218.391
172.727 793.103 193.487
172.727 804.598 195.402
172.727 816.092 193.487
172.727 827.586 195.402
172.727 839.08 275.862
172.727 850.575 235.632
172.727 862.069 203.065
172.727 873.563 224.138
172.727 885.057 262.452
172.727 896.552 160.92
172.727 908.046 333.333
172.727 919.54 570.881
172.727 931.034 427.203
177.273 241.379 415.709
177.273 252.874 413.793
177.273 264.368 415.709
177.273 275.862 415.709
177.273 287.356 415.709
177.273 298.851 415.709
177.273 310.345 415.709
177.273 321.839 747.126
177.273 333.333 729.885
177.273 344.828 310.345
177.273 356.322 195.402
177.273 367.816 120.69
177.273 379.31 203.065
177.273 390.805 134.1
177.273 402.299 195.402
177.273 413.793 120.69
177.273 425.287 139.847
177.273 517.241 45.977
177.273 528.736 252.874
177.273 540.23 333.333
177.273 551.724 283.525
177.273 563.218 241.379
177.273 574.713 417.625
177.273 586.207 296.935
177.273 597.701 505.747
177.273 609.195 542.146
177.273 620.69 578.544
177.273 632.184 547.893
177.273 643.678 425.287
177.273 655.172 275.862
177.273 666.667 273.946
177.273 678.161 275.862
177.273 689.655 275.862
177.273 701.149 279.693
177.273 712.644 279.693
177.273 724.138 344.828
177.273 735.632 429.119
177.273 747.126 427.203
177.273 758.621 375.479
177.273 770.115 329.502
177.273 781.609 291.188
177.273 793.103 193.487
177.273 804.598 220.307
177.273 816.092 222.222
177.273 827.586 222.222
177.273 839.08 312.261
177.273 850.575 314.176
177.273 862.069 204.981
177.273 873.563 226.054
177.273 885.057 226.054
177.273 896.552 264.368
177.273 908.046 333.333
177.273 919.54 641.762
177.273 931.034 574.713
181.818 252.874 415.709
181.818 264.368 415.709
181.818 275.862 415.709
181.818 287.356 415.709
181.818 298.851 415.709
181.818 310.345 415.709
181.818 321.839 599.617
181.818 333.333 802.682
181.818 344.828 473.18
181.818 356.322 208.812
181.818 367.816 170.498
181.818 379.31 113.027
181.818 390.805 214.559
181.818 402.299 193.487
181.818 413.793 120.69
181.818 425.287 153.257
181.818 436.782 34.4828
181.818 517.241 93.8697
181.818 528.736 295.019
181.818 540.23 442.529
181.818 551.724 362.069
181.818 563.218 417.625
181.818 574.713 505.747
181.818 586.207 459.77
181.818 597.701 544.061
181.818 609.195 337.165
181.818 620.69 613.027
181.818 632.184 444.444
181.818 643.678 425.287
181.818 655.172 275.862
181.818 666.667 275.862
181.818 678.161 275.862
181.818 689.655 277.778
181.818 701.149 279.693
181.818 712.644 279.693
181.818 724.138 342.912
181.818 735.632 342.912
181.818 747.126 496.169
181.818 758.621 373.563
181.818 770.115 329.502
181.818 781.609 289.272
181.818 793.103 220.307
181.818 804.598 220.307
181.818 816.092 222.222
181.818 827.586 222.222
181.818 839.08 220.307
181.818 850.575 314.176
181.818 862.069 203.065
181.818 873.563 120.69
181.818 885.057 224.138
181.818 896.552 264.368
181.818 908.046 204.981
181.818 919.54 333.333
181.818 931.034 574.713
181.818 942.529 427.203
186.364 45.977 409.962
186.364 57.4713 409.962
186.364 68.9655 409.962
186.364 80.4598 409.962
186.364 91.954 409.962
186.364 275.862 415.709
186.364 287.356 415.709
186.364 298.851 415.709
186.364 310.345 415.709
186.364 321.839 415.709
186.364 333.333 804.598
186.364 344.828 517.241
186.364 356.322 193.487
186.364 367.816 128.352
186.364 379.31 302.682
186.364 390.805 170.498
186.364 402.299 157.088
186.364 413.793 226.054
186.364 425.287 124.521
186.364 436.782 90.0383
186.364 517.241 166.667
186.364 528.736 327.586
186.364 540.23 421.456
186.364 551.724 268.199
186.364 563.218 385.057
186.364 574.713 459.77
186.364 586.207 461.686
186.364 597.701 461.686
186.364 609.195 457.854
186.364 620.69 613.027
186.364 632.184 425.287
186.364 643.678 427.203
186.364 655.172 425.287
186.364 666.667 277.778
186.364 678.161 277.778
186.364 689.655 277.778
186.364 701.149 279.693
186.364 712.644 220.307
186.364 724.138 342.912
186.364 735.632 340.996
186.364 747.126 494.253
186.364 758.621 375.479
186.364 770.115 250.958
186.364 781.609 386.973
186.364 793.103 191.571
186.364 804.598 191.571
186.364 816.092 193.487
186.364 827.586 220.307
186.364 839.08 222.222
186.364 850.575 277.778
186.364 862.069 235.632
186.364 873.563 122.605
186.364 885.057 145.594
186.364 896.552 264.368
186.364 908.046 162.835
186.364 919.54 421.456
186.364 931.034 574.713
186.364 942.529 576.628
190.909 34.4828 409.962
190.909 45.977 409.962
190.909 57.4713 409.962
190.909 68.9655 409.962
190.909 80.4598 409.962
190.909 91.954 409.962
190.909 103.448 409.962
190.909 114.943 409.962
190.909 126.437 409.962
190.909 137.931 409.962
190.909 149.425 409.962
190.909 183.908 413.793
190.909 195.402 413.793
190.909 206.897 413.793
190.909 218.391 413.793
190.909 229.885 413.793
190.909 287.356 415.709
190.909 298.851 415.709
190.909 310.345 415.709
190.909 321.839 415.709
190.909 333.333 601.533
190.909 344.828 704.981
190.909 356.322 429.119
190.909 367.816 208.812
190.909 379.31 180.077
190.909 390.805 226.054
190.909 402.299 159.004
190.909 413.793 193.487
190.909 425.287 99.6169
190.909 436.782 118.774
190.909 517.241 220.307
190.909 528.736 369.732
190.909 540.23 340.996
190.909 551.724 254.789
190.909 563.218 455.939
190.909 574.713 406.13
190.909 586.207 461.686
190.909 597.701 363.985
190.909 609.195 613.027
190.909 620.69 444.444
190.909 632.184 277.778
190.909 643.678 206.897
190.909 655.172 427.203
190.909 666.667 279.693
190.909 678.161 279.693
190.909 689.655 281.609
190.909 701.149 281.609
190.909 712.644 218.391
190.909 724.138 218.391
190.909 735.632 415.709
190.909 747.126 494.253
190.909 758.621 436.782
190.909 770.115 249.042
190.909 781.609 386.973
190.909 793.103 191.571
190.909 804.598 191.571
190.909 816.092 193.487
190.909 827.586 193.487
190.909 839.08 193.487
190.909 850.575 316.092
190.909 862.069 204.981
190.909 873.563 120.69
190.909 885.057 145.594
190.909 896.552 145.594
190.909 908.046 162.835
190.909 919.54 423.372
190.909 931.034 279.693
190.909 942.529 576.628
195.455 22.9885 409.962
195.455 34.4828 411.877
195.455 45.977 411.877
195.455 57.4713 411.877
195.455 68.9655 411.877
195.455 80.4598 411.877
195.455 91.954 411.877
195.455 103.448 411.877
195.455 114.943 411.877
195.455 126.437 411.877
195.455 137.931 413.793
195.455 149.425 413.793
195.455 160.92 413.793
195.455 172.414 413.793
195.455 183.908 413.793
195.455 195.402 413.793
195.455 206.897 413.793
195.455 218.391 413.793
195.455 229.885 413.793
195.455 241.379 413.793
195.455 252.874 413.793
195.455 310.345 415.709
195.455 321.839 415.709
195.455 333.333 415.709
195.455 344.828 747.126
195.455 356.322 595.785
195.455 367.816 212.644
195.455 379.31 193.487
195.455 390.805 252.874
195.455 402.299 180.077
195.455 413.793 157.088
195.455 425.287 91.954
195.455 436.782 124.521
195.455 448.276 24.9042
195.455 505.747 30.6513
195.455 517.241 256.705
195.455 528.736 335.249
195.455 540.23 287.356
195.455 551.724 300.766
195.455 563.218 450.192
195.455 574.713 496.169
195.455 586.207 555.556
195.455 597.701 216.475
195.455 609.195 613.027
195.455 620.69 444.444
195.455 632.184 427.203
195.455 643.678 206.897
195.455 655.172 427.203
195.455 666.667 429.119
195.455 678.161 279.693
195.455 689.655 281.609
195.455 701.149 281.609
195.455 712.644 216.475
195.455 724.138 216.475
195.455 735.632 417.625
195.455 747.126 373.563
195.455 758.621 373.563
195.455 770.115 375.479
195.455 781.609 385.057
195.455 793.103 191.571
195.455 804.598 191.571
195.455 816.092 216.475
195.455 827.586 191.571
195.455 839.08 191.571
195.455 850.575 281.609
195.455 862.069 206.897
195.455 873.563 241.379
195.455 885.057 145.594
195.455 896.552 180.077
195.455 908.046 162.835
195.455 919.54 337.165
195.455 931.034 423.372
195.455 942.529 576.628
195.455 954.023 427.203
200 22.9885 409.962
200 34.4828 411.877
200 45.977 411.877
200 57.4713 411.877
200 68.9655 411.877
200 80.4598 411.877
200 91.954 411.877
200 103.448 411.877
200 114.943 411.877
200 126.437 413.793
200 137.931 413.793
200 149.425 413.793
200 160.92 415.709
200 172.414 413.793
200 183.908 413.793
200 195.402 413.793
200 206.897 413.793
200 218.391 413.793
200 229.885 413.793
200 241.379 413.793
200 252.874 413.793
200 264.368 413.793
200 275.862 413.793
200 287.356 413.793
200 321.839 415.709
200 333.333 415.709
200 344.828 693.487
200 356.322 689.655
200 367.816 285.441
200 379.31 201.149
200 390.805 385.057
200 402.299 126.437
200 413.793 164.751
200 425.287 95.7854
200 436.782 59.387
200 448.276 111.111
200 505.747 55.5556
200 517.241 166.667
200 528.736 308.429
200 540.23 233.716
200 551.724 220.307
200 563.218 252.874
200 574.713 385.057
200 586.207 408.046
200 597.701 325.67
200 609.195 293.103
200 620.69 547.893
200 632.184 206.897
200 643.678 208.812
200 655.172 206.897
200 666.667 429.119
200 678.161 279.693
200 689.655 279.693
200 701.149 281.609
200 712.644 216.475
200 724.138 329.502
200 735.632 419.54
200 747.126 371.648
200 758.621 371.648
200 770.115 373.563
200 781.609 325.67
200 793.103 289.272
200 804.598 216.475
200 816.092 216.475
200 827.586 216.475
200 839.08 216.475
200 850.575 319.923
200 862.069 241.379
200 873.563 241.379
200 885.057 145.594
200 896.552 206.897
200 908.046 206.897
200 919.54 206.897
200 931.034 425.287
200 942.529 427.203
200 954.023 427.203
204.545 11.4943 409.962
204.545 22.9885 411.877
204.545 34.4828 411.877
204.545 45.977 411.877
204.545 57.4713 413.793
204.545 68.9655 413.793
204.545 80.4598 413.793
204.545 91.954 413.793
204.545 103.448 413.793
204.545 114.943 413.793
204.545 126.437 413.793
204.545 137.931 413.793
204.545 149.425 415.709
204.545 160.92 415.709
204.545 172.414 415.709
204.545 183.908 415.709
204.545 195.402 415.709
204.545 206.897 415.709
204.545 218.391 415.709
204.545 229.885 415.709
204.545 241.379 415.709
204.545 252.874 413.793
204.545 264.368 415.709
204.545 275.862 413.793
204.545 287.356 415.709
204.545 298.851 415.709
204.545 310.345 415.709
204.545 321.839 561.303
204.545 333.333 561.303
204.545 344.828 561.303
204.545 356.322 795.019
204.545 367.816 365.9
204.545 379.31 444.444
204.545 390.805 319.923
204.545 402.299 162.835
204.545 413.793 206.897
204.545 425.287 99.6169
204.545 436.782 51.7241
204.545 448.276 101.533
204.545 505.747 55.5556
204.545 517.241 195.402
204.545 528.736 275.862
204.545 540.23 388.889
204.545 551.724 245.211
204.545 563.218 247.126
204.545 574.713 201.149
204.545 586.207 277.778
204.545 597.701 289.272
204.545 609.195 281.609
204.545 620.69 620.69
204.545 632.184 283.525
204.545 643.678 206.897
204.545 655.172 208.812
204.545 666.667 429.119
204.545 678.161 281.609
204.545 689.655 281.609
204.545 701.149 283.525
204.545 712.644 216.475
204.545 724.138 333.333
204.545 735.632 421.456
204.545 747.126 287.356
204.545 758.621 494.253
204.545 770.115 373.563
204.545 781.609 323.755
204.545 793.103 289.272
204.545 804.598 189.655
204.545 816.092 189.655
204.545 827.586 214.559
204.545 839.08 319.923
204.545 850.575 319.923
204.545 862.069 241.379
204.545 873.563 243.295
204.545 885.057 243.295
204.545 896.552 160.92
204.545 908.046 160.92
204.545 919.54 162.835
204.545 931.034 423.372
204.545 942.529 427.203
204.545 954.023 427.203
204.545 965.517 427.203
209.091 11.4943 409.962
209.091 22.9885 411.877
209.091 34.4828 411.877
209.091 45.977 411.877
209.091 57.4713 413.793
209.091 68.9655 413.793
209.091 80.4598 413.793
209.091 91.954 413.793
209.091 103.448 413.793
209.091 114.943 413.793
209.091 126.437 413.793
209.091 137.931 415.709
209.091 149.425 415.709
209.091 160.92 415.709
209.091 172.414 415.709
209.091 183.908 415.709
209.091 195.402 415.709
209.091 206.897 415.709
209.091 218.391 415.709
209.091 229.885 415.709
209.091 241.379 415.709
209.091 252.874 415.709
209.091 264.368 415.709
209.091 275.862 415.709
209.091 287.356 415.709
209.091 298.851 415.709
209.091 310.345 415.709
209.091 321.839 415.709
209.091 333.333 272.031
209.091 344.828 446.36
209.091 356.322 710.728
209.091 367.816 551.724
209.091 379.31 526.82
209.091 390.805 227.969
209.091 402.299 283.525
209.091 413.793 206.897
209.091 425.287 90.0383
209.091 436.782 105.364
209.091 448.276 101.533
209.091 517.241 160.92
209.091 528.736 88.1226
209.091 540.23 289.272
209.091 551.724 348.659
209.091 563.218 340.996
209.091 574.713 302.682
209.091 586.207 327.586
209.091 597.701 333.333
209.091 609.195 381.226
209.091 620.69 455.939
209.091 632.184 522.989
209.091 643.678 434.866
209.091 655.172 206.897
209.091 666.667 431.034
209.091 678.161 431.034
209.091 689.655 281.609
209.091 701.149 281.609
209.091 712.644 335.249
209.091 724.138 335.249
209.091 735.632 423.372
209.091 747.126 289.272
209.091 758.621 494.253
209.091 770.115 371.648
209.091 781.609 247.126
209.091 793.103 386.973
209.091 804.598 187.739
209.091 816.092 187.739
209.091 827.586 279.693
209.091 839.08 318.008
209.091 850.575 314.176
209.091 862.069 316.092
209.091 873.563 279.693
209.091 885.057 352.49
209.091 896.552 160.92
209.091 908.046 132.184
209.091 919.54 132.184
209.091 931.034 425.287
209.091 942.529 427.203
209.091 954.023 429.119
209.091 965.517 429.119
213.636 11.4943 409.962
213.636 22.9885 411.877
213.636 34.4828 411.877
213.636 45.977 413.793
213.636 57.4713 413.793
213.636 68.9655 413.793
213.636 80.4598 413.793
213.636 91.954 413.793
213.636 103.448 413.793
213.636 114.943 413.793
213.636 126.437 413.793
213.636 137.931 413.793
213.636 149.425 415.709
213.636 160.92 415.709
213.636 172.414 415.709
213.636 183.908 415.709
213.636 195.402 415.709
213.636 206.897 415.709
213.636 218.391 415.709
213.636 229.885 415.709
213.636 241.379 415.709
213.636 252.874 415.709
213.636 264.368 415.709
213.636 275.862 415.709
213.636 287.356 415.709
213.636 298.851 415.709
213.636 310.345 415.709
213.636 321.839 415.709
213.636 333.333 415.709
213.636 344.828 555.556
213.636 356.322 724.138
213.636 367.816 563.218
213.636 379.31 362.069
213.636 390.805 310.345
213.636 402.299 312.261
213.636 413.793 97.7011
213.636 425.287 61.3027
213.636 436.782 114.943
213.636 448.276 26.8199
213.636 517.241 114.943
213.636 528.736 172.414
213.636 540.23 128.352
213.636 551.724 371.648
213.636 563.218 423.372
213.636 574.713 356.322
213.636 586.207 350.575
213.636 597.701 415.709
213.636 609.195 304.598
213.636 620.69 99.6169
213.636 632.184 469.349
213.636 643.678 346.743
213.636 655.172 442.529
213.636 666.667 352.49
213.636 678.161 431.034
213.636 689.655 279.693
213.636 701.149 212.644
213.636 712.644 335.249
213.636 724.138 421.456
213.636 735.632 423.372
213.636 747.126 289.272
213.636 758.621 496.169
213.636 770.115 375.479
213.636 781.609 249.042
213.636 793.103 385.057
213.636 804.598 187.739
213.636 816.092 187.739
213.636 827.586 277.778
213.636 839.08 275.862
213.636 850.575 314.176
213.636 862.069 183.908
213.636 873.563 185.824
213.636 885.057 306.513
213.636 896.552 231.801
213.636 908.046 132.184
213.636 919.54 132.184
213.636 931.034 160.92
213.636 942.529 427.203
213.636 954.023 281.609
213.636 965.517 429.119
218.182 0 409.962
218.182 11.4943 411.877
218.182 22.9885 411.877
218.182 34.4828 411.877
218.182 45.977 413.793
218.182 57.4713 411.877
218.182 68.9655 411.877
218.182 80.4598 411.877
218.182 91.954 411.877
218.182 103.448 411.877
218.182 114.943 413.793
218.182 126.437 413.793
218.182 137.931 413.793
218.182 149.425 413.793
218.182 160.92 415.709
218.182 172.414 415.709
218.182 183.908 415.709
218.182 195.402 415.709
218.182 206.897 415.709
218.182 218.391 415.709
218.182 229.885 415.709
218.182 241.379 415.709
218.182 252.874 415.709
218.182 264.368 415.709
218.182 275.862 415.709
218.182 287.356 415.709
218.182 298.851 415.709
218.182 310.345 415.709
218.182 321.839 415.709
218.182 333.333 601.533
218.182 344.828 779.693
218.182 356.322 716.475
218.182 367.816 413.793
218.182 379.31 316.092
218.182 390.805 329.502
218.182 402.299 218.391
218.182 413.793 95.7854
218.182 425.287 178.161
218.182 436.782 130.268
218.182 528.736 162.835
218.182 540.23 159.004
218.182 551.724 145.594
218.182 563.218 367.816
218.182 574.713 540.23
218.182 586.207 475.096
218.182 597.701 538.314
218.182 609.195 509.579
218.182 620.69 308.429
218.182 632.184 400.383
218.182 643.678 475.096
218.182 655.172 181.992
218.182 666.667 356.322
218.182 678.161 536.398
218.182 689.655 348.659
218.182 701.149 333.333
218.182 712.644 335.249
218.182 724.138 423.372
218.182 735.632 289.272
218.182 747.126 373.563
218.182 758.621 547.893
218.182 770.115 375.479
218.182 781.609 249.042
218.182 793.103 386.973
218.182 804.598 189.655
218.182 816.092 187.739
218.182 827.586 335.249
218.182 839.08 275.862
218.182 850.575 181.992
218.182 862.069 183.908
218.182 873.563 185.824
218.182 885.057 201.149
218.182 896.552 231.801
218.182 908.046 233.716
218.182 919.54 134.1
218.182 931.034 162.835
218.182 942.529 429.119
218.182 954.023 427.203
218.182 965.517 431.034
222.727 0 409.962
222.727 11.4943 411.877
222.727 22.9885 411.877
222.727 34.4828 411.877
222.727 45.977 411.877
222.727 57.4713 411.877
222.727 68.9655 411.877
222.727 80.4598 411.877
222.727 91.954 411.877
222.727 103.448 411.877
222.727 114.943 411.877
222.727 126.437 411.877
222.727 137.931 413.793
222.727 149.425 413.793
222.727 160.92 413.793
222.727 172.414 415.709
222.727 183.908 415.709
222.727 195.402 415.709
222.727 206.897 415.709
222.727 218.391 415.709
222.727 229.885 415.709
222.727 241.379 415.709
222.727 252.874 415.709
222.727 264.368 415.709
222.727 275.862 415.709
222.727 287.356 415.709
222.727 298.851 415.709
222.727 310.345 415.709
222.727 321.839 415.709
222.727 333.333 835.249
222.727 344.828 789.272
222.727 356.322 434.866
222.727 367.816 400.383
222.727 379.31 318.008
222.727 390.805 295.019
222.727 402.299 160.92
222.727 413.793 143.678
222.727 425.287 139.847
222.727 528.736 76.6284
222.727 540.23 178.161
222.727 551.724 176.245
222.727 563.218 189.655
222.727 574.713 432.95
222.727 586.207 532.567
222.727 597.701 488.506
222.727 609.195 599.617
222.727 620.69 509.579
222.727 632.184 446.36
222.727 643.678 597.701
222.727 655.172 530.651
222.727 666.667 270.115
222.727 678.161 298.851
222.727 689.655 503.831
222.727 701.149 490.421
222.727 712.644 425.287
222.727 724.138 425.287
222.727 735.632 377.395
222.727 747.126 438.697
222.727 758.621 438.697
222.727 770.115 250.958
222.727 781.609 252.874
222.727 793.103 388.889
222.727 804.598 189.655
222.727 816.092 252.874
222.727 827.586 335.249
222.727 839.08 206.897
222.727 850.575 181.992
222.727 862.069 181.992
222.727 873.563 183.908
222.727 885.057 181.992
222.727 896.552 113.027
222.727 908.046 233.716
222.727 919.54 235.632
222.727 931.034 164.751
222.727 942.529 208.812
222.727 954.023 429.119
222.727 965.517 431.034
227.273 0 409.962
227.273 11.4943 411.877
227.273 22.9885 411.877
227.273 34.4828 411.877
227.273 45.977 411.877
227.273 57.4713 411.877
227.273 68.9655 409.962
227.273 80.4598 409.962
227.273 91.954 409.962
227.273 103.448 409.962
227.273 114.943 411.877
227.273 126.437 411.877
227.273 137.931 411.877
227.273 149.425 413.793
227.273 160.92 413.793
227.273 172.414 413.793
227.273 183.908 415.709
227.273 195.402 415.709
227.273 206.897 415.709
227.273 218.391 415.709
227.273 229.885 415.709
227.273 241.379 415.709
227.273 252.874 415.709
227.273 264.368 415.709
227.273 275.862 415.709
227.273 287.356 415.709
227.273 298.851 415.709
227.273 310.345 415.709
227.273 321.839 810.345
227.273 333.333 837.165
227.273 344.828 704.981
227.273 356.322 524.904
227.273 367.816 465.517
227.273 379.31 296.935
227.273 390.805 201.149
227.273 402.299 118.774
227.273 413.793 78.5441
227.273 494.253 0
227.273 540.23 38.3142
227.273 551.724 103.448
227.273 563.218 145.594
227.273 574.713 151.341
227.273 586.207 350.575
227.273 597.701 488.506
227.273 609.195 609.195
227.273 620.69 609.195
227.273 632.184 620.69
227.273 643.678 616.858
227.273 655.172 704.981
227.273 666.667 743.295
227.273 678.161 645.594
227.273 689.655 599.617
227.273 701.149 597.701
227.273 712.644 467.433
227.273 724.138 459.77
227.273 735.632 450.192
227.273 747.126 331.418
227.273 758.621 329.502
227.273 770.115 252.874
227.273 781.609 252.874
227.273 793.103 390.805
227.273 804.598 191.571
227.273 816.092 254.789
227.273 827.586 250.958
227.273 839.08 183.908
227.273 850.575 181.992
227.273 862.069 181.992
227.273 873.563 181.992
227.273 885.057 183.908
227.273 896.552 101.533
227.273 908.046 111.111
227.273 919.54 235.632
227.273 931.034 164.751
227.273 942.529 206.897
227.273 954.023 431.034
227.273 965.517 578.544
227.273 977.011 431.034
231.818 0 409.962
231.818 11.4943 411.877
231.818 22.9885 409.962
231.818 34.4828 411.877
231.818 45.977 411.877
231.818 57.4713 409.962
231.818 68.9655 408.046
231.818 80.4598 408.046
231.818 91.954 408.046
231.818 103.448 408.046
231.818 114.943 409.962
231.818 126.437 409.962
231.818 137.931 411.877
231.818 149.425 413.793
231.818 160.92 413.793
231.818 172.414 413.793
231.818 183.908 413.793
231.818 195.402 415.709
231.818 206.897 415.709
231.818 218.391 415.709
231.818 229.885 415.709
231.818 241.379 415.709
231.818 252.874 415.709
231.818 264.368 415.709
231.818 275.862 415.709
231.818 287.356 762.452
231.818 298.851 871.648
231.818 310.345 919.54
231.818 321.839 908.046
231.818 333.333 840.996
231.818 344.828 703.065
231.818 356.322 521.073
231.818 367.816 262.452
231.818 379.31 145.594
231.818 390.805 84.2912
231.818 436.782 0
231.818 448.276 0
231.818 471.264 1.91571
231.818 482.759 0
231.818 494.253 1.91571
231.818 505.747 5.74713
231.818 517.241 1.91571
231.818 528.736 0
231.818 563.218 28.7356
231.818 574.713 28.7356
231.818 586.207 24.9042
231.818 597.701 120.69
231.818 609.195 86.2069
231.818 620.69 99.6169
231.818 632.184 298.851
231.818 643.678 490.421
231.818 655.172 567.05
231.818 666.667 578.544
231.818 678.161 653.257
231.818 689.655 567.05
231.818 701.149 515.326
231.818 712.644 408.046
231.818 724.138 319.923
231.818 735.632 229.885
231.818 747.126 224.138
231.818 758.621 333.333
231.818 770.115 252.874
231.818 781.609 252.874
231.818 793.103 333.333
231.818 804.598 348.659
231.818 816.092 254.789
231.818 827.586 252.874
231.818 839.08 181.992
231.818 850.575 181.992
231.818 862.069 181.992
231.818 873.563 183.908
231.818 885.057 183.908
231.818 896.552 101.533
231.818 908.046 113.027
231.818 919.54 235.632
231.818 931.034 275.862
231.818 942.529 166.667
231.818 954.023 208.812
231.818 965.517 580.46
231.818 977.011 431.034
236.364 11.4943 409.962
236.364 22.9885 409.962
236.364 34.4828 409.962
236.364 45.977 409.962
236.364 57.4713 408.046
236.364 68.9655 408.046
236.364 80.4598 406.13
236.364 91.954 406.13
236.364 103.448 406.13
236.364 114.943 408.046
236.364 126.437 409.962
236.364 137.931 409.962
236.364 149.425 411.877
236.364 160.92 413.793
236.364 172.414 413.793
236.364 183.908 413.793
236.364 195.402 415.709
236.364 206.897 415.709
236.364 218.391 415.709
236.364 229.885 415.709
236.364 241.379 415.709
236.364 252.874 415.709
236.364 264.368 609.195
236.364 275.862 871.648
236.364 287.356 936.782
236.364 298.851 842.912
236.364 310.345 858.238
236.364 321.839 672.414
236.364 333.333 463.602
236.364 344.828 99.6169
236.364 448.276 0
236.364 459.77 1.91571
236.364 471.264 0
236.364 505.747 5.74713
236.364 517.241 1.91571
236.364 528.736 5.74713
236.364 655.172 118.774
236.364 666.667 241.379
236.364 678.161 431.034
236.364 689.655 632.184
236.364 701.149 657.088
236.364 712.644 662.835
236.364 724.138 601.533
236.364 735.632 522.989
236.364 747.126 379.31
236.364 758.621 402.299
236.364 770.115 333.333
236.364 781.609 335.249
236.364 793.103 394.636
236.364 804.598 346.743
236.364 816.092 170.498
236.364 827.586 252.874
236.364 839.08 208.812
236.364 850.575 183.908
236.364 862.069 183.908
236.364 873.563 183.908
236.364 885.057 183.908
236.364 896.552 101.533
236.364 908.046 113.027
236.364 919.54 113.027
236.364 931.034 275.862
236.364 942.529 164.751
236.364 954.023 208.812
236.364 965.517 580.46
236.364 977.011 431.034
240.909 22.9885 408.046
240.909 34.4828 408.046
240.909 45.977 408.046
240.909 57.4713 408.046
240.909 68.9655 408.046
240.909 80.4598 408.046
240.909 91.954 408.046
240.909 103.448 404.215
240.909 126.437 408.046
240.909 137.931 409.962
240.909 149.425 411.877
240.909 160.92 413.793
240.909 172.414 413.793
240.909 183.908 415.709
240.909 195.402 415.709
240.909 206.897 415.709
240.909 218.391 415.709
240.909 229.885 415.709
240.909 241.379 415.709
240.909 252.874 770.115
240.909 264.368 919.54
240.909 275.862 902.299
240.909 287.356 704.981
240.909 298.851 486.59
240.909 310.345 494.253
240.909 321.839 367.816
240.909 333.333 44.0613
240.909 448.276 0
240.909 459.77 1.91571
240.909 471.264 5.74713
240.909 482.759 3.83142
240.909 494.253 1.91571
240.909 505.747 1.91571
240.909 528.736 0
240.909 678.161 36.3985
240.909 689.655 224.138
240.909 701.149 318.008
240.909 712.644 478.927
240.909 724.138 576.628
240.909 735.632 603.448
240.909 747.126 593.87
240.909 758.621 584.291
240.909 770.115 465.517
240.909 781.609 270.115
240.909 793.103 321.839
240.909 804.598 239.464
240.909 816.092 160.92
240.909 827.586 235.632
240.909 839.08 170.498
240.909 850.575 183.908
240.909 862.069 181.992
240.909 873.563 183.908
240.909 885.057 183.908
240.909 896.552 101.533
240.909 908.046 101.533
240.909 919.54 113.027
240.909 931.034 273.946
240.909 942.529 210.728
240.909 954.023 283.525
240.909 965.517 582.375
240.909 977.011 582.375
245.455 45.977 408.046
245.455 57.4713 408.046
245.455 68.9655 408.046
245.455 149.425 408.046
245.455 160.92 413.793
245.455 172.414 413.793
245.455 183.908 415.709
245.455 195.402 415.709
245.455 206.897 415.709
245.455 218.391 415.709
245.455 229.885 613.027
245.455 241.379 835.249
245.455 252.874 929.119
245.455 264.368 842.912
245.455 275.862 651.341
245.455 287.356 390.805
245.455 298.851 365.9
245.455 310.345 337.165
245.455 321.839 174.33
245.455 436.782 0
245.455 448.276 0
245.455 459.77 0
245.455 471.264 3.83142
245.455 482.759 5.74713
245.455 494.253 1.91571
245.455 505.747 0
245.455 678.161 3.83142
245.455 689.655 88.1226
245.455 701.149 298.851
245.455 712.644 268.199
245.455 724.138 231.801
245.455 735.632 377.395
245.455 747.126 480.843
245.455 758.621 507.663
245.455 770.115 509.579
245.455 781.609 379.31
245.455 793.103 241.379
245.455 804.598 160.92
245.455 816.092 160.92
245.455 827.586 235.632
245.455 839.08 172.414
245.455 850.575 172.414
245.455 862.069 172.414
245.455 873.563 181.992
245.455 885.057 183.908
245.455 896.552 99.6169
245.455 908.046 116.858
245.455 919.54 114.943
245.455 931.034 335.249
245.455 942.529 275.862
245.455 954.023 285.441
245.455 965.517 285.441
245.455 977.011 584.291
245.455 988.506 431.034
250 160.92 413.793
250 172.414 413.793
250 183.908 415.709
250 195.402 415.709
250 206.897 415.709
250 218.391 613.027
250 229.885 839.08
250 241.379 917.625
250 252.874 823.755
250 264.368 482.759
250 275.862 436.782
250 287.356 400.383
250 298.851 216.475
250 310.345 170.498
250 448.276 0
250 459.77 1.91571
250 471.264 3.83142
250 482.759 0
250 678.161 0
250 689.655 5.74713
250 701.149 231.801
250 712.644 327.586
250 724.138 233.716
250 735.632 256.705
250 747.126 446.36
250 758.621 356.322
250 770.115 431.034
250 781.609 404.215
250 793.103 231.801
250 804.598 162.835
250 816.092 160.92
250 827.586 237.548
250 839.08 193.487
250 850.575 193.487
250 862.069 172.414
250 873.563 183.908
250 885.057 183.908
250 896.552 101.533
250 908.046 101.533
250 919.54 114.943
250 931.034 134.1
250 942.529 337.165
250 954.023 208.812
250 965.517 285.441
250 977.011 285.441
250 988.506 586.207
254.545 183.908 413.793
254.545 195.402 415.709
254.545 206.897 613.027
254.545 218.391 839.08
254.545 229.885 873.563
254.545 241.379 863.985
254.545 252.874 620.69
254.545 264.368 519.157
254.545 275.862 538.314
254.545 287.356 385.057
254.545 298.851 132.184
254.545 448.276 0
254.545 678.161 0
254.545 689.655 0
254.545 701.149 28.7356
254.545 712.644 243.295
254.545 724.138 245.211
254.545 735.632 204.981
254.545 747.126 298.851
254.545 758.621 398.467
254.545 770.115 375.479
254.545 781.609 388.889
254.545 793.103 293.103
254.545 804.598 164.751
254.545 816.092 160.92
254.545 827.586 237.548
254.545 839.08 172.414
254.545 850.575 172.414
254.545 862.069 172.414
254.545 873.563 172.414
254.545 885.057 183.908
254.545 896.552 101.533
254.545 908.046 99.6169
254.545 919.54 113.027
254.545 931.034 134.1
254.545 942.529 337.165
254.545 954.023 208.812
254.545 965.517 283.525
254.545 977.011 285.441
254.545 988.506 586.207
259.091 206.897 810.345
259.091 218.391 860.153
259.091 229.885 833.333
259.091 241.379 835.249
259.091 252.874 519.157
259.091 264.368 473.18
259.091 275.862 275.862
259.091 287.356 40.2299
259.091 678.161 0
259.091 701.149 30.6513
259.091 712.644 168.582
259.091 724.138 168.582
259.091 735.632 197.318
259.091 747.126 174.33
259.091 758.621 356.322
259.091 770.115 423.372
259.091 781.609 392.72
259.091 793.103 325.67
259.091 804.598 272.031
259.091 816.092 224.138
259.091 827.586 264.368
259.091 839.08 174.33
259.091 850.575 174.33
259.091 862.069 174.33
259.091 873.563 174.33
259.091 885.057 183.908
259.091 896.552 101.533
259.091 908.046 101.533
259.091 919.54 114.943
259.091 931.034 134.1
259.091 942.529 427.203
259.091 954.023 427.203
259.091 965.517 285.441
259.091 977.011 285.441
259.091 988.506 588.123
263.636 195.402 662.835
263.636 206.897 835.249
263.636 218.391 781.609
263.636 229.885 800.766
263.636 241.379 588.123
263.636 252.874 386.973
263.636 264.368 191.571
263.636 275.862 68.9655
263.636 666.667 1.91571
263.636 678.161 1.91571
263.636 689.655 3.83142
263.636 701.149 76.6284
263.636 712.644 203.065
263.636 724.138 114.943
263.636 735.632 166.667
263.636 747.126 147.51
263.636 758.621 168.582
263.636 770.115 381.226
263.636 781.609 475.096
263.636 793.103 396.552
263.636 804.598 323.755
263.636 816.092 283.525
263.636 827.586 164.751
263.636 839.08 181.992
263.636 850.575 195.402
263.636 862.069 174.33
263.636 873.563 174.33
263.636 885.057 185.824
263.636 896.552 101.533
263.636 908.046 118.774
263.636 919.54 113.027
263.636 931.034 134.1
263.636 942.529 164.751
263.636 954.023 429.119
263.636 965.517 287.356
263.636 977.011 287.356
263.636 988.506 590.038
268.182 195.402 743.295
268.182 206.897 714.559
268.182 218.391 689.655
268.182 229.885 659.004
268.182 241.379 500
268.182 252.874 181.992
268.182 264.368 99.6169
268.182 275.862 51.7241
268.182 678.161 0
268.182 689.655 5.74713
268.182 701.149 44.0613
268.182 712.644 157.088
268.182 724.138 128.352
268.182 735.632 67.0498
268.182 747.126 124.521
268.182 758.621 101.533
268.182 770.115 157.088
268.182 781.609 352.49
268.182 793.103 432.95
268.182 804.598 329.502
268.182 816.092 335.249
268.182 827.586 166.667
268.182 839.08 164.751
268.182 850.575 164.751
268.182 862.069 174.33
268.182 873.563 174.33
268.182 885.057 185.824
268.182 896.552 101.533
268.182 908.046 113.027
268.182 919.54 243.295
268.182 931.034 136.015
268.182 942.529 164.751
268.182 954.023 429.119
268.182 965.517 432.95
268.182 977.011 287.356
268.182 988.506 436.782
272.727 195.402 743.295
272.727 206.897 664.751
272.727 218.391 597.701
272.727 229.885 553.64
272.727 241.379 247.126
272.727 252.874 28.7356
272.727 264.368 111.111
272.727 275.862 15.3257
272.727 678.161 3.83142
272.727 689.655 0
272.727 701.149 30.6513
272.727 712.644 120.69
272.727 724.138 124.521
272.727 735.632 61.3027
272.727 747.126 107.28
272.727 758.621 118.774
272.727 770.115 126.437
272.727 781.609 239.464
272.727 793.103 459.77
272.727 804.598 446.36
272.727 816.092 295.019
272.727 827.586 235.632
272.727 839.08 183.908
272.727 850.575 166.667
272.727 862.069 176.245
272.727 873.563 176.245
272.727 885.057 185.824
272.727 896.552 101.533
272.727 908.046 113.027
272.727 919.54 243.295
272.727 931.034 164.751
272.727 942.529 164.751
272.727 954.023 208.812
272.727 965.517 432.95
272.727 977.011 432.95
272.727 988.506 436.782
277.273 195.402 795.019
277.273 206.897 726.054
277.273 218.391 624.521
277.273 229.885 597.701
277.273 241.379 181.992
277.273 252.874 61.3027
277.273 264.368 111.111
277.273 666.667 1.91571
277.273 678.161 0
277.273 689.655 0
277.273 701.149 95.7854
277.273 712.644 157.088
277.273 724.138 128.352
277.273 735.632 63.2184
277.273 747.126 70.8812
277.273 758.621 107.28
277.273 770.115 118.774
277.273 781.609 168.582
277.273 793.103 419.54
277.273 804.598 547.893
277.273 816.092 285.441
277.273 827.586 293.103
277.273 839.08 185.824
277.273 850.575 166.667
277.273 862.069 166.667
277.273 873.563 178.161
277.273 885.057 101.533
277.273 896.552 136.015
277.273 908.046 113.027
277.273 919.54 136.015
