56.7686 872.34 153.846
56.7686 882.979 225.641
61.1354 308.511 266.667
61.1354 319.149 266.667
61.1354 329.787 266.667
61.1354 340.426 266.667
61.1354 351.064 266.667
61.1354 361.702 266.667
61.1354 372.34 266.667
61.1354 382.979 194.872
61.1354 393.617 266.667
61.1354 404.255 266.667
61.1354 414.894 266.667
61.1354 425.532 266.667
61.1354 436.17 374.359
61.1354 446.809 374.359
61.1354 457.447 405.128
61.1354 468.085 435.897
61.1354 478.723 456.41
61.1354 489.362 456.41
61.1354 500 420.513
61.1354 510.638 456.41
61.1354 521.277 456.41
61.1354 531.915 456.41
61.1354 542.553 456.41
61.1354 553.191 456.41
61.1354 563.83 384.615
61.1354 574.468 405.128
61.1354 585.106 420.513
61.1354 595.745 456.41
61.1354 606.383 456.41
61.1354 617.021 456.41
61.1354 627.66 456.41
61.1354 638.298 456.41
61.1354 648.936 435.897
61.1354 659.574 405.128
61.1354 670.213 451.282
61.1354 680.851 451.282
61.1354 691.489 451.282
61.1354 702.128 456.41
61.1354 712.766 435.897
61.1354 723.404 400
61.1354 734.043 307.692
61.1354 744.681 379.487
61.1354 755.319 374.359
61.1354 765.957 374.359
61.1354 776.596 369.231
61.1354 787.234 369.231
61.1354 797.872 369.231
61.1354 808.511 369.231
61.1354 819.149 369.231
61.1354 829.787 261.538
61.1354 840.426 261.538
61.1354 851.064 261.538
61.1354 861.702 261.538
61.1354 872.34 256.41
61.1354 882.979 153.846
61.1354 893.617 225.641
65.5022 308.511 266.667
65.5022 319.149 266.667
65.5022 329.787 266.667
65.5022 340.426 266.667
65.5022 351.064 266.667
65.5022 361.702 266.667
65.5022 372.34 230.769
65.5022 382.979 158.974
65.5022 393.617 282.051
65.5022 404.255 266.667
65.5022 414.894 266.667
65.5022 425.532 266.667
65.5022 436.17 266.667
65.5022 446.809 374.359
65.5022 457.447 374.359
65.5022 468.085 405.128
65.5022 478.723 435.897
65.5022 489.362 456.41
65.5022 500 420.513
65.5022 510.638 466.667
65.5022 521.277 456.41
65.5022 531.915 456.41
65.5022 542.553 456.41
65.5022 553.191 451.282
65.5022 563.83 384.615
65.5022 574.468 456.41
65.5022 585.106 420.513
65.5022 595.745 466.667
65.5022 606.383 456.41
65.5022 617.021 456.41
65.5022 627.66 456.41
65.5022 638.298 456.41
65.5022 648.936 420.513
65.5022 659.574 466.667
65.5022 670.213 456.41
65.5022 680.851 451.282
65.5022 691.489 456.41
65.5022 702.128 435.897
65.5022 712.766 400
65.5022 723.404 292.308
65.5022 734.043 312.821
65.5022 744.681 374.359
65.5022 755.319 374.359
65.5022 765.957 374.359
65.5022 776.596 374.359
65.5022 787.234 369.231
65.5022 797.872 369.231
65.5022 808.511 369.231
65.5022 819.149 369.231
65.5022 829.787 261.538
65.5022 840.426 261.538
65.5022 851.064 261.538
65.5022 861.702 261.538
65.5022 872.34 256.41
65.5022 882.979 261.538
65.5022 893.617 189.744
69.869 319.149 266.667
69.869 329.787 266.667
69.869 340.426 266.667
69.869 351.064 266.667
69.869 361.702 266.667
69.869 372.34 194.872
69.869 382.979 292.308
69.869 393.617 271.795
69.869 404.255 266.667
69.869 414.894 266.667
69.869 425.532 266.667
69.869 436.17 266.667
69.869 446.809 374.359
69.869 457.447 374.359
69.869 468.085 374.359
69.869 478.723 420.513
69.869 489.362 456.41
69.869 500 420.513
69.869 510.638 466.667
69.869 521.277 456.41
69.869 531.915 456.41
69.869 542.553 456.41
69.869 553.191 451.282
69.869 563.83 384.615
69.869 574.468 456.41
69.869 585.106 420.513
69.869 595.745 466.667
69.869 606.383 456.41
69.869 617.021 456.41
69.869 627.66 456.41
69.869 638.298 435.897
69.869 648.936 405.128
69.869 659.574 456.41
69.869 670.213 456.41
69.869 680.851 456.41
69.869 691.489 456.41
69.869 702.128 420.513
69.869 712.766 389.744
69.869 723.404 282.051
69.869 734.043 374.359
69.869 744.681 374.359
69.869 755.319 374.359
69.869 765.957 374.359
69.869 776.596 374.359
69.869 787.234 374.359
69.869 797.872 369.231
69.869 808.511 369.231
69.869 819.149 369.231
69.869 829.787 261.538
69.869 840.426 261.538
69.869 851.064 261.538
69.869 861.702 261.538
69.869 872.34 256.41
69.869 882.979 261.538
69.869 893.617 82.0513
74.2358 319.149 266.667
74.2358 329.787 266.667
74.2358 340.426 266.667
74.2358 351.064 266.667
74.2358 361.702 266.667
74.2358 372.34 194.872
74.2358 382.979 292.308
74.2358 393.617 266.667
74.2358 404.255 266.667
74.2358 414.894 266.667
74.2358 425.532 266.667
74.2358 436.17 266.667
74.2358 446.809 374.359
74.2358 457.447 374.359
74.2358 468.085 374.359
74.2358 478.723 379.487
74.2358 489.362 441.026
74.2358 500 420.513
74.2358 510.638 466.667
74.2358 521.277 456.41
74.2358 531.915 456.41
74.2358 542.553 456.41
74.2358 553.191 456.41
74.2358 563.83 384.615
74.2358 574.468 456.41
74.2358 585.106 420.513
74.2358 595.745 466.667
74.2358 606.383 456.41
74.2358 617.021 456.41
74.2358 627.66 456.41
74.2358 638.298 420.513
74.2358 648.936 466.667
74.2358 659.574 456.41
74.2358 670.213 456.41
74.2358 680.851 456.41
74.2358 691.489 435.897
74.2358 702.128 405.128
74.2358 712.766 384.615
74.2358 723.404 292.308
74.2358 734.043 374.359
74.2358 744.681 374.359
74.2358 755.319 374.359
74.2358 765.957 374.359
74.2358 776.596 374.359
74.2358 787.234 374.359
74.2358 797.872 369.231
74.2358 808.511 369.231
74.2358 819.149 369.231
74.2358 829.787 261.538
74.2358 840.426 261.538
74.2358 851.064 261.538
74.2358 861.702 261.538
74.2358 872.34 256.41
74.2358 882.979 266.667
74.2358 893.617 117.949
74.2358 904.255 256.41
78.6026 329.787 266.667
78.6026 340.426 266.667
78.6026 351.064 266.667
78.6026 361.702 266.667
78.6026 372.34 230.769
78.6026 382.979 312.821
78.6026 393.617 261.538
78.6026 404.255 266.667
78.6026 414.894 266.667
78.6026 425.532 266.667
78.6026 436.17 266.667
78.6026 446.809 374.359
78.6026 457.447 374.359
78.6026 468.085 374.359
78.6026 478.723 374.359
78.6026 489.362 420.513
78.6026 500 441.026
78.6026 510.638 476.923
78.6026 521.277 456.41
78.6026 531.915 456.41
78.6026 542.553 456.41
78.6026 553.191 456.41
78.6026 563.83 374.359
78.6026 574.468 435.897
78.6026 585.106 420.513
78.6026 595.745 466.667
78.6026 606.383 456.41
78.6026 617.021 456.41
78.6026 627.66 456.41
78.6026 638.298 420.513
78.6026 648.936 466.667
78.6026 659.574 451.282
78.6026 670.213 451.282
78.6026 680.851 435.897
78.6026 691.489 400
78.6026 702.128 384.615
78.6026 712.766 297.436
78.6026 723.404 307.692
78.6026 734.043 374.359
78.6026 744.681 374.359
78.6026 755.319 374.359
78.6026 765.957 374.359
78.6026 776.596 374.359
78.6026 787.234 374.359
78.6026 797.872 374.359
78.6026 808.511 369.231
78.6026 819.149 369.231
78.6026 829.787 261.538
78.6026 840.426 261.538
78.6026 851.064 261.538
78.6026 861.702 261.538
78.6026 872.34 261.538
78.6026 882.979 87.1795
78.6026 893.617 153.846
78.6026 904.255 256.41
82.9694 329.787 266.667
82.9694 340.426 384.615
82.9694 351.064 384.615
82.9694 361.702 384.615
82.9694 372.34 384.615
82.9694 382.979 333.333
82.9694 393.617 266.667
82.9694 404.255 266.667
82.9694 414.894 266.667
82.9694 425.532 266.667
82.9694 436.17 266.667
82.9694 446.809 374.359
82.9694 457.447 374.359
82.9694 468.085 374.359
82.9694 478.723 374.359
82.9694 489.362 379.487
82.9694 500 441.026
82.9694 510.638 420.513
82.9694 521.277 451.282
82.9694 531.915 456.41
82.9694 542.553 456.41
82.9694 553.191 456.41
82.9694 563.83 451.282
82.9694 574.468 400
82.9694 585.106 405.128
82.9694 595.745 461.538
82.9694 606.383 456.41
82.9694 617.021 456.41
82.9694 627.66 456.41
82.9694 638.298 420.513
82.9694 648.936 466.667
82.9694 659.574 451.282
82.9694 670.213 451.282
82.9694 680.851 415.385
82.9694 691.489 389.744
82.9694 702.128 282.051
82.9694 712.766 307.692
82.9694 723.404 374.359
82.9694 734.043 374.359
82.9694 744.681 374.359
82.9694 755.319 374.359
82.9694 765.957 374.359
82.9694 776.596 374.359
82.9694 787.234 374.359
82.9694 797.872 374.359
82.9694 808.511 369.231
82.9694 819.149 261.538
82.9694 829.787 261.538
82.9694 840.426 261.538
82.9694 851.064 261.538
82.9694 861.702 261.538
82.9694 872.34 266.667
82.9694 882.979 123.077
82.9694 893.617 261.538
87.3362 297.872 266.667
87.3362 308.511 266.667
87.3362 319.149 266.667
87.3362 329.787 271.795
87.3362 340.426 379.487
87.3362 351.064 379.487
87.3362 361.702 379.487
87.3362 372.34 379.487
87.3362 382.979 358.974
87.3362 393.617 410.256
87.3362 404.255 394.872
87.3362 414.894 328.205
87.3362 425.532 266.667
87.3362 436.17 374.359
87.3362 446.809 374.359
87.3362 457.447 374.359
87.3362 468.085 374.359
87.3362 478.723 374.359
87.3362 489.362 374.359
87.3362 500 420.513
87.3362 510.638 420.513
87.3362 521.277 466.667
87.3362 531.915 456.41
87.3362 542.553 456.41
87.3362 553.191 456.41
87.3362 563.83 456.41
87.3362 574.468 338.462
87.3362 585.106 466.667
87.3362 595.745 456.41
87.3362 606.383 456.41
87.3362 617.021 517.949
87.3362 627.66 517.949
87.3362 638.298 487.179
87.3362 648.936 466.667
87.3362 659.574 451.282
87.3362 670.213 451.282
87.3362 680.851 415.385
87.3362 691.489 389.744
87.3362 702.128 292.308
87.3362 712.766 374.359
87.3362 723.404 374.359
87.3362 734.043 374.359
87.3362 744.681 374.359
87.3362 755.319 374.359
87.3362 765.957 374.359
87.3362 776.596 374.359
87.3362 787.234 374.359
87.3362 797.872 374.359
87.3362 808.511 369.231
87.3362 819.149 261.538
87.3362 829.787 261.538
87.3362 840.426 261.538
87.3362 851.064 261.538
87.3362 861.702 266.667
87.3362 872.34 117.949
87.3362 882.979 153.846
87.3362 893.617 261.538
91.7031 276.596 266.667
91.7031 287.234 266.667
91.7031 297.872 266.667
91.7031 308.511 266.667
91.7031 319.149 266.667
91.7031 329.787 266.667
91.7031 340.426 266.667
91.7031 351.064 379.487
91.7031 361.702 379.487
91.7031 372.34 379.487
91.7031 382.979 379.487
91.7031 393.617 333.333
91.7031 404.255 374.359
91.7031 414.894 266.667
91.7031 425.532 348.718
91.7031 436.17 451.282
91.7031 446.809 374.359
91.7031 457.447 374.359
91.7031 468.085 374.359
91.7031 478.723 374.359
91.7031 489.362 374.359
91.7031 500 384.615
91.7031 510.638 441.026
91.7031 521.277 476.923
91.7031 531.915 456.41
91.7031 542.553 456.41
91.7031 553.191 456.41
91.7031 563.83 456.41
91.7031 574.468 369.231
91.7031 585.106 476.923
91.7031 595.745 456.41
91.7031 606.383 517.949
91.7031 617.021 517.949
91.7031 627.66 517.949
91.7031 638.298 487.179
91.7031 648.936 523.077
91.7031 659.574 451.282
91.7031 670.213 435.897
91.7031 680.851 400
91.7031 691.489 302.564
91.7031 702.128 312.821
91.7031 712.766 374.359
91.7031 723.404 374.359
91.7031 734.043 374.359
91.7031 744.681 374.359
91.7031 755.319 374.359
91.7031 765.957 348.718
91.7031 776.596 328.205
91.7031 787.234 328.205
91.7031 797.872 348.718
91.7031 808.511 261.538
91.7031 819.149 261.538
91.7031 829.787 261.538
91.7031 840.426 261.538
91.7031 851.064 261.538
91.7031 861.702 87.1795
91.7031 872.34 153.846
91.7031 882.979 261.538
96.0699 265.957 266.667
96.0699 276.596 266.667
96.0699 287.234 266.667
96.0699 297.872 266.667
96.0699 308.511 266.667
96.0699 319.149 266.667
96.0699 329.787 266.667
96.0699 340.426 266.667
96.0699 351.064 379.487
96.0699 361.702 379.487
96.0699 372.34 379.487
96.0699 382.979 379.487
96.0699 393.617 358.974
96.0699 404.255 410.256
96.0699 414.894 379.487
96.0699 425.532 307.692
96.0699 436.17 348.718
96.0699 446.809 456.41
96.0699 457.447 456.41
96.0699 468.085 374.359
96.0699 478.723 374.359
96.0699 489.362 374.359
96.0699 500 379.487
96.0699 510.638 441.026
96.0699 521.277 420.513
96.0699 531.915 456.41
96.0699 542.553 456.41
96.0699 553.191 456.41
96.0699 563.83 384.615
96.0699 574.468 405.128
96.0699 585.106 420.513
96.0699 595.745 512.821
96.0699 606.383 517.949
96.0699 617.021 517.949
96.0699 627.66 517.949
96.0699 638.298 487.179
96.0699 648.936 523.077
96.0699 659.574 512.821
96.0699 670.213 415.385
96.0699 680.851 317.949
96.0699 691.489 312.821
96.0699 702.128 374.359
96.0699 712.766 374.359
96.0699 723.404 374.359
96.0699 734.043 374.359
96.0699 744.681 374.359
96.0699 755.319 348.718
96.0699 765.957 307.692
96.0699 776.596 379.487
96.0699 787.234 379.487
96.0699 797.872 307.692
96.0699 808.511 261.538
96.0699 819.149 261.538
96.0699 829.787 261.538
96.0699 840.426 261.538
96.0699 851.064 266.667
96.0699 861.702 123.077
96.0699 872.34 261.538
96.0699 882.979 261.538
100.437 265.957 266.667
100.437 276.596 266.667
100.437 287.234 266.667
100.437 297.872 266.667
100.437 308.511 266.667
100.437 319.149 266.667
100.437 329.787 266.667
100.437 340.426 266.667
100.437 351.064 379.487
100.437 361.702 379.487
100.437 372.34 379.487
100.437 382.979 379.487
100.437 393.617 379.487
100.437 404.255 358.974
100.437 414.894 379.487
100.437 425.532 379.487
100.437 436.17 307.692
100.437 446.809 435.897
100.437 457.447 456.41
100.437 468.085 374.359
100.437 478.723 374.359
100.437 489.362 374.359
100.437 500 374.359
100.437 510.638 420.513
100.437 521.277 420.513
100.437 531.915 466.667
100.437 542.553 456.41
100.437 553.191 456.41
100.437 563.83 384.615
100.437 574.468 456.41
100.437 585.106 435.897
100.437 595.745 533.333
100.437 606.383 517.949
100.437 617.021 517.949
100.437 627.66 517.949
100.437 638.298 487.179
100.437 648.936 512.821
100.437 659.574 512.821
100.437 670.213 430.769
100.437 680.851 333.333
100.437 691.489 374.359
100.437 702.128 374.359
100.437 712.766 374.359
100.437 723.404 374.359
100.437 734.043 374.359
100.437 744.681 348.718
100.437 755.319 307.692
100.437 765.957 379.487
100.437 776.596 374.359
100.437 787.234 369.231
100.437 797.872 369.231
100.437 808.511 261.538
100.437 819.149 261.538
100.437 829.787 261.538
100.437 840.426 276.923
100.437 851.064 123.077
100.437 861.702 153.846
100.437 872.34 261.538
104.803 255.319 266.667
104.803 265.957 266.667
104.803 276.596 266.667
104.803 287.234 266.667
104.803 297.872 266.667
104.803 308.511 266.667
104.803 319.149 266.667
104.803 329.787 266.667
104.803 340.426 266.667
104.803 351.064 379.487
104.803 361.702 379.487
104.803 372.34 379.487
104.803 382.979 379.487
104.803 393.617 379.487
104.803 404.255 379.487
104.803 414.894 358.974
104.803 425.532 379.487
104.803 436.17 353.846
104.803 446.809 405.128
104.803 457.447 435.897
104.803 468.085 456.41
104.803 478.723 374.359
104.803 489.362 374.359
104.803 500 374.359
104.803 510.638 384.615
104.803 521.277 441.026
104.803 531.915 476.923
104.803 542.553 456.41
104.803 553.191 456.41
104.803 563.83 394.872
104.803 574.468 456.41
104.803 585.106 517.949
104.803 595.745 487.179
104.803 606.383 517.949
104.803 617.021 517.949
104.803 627.66 517.949
104.803 638.298 487.179
104.803 648.936 517.949
104.803 659.574 461.538
104.803 670.213 441.026
104.803 680.851 466.667
104.803 691.489 374.359
104.803 702.128 374.359
104.803 712.766 374.359
104.803 723.404 353.846
104.803 734.043 328.205
104.803 744.681 292.308
104.803 755.319 379.487
104.803 765.957 374.359
104.803 776.596 369.231
104.803 787.234 369.231
104.803 797.872 369.231
104.803 808.511 369.231
104.803 819.149 266.667
104.803 829.787 117.949
104.803 840.426 153.846
104.803 851.064 153.846
109.17 265.957 266.667
109.17 276.596 266.667
109.17 287.234 266.667
109.17 297.872 271.795
109.17 308.511 271.795
109.17 319.149 266.667
109.17 329.787 266.667
109.17 340.426 266.667
109.17 351.064 266.667
109.17 361.702 379.487
109.17 372.34 379.487
109.17 382.979 379.487
109.17 393.617 379.487
109.17 404.255 379.487
109.17 414.894 379.487
109.17 425.532 358.974
109.17 436.17 379.487
109.17 446.809 353.846
109.17 457.447 420.513
109.17 468.085 456.41
109.17 478.723 374.359
109.17 489.362 374.359
109.17 500 374.359
109.17 510.638 379.487
109.17 521.277 441.026
109.17 531.915 420.513
109.17 542.553 456.41
109.17 553.191 384.615
109.17 563.83 476.923
109.17 574.468 523.077
109.17 585.106 523.077
109.17 595.745 492.308
109.17 606.383 528.205
109.17 617.021 517.949
109.17 627.66 517.949
109.17 638.298 487.179
109.17 648.936 461.538
109.17 659.574 456.41
109.17 670.213 476.923
109.17 680.851 456.41
109.17 691.489 451.282
109.17 702.128 374.359
109.17 712.766 353.846
109.17 723.404 312.821
109.17 734.043 379.487
109.17 744.681 374.359
109.17 755.319 374.359
109.17 765.957 374.359
109.17 776.596 374.359
109.17 787.234 374.359
109.17 797.872 374.359
109.17 808.511 379.487
109.17 819.149 117.949
113.537 265.957 266.667
113.537 276.596 266.667
113.537 287.234 266.667
113.537 297.872 266.667
113.537 308.511 266.667
113.537 319.149 266.667
113.537 329.787 266.667
113.537 340.426 266.667
113.537 351.064 266.667
113.537 361.702 266.667
113.537 372.34 379.487
113.537 382.979 379.487
113.537 393.617 379.487
113.537 404.255 379.487
113.537 414.894 379.487
113.537 425.532 379.487
113.537 436.17 358.974
113.537 446.809 389.744
113.537 457.447 271.795
113.537 468.085 435.897
113.537 478.723 374.359
113.537 489.362 374.359
113.537 500 374.359
113.537 510.638 374.359
113.537 521.277 420.513
113.537 531.915 441.026
113.537 542.553 476.923
113.537 553.191 461.538
113.537 563.83 523.077
113.537 574.468 523.077
113.537 585.106 523.077
113.537 595.745 492.308
113.537 606.383 528.205
113.537 617.021 517.949
113.537 627.66 517.949
113.537 638.298 502.564
113.537 648.936 466.667
113.537 659.574 487.179
113.537 670.213 466.667
113.537 680.851 456.41
113.537 691.489 451.282
113.537 702.128 353.846
113.537 712.766 312.821
113.537 723.404 379.487
113.537 734.043 374.359
113.537 744.681 379.487
113.537 755.319 287.179
113.537 765.957 307.692
113.537 776.596 307.692
113.537 787.234 307.692
113.537 797.872 307.692
113.537 808.511 256.41
113.537 819.149 256.41
117.904 276.596 266.667
117.904 287.234 266.667
117.904 297.872 266.667
117.904 308.511 266.667
117.904 319.149 266.667
117.904 329.787 266.667
117.904 340.426 266.667
117.904 351.064 266.667
117.904 361.702 266.667
117.904 372.34 266.667
117.904 382.979 266.667
117.904 393.617 379.487
117.904 404.255 379.487
117.904 414.894 379.487
117.904 425.532 379.487
117.904 436.17 379.487
117.904 446.809 379.487
117.904 457.447 297.436
117.904 468.085 338.462
117.904 478.723 374.359
117.904 489.362 374.359
117.904 500 374.359
117.904 510.638 379.487
117.904 521.277 379.487
117.904 531.915 441.026
117.904 542.553 492.308
117.904 553.191 461.538
117.904 563.83 523.077
117.904 574.468 523.077
117.904 585.106 523.077
117.904 595.745 507.692
117.904 606.383 538.462
117.904 617.021 523.077
117.904 627.66 517.949
117.904 638.298 394.872
117.904 648.936 384.615
117.904 659.574 476.923
117.904 670.213 461.538
117.904 680.851 456.41
117.904 691.489 456.41
117.904 702.128 420.513
117.904 712.766 389.744
117.904 723.404 379.487
117.904 734.043 292.308
117.904 744.681 307.692
117.904 755.319 307.692
117.904 765.957 369.231
117.904 776.596 369.231
117.904 787.234 261.538
117.904 797.872 261.538
117.904 808.511 261.538
117.904 819.149 256.41
122.271 287.234 266.667
122.271 297.872 266.667
122.271 308.511 266.667
122.271 319.149 266.667
122.271 329.787 266.667
122.271 340.426 266.667
122.271 351.064 266.667
122.271 361.702 266.667
122.271 372.34 266.667
122.271 382.979 266.667
122.271 393.617 266.667
122.271 404.255 266.667
122.271 414.894 379.487
122.271 425.532 379.487
122.271 436.17 379.487
122.271 446.809 379.487
122.271 457.447 379.487
122.271 468.085 241.026
122.271 478.723 358.974
122.271 489.362 374.359
122.271 500 374.359
122.271 510.638 379.487
122.271 521.277 379.487
122.271 531.915 492.308
122.271 542.553 507.692
122.271 553.191 482.051
122.271 563.83 523.077
122.271 574.468 523.077
122.271 585.106 523.077
122.271 595.745 523.077
122.271 606.383 492.308
122.271 617.021 517.949
122.271 627.66 461.538
122.271 638.298 405.128
122.271 648.936 420.513
122.271 659.574 466.667
122.271 670.213 456.41
122.271 680.851 456.41
122.271 691.489 435.897
122.271 702.128 405.128
122.271 712.766 384.615
122.271 723.404 292.308
122.271 734.043 307.692
122.271 744.681 374.359
122.271 755.319 374.359
122.271 765.957 261.538
122.271 776.596 261.538
122.271 787.234 261.538
122.271 797.872 261.538
122.271 808.511 261.538
122.271 819.149 256.41
122.271 829.787 256.41
126.638 287.234 266.667
126.638 297.872 266.667
126.638 308.511 266.667
126.638 319.149 266.667
126.638 329.787 266.667
126.638 340.426 266.667
126.638 351.064 266.667
126.638 361.702 266.667
126.638 372.34 266.667
126.638 382.979 266.667
126.638 393.617 266.667
126.638 404.255 266.667
126.638 414.894 266.667
126.638 425.532 379.487
126.638 436.17 379.487
126.638 446.809 379.487
126.638 457.447 379.487
126.638 468.085 379.487
126.638 478.723 307.692
126.638 489.362 271.795
126.638 500 379.487
126.638 510.638 379.487
126.638 521.277 379.487
126.638 531.915 466.667
126.638 542.553 523.077
126.638 553.191 430.769
126.638 563.83 523.077
126.638 574.468 523.077
126.638 585.106 523.077
126.638 595.745 523.077
126.638 606.383 492.308
126.638 617.021 533.333
126.638 627.66 471.795
126.638 638.298 456.41
126.638 648.936 420.513
126.638 659.574 471.795
126.638 670.213 456.41
126.638 680.851 456.41
126.638 691.489 420.513
126.638 702.128 461.538
126.638 712.766 297.436
126.638 723.404 307.692
126.638 734.043 374.359
126.638 744.681 374.359
126.638 755.319 261.538
126.638 765.957 261.538
126.638 776.596 261.538
126.638 787.234 261.538
126.638 797.872 261.538
126.638 808.511 261.538
126.638 819.149 256.41
126.638 829.787 256.41
131.004 287.234 266.667
131.004 297.872 266.667
131.004 308.511 266.667
131.004 319.149 266.667
131.004 329.787 266.667
131.004 340.426 266.667
131.004 351.064 266.667
131.004 361.702 266.667
131.004 372.34 266.667
131.004 382.979 266.667
131.004 393.617 266.667
131.004 404.255 266.667
131.004 414.894 266.667
131.004 425.532 379.487
131.004 436.17 379.487
131.004 446.809 379.487
131.004 457.447 379.487
131.004 468.085 384.615
131.004 478.723 276.923
131.004 489.362 333.333
131.004 500 276.923
131.004 510.638 379.487
131.004 521.277 379.487
131.004 531.915 461.538
131.004 542.553 492.308
131.004 553.191 410.256
131.004 563.83 512.821
131.004 574.468 523.077
131.004 585.106 523.077
131.004 595.745 507.692
131.004 606.383 482.051
131.004 617.021 471.795
131.004 627.66 482.051
131.004 638.298 441.026
131.004 648.936 405.128
131.004 659.574 461.538
131.004 670.213 456.41
131.004 680.851 456.41
131.004 691.489 420.513
131.004 702.128 394.872
131.004 712.766 307.692
131.004 723.404 374.359
131.004 734.043 374.359
131.004 744.681 261.538
131.004 755.319 261.538
131.004 765.957 261.538
131.004 776.596 261.538
131.004 787.234 261.538
131.004 797.872 261.538
131.004 808.511 261.538
131.004 819.149 261.538
131.004 829.787 256.41
135.371 287.234 266.667
135.371 297.872 266.667
135.371 308.511 266.667
135.371 319.149 266.667
135.371 329.787 266.667
135.371 340.426 266.667
135.371 351.064 266.667
135.371 361.702 266.667
135.371 372.34 266.667
135.371 382.979 266.667
135.371 393.617 266.667
135.371 404.255 266.667
135.371 414.894 266.667
135.371 425.532 379.487
135.371 436.17 379.487
135.371 446.809 384.615
135.371 457.447 384.615
135.371 468.085 384.615
135.371 478.723 384.615
135.371 489.362 317.949
135.371 500 200
135.371 510.638 271.795
135.371 521.277 379.487
135.371 531.915 461.538
135.371 542.553 451.282
135.371 553.191 517.949
135.371 563.83 497.436
135.371 574.468 528.205
135.371 585.106 528.205
135.371 595.745 497.436
135.371 606.383 533.333
135.371 617.021 466.667
135.371 627.66 528.205
135.371 638.298 425.641
135.371 648.936 471.795
135.371 659.574 461.538
135.371 670.213 461.538
135.371 680.851 456.41
135.371 691.489 420.513
135.371 702.128 317.949
135.371 712.766 379.487
135.371 723.404 374.359
135.371 734.043 261.538
135.371 744.681 261.538
135.371 755.319 261.538
135.371 765.957 261.538
135.371 776.596 261.538
135.371 787.234 261.538
135.371 797.872 261.538
135.371 808.511 261.538
135.371 819.149 261.538
135.371 829.787 256.41
139.738 297.872 266.667
139.738 308.511 266.667
139.738 319.149 225.641
139.738 329.787 179.487
139.738 340.426 138.462
139.738 351.064 138.462
139.738 361.702 138.462
139.738 372.34 179.487
139.738 382.979 225.641
139.738 393.617 266.667
139.738 404.255 266.667
139.738 414.894 302.564
139.738 425.532 302.564
139.738 436.17 328.205
139.738 446.809 353.846
139.738 457.447 384.615
139.738 468.085 384.615
139.738 478.723 384.615
139.738 489.362 384.615
139.738 500 282.051
139.738 510.638 302.564
139.738 521.277 461.538
139.738 531.915 441.026
139.738 542.553 410.256
139.738 553.191 497.436
139.738 563.83 471.795
139.738 574.468 528.205
139.738 585.106 512.821
139.738 595.745 487.179
139.738 606.383 528.205
139.738 617.021 466.667
139.738 627.66 512.821
139.738 638.298 451.282
139.738 648.936 466.667
139.738 659.574 461.538
139.738 670.213 461.538
139.738 680.851 456.41
139.738 691.489 338.462
139.738 702.128 333.333
139.738 712.766 379.487
139.738 723.404 374.359
139.738 734.043 261.538
139.738 744.681 261.538
139.738 755.319 261.538
139.738 765.957 261.538
139.738 776.596 261.538
139.738 787.234 261.538
139.738 797.872 261.538
139.738 808.511 261.538
139.738 819.149 261.538
139.738 829.787 256.41
144.105 297.872 266.667
144.105 308.511 220.513
144.105 319.149 384.615
144.105 329.787 441.026
144.105 340.426 415.385
144.105 351.064 348.718
144.105 361.702 384.615
144.105 372.34 410.256
144.105 382.979 456.41
144.105 393.617 451.282
144.105 404.255 446.154
144.105 414.894 425.641
144.105 425.532 466.667
144.105 436.17 400
144.105 446.809 446.154
144.105 457.447 415.385
144.105 468.085 476.923
144.105 478.723 400
144.105 489.362 358.974
144.105 500 174.359
144.105 510.638 287.179
144.105 521.277 358.974
144.105 531.915 425.641
144.105 542.553 476.923
144.105 553.191 466.667
144.105 563.83 466.667
144.105 574.468 512.821
144.105 585.106 497.436
144.105 595.745 538.462
144.105 606.383 528.205
144.105 617.021 446.154
144.105 627.66 471.795
144.105 638.298 435.897
144.105 648.936 461.538
144.105 659.574 461.538
144.105 670.213 461.538
144.105 680.851 461.538
144.105 691.489 220.513
144.105 702.128 394.872
144.105 712.766 379.487
144.105 723.404 261.538
144.105 734.043 261.538
144.105 744.681 261.538
144.105 755.319 261.538
144.105 765.957 261.538
144.105 776.596 261.538
144.105 787.234 261.538
144.105 797.872 261.538
144.105 808.511 261.538
144.105 819.149 261.538
144.105 829.787 256.41
148.472 308.511 435.897
148.472 319.149 430.769
148.472 329.787 461.538
148.472 340.426 400
148.472 351.064 502.564
148.472 361.702 425.641
148.472 372.34 338.462
148.472 382.979 374.359
148.472 393.617 297.436
148.472 404.255 317.949
148.472 414.894 307.692
148.472 425.532 343.59
148.472 436.17 410.256
148.472 446.809 420.513
148.472 457.447 451.282
148.472 468.085 410.256
148.472 478.723 410.256
148.472 489.362 456.41
148.472 500 394.872
148.472 510.638 323.077
148.472 521.277 307.692
148.472 531.915 410.256
148.472 542.553 471.795
148.472 553.191 466.667
148.472 563.83 487.179
148.472 574.468 502.564
148.472 585.106 502.564
148.472 595.745 538.462
148.472 606.383 517.949
148.472 617.021 487.179
148.472 627.66 415.385
148.472 638.298 415.385
148.472 648.936 461.538
148.472 659.574 466.667
148.472 670.213 461.538
148.472 680.851 461.538
148.472 691.489 343.59
148.472 702.128 394.872
148.472 712.766 379.487
148.472 723.404 261.538
148.472 734.043 261.538
148.472 744.681 261.538
148.472 755.319 261.538
148.472 765.957 261.538
148.472 776.596 261.538
148.472 787.234 261.538
148.472 797.872 261.538
148.472 808.511 261.538
148.472 819.149 261.538
148.472 829.787 261.538
152.838 297.872 487.179
152.838 308.511 471.795
152.838 319.149 451.282
152.838 329.787 523.077
152.838 340.426 507.692
152.838 351.064 482.051
152.838 361.702 430.769
152.838 372.34 364.103
152.838 382.979 251.282
152.838 393.617 138.462
152.838 404.255 184.615
152.838 414.894 205.128
152.838 425.532 179.487
152.838 436.17 333.333
152.838 446.809 389.744
152.838 457.447 410.256
152.838 468.085 482.051
152.838 478.723 430.769
152.838 489.362 476.923
152.838 500 497.436
152.838 510.638 338.462
152.838 521.277 348.718
152.838 531.915 476.923
152.838 542.553 466.667
152.838 553.191 466.667
152.838 563.83 466.667
152.838 574.468 466.667
152.838 585.106 482.051
152.838 595.745 543.59
152.838 606.383 502.564
152.838 617.021 476.923
152.838 627.66 348.718
152.838 638.298 482.051
152.838 648.936 466.667
152.838 659.574 466.667
152.838 670.213 466.667
152.838 680.851 461.538
152.838 691.489 343.59
152.838 702.128 400
152.838 712.766 379.487
152.838 723.404 261.538
152.838 734.043 261.538
152.838 744.681 261.538
152.838 755.319 261.538
152.838 765.957 261.538
152.838 776.596 261.538
152.838 787.234 261.538
152.838 797.872 261.538
152.838 808.511 261.538
152.838 819.149 261.538
152.838 829.787 261.538
157.205 287.234 312.821
157.205 297.872 441.026
157.205 308.511 430.769
157.205 319.149 548.718
157.205 329.787 528.205
157.205 340.426 502.564
157.205 351.064 497.436
157.205 361.702 400
157.205 372.34 348.718
157.205 382.979 138.462
157.205 404.255 20.5128
157.205 414.894 256.41
157.205 425.532 148.718
157.205 436.17 271.795
157.205 446.809 364.103
157.205 457.447 292.308
157.205 468.085 430.769
157.205 478.723 405.128
157.205 489.362 451.282
157.205 500 497.436
157.205 510.638 338.462
157.205 521.277 364.103
157.205 531.915 461.538
157.205 542.553 471.795
157.205 553.191 471.795
157.205 563.83 466.667
157.205 574.468 446.154
157.205 585.106 456.41
157.205 595.745 523.077
157.205 606.383 492.308
157.205 617.021 456.41
157.205 627.66 317.949
157.205 638.298 451.282
157.205 648.936 466.667
157.205 659.574 466.667
157.205 670.213 466.667
157.205 680.851 461.538
157.205 691.489 343.59
157.205 702.128 400
157.205 712.766 379.487
157.205 723.404 261.538
157.205 734.043 261.538
157.205 744.681 261.538
157.205 755.319 261.538
157.205 765.957 261.538
157.205 776.596 261.538
157.205 787.234 261.538
157.205 797.872 261.538
157.205 808.511 261.538
157.205 819.149 261.538
157.205 829.787 256.41
161.572 287.234 348.718
161.572 297.872 476.923
161.572 308.511 517.949
161.572 319.149 538.462
161.572 329.787 471.795
161.572 340.426 471.795
161.572 351.064 420.513
161.572 361.702 328.205
161.572 372.34 307.692
161.572 382.979 0
161.572 404.255 35.8974
161.572 414.894 164.103
161.572 425.532 241.026
161.572 436.17 230.769
161.572 446.809 276.923
161.572 457.447 282.051
161.572 468.085 394.872
161.572 478.723 369.231
161.572 489.362 405.128
161.572 500 502.564
161.572 510.638 358.974
161.572 521.277 358.974
161.572 531.915 446.154
161.572 542.553 471.795
161.572 553.191 471.795
161.572 563.83 466.667
161.572 574.468 430.769
161.572 585.106 461.538
161.572 595.745 471.795
161.572 606.383 456.41
161.572 617.021 415.385
161.572 627.66 471.795
161.572 638.298 430.769
161.572 648.936 466.667
161.572 659.574 466.667
161.572 670.213 466.667
161.572 680.851 466.667
161.572 691.489 225.641
161.572 702.128 400
161.572 712.766 379.487
161.572 723.404 266.667
161.572 734.043 266.667
161.572 744.681 261.538
161.572 755.319 261.538
161.572 765.957 261.538
161.572 776.596 261.538
161.572 787.234 261.538
161.572 797.872 261.538
161.572 808.511 261.538
161.572 819.149 261.538
165.939 287.234 317.949
165.939 297.872 420.513
165.939 308.511 502.564
165.939 319.149 512.821
165.939 329.787 476.923
165.939 340.426 512.821
165.939 351.064 394.872
165.939 361.702 333.333
165.939 372.34 261.538
165.939 393.617 0
165.939 404.255 0
165.939 414.894 97.4359
165.939 425.532 297.436
165.939 436.17 184.615
165.939 446.809 282.051
165.939 457.447 364.103
165.939 468.085 364.103
165.939 478.723 441.026
165.939 489.362 405.128
165.939 500 502.564
165.939 510.638 358.974
165.939 521.277 364.103
165.939 531.915 410.256
165.939 542.553 451.282
165.939 553.191 471.795
165.939 563.83 451.282
165.939 574.468 415.385
165.939 585.106 420.513
165.939 595.745 420.513
165.939 606.383 410.256
165.939 617.021 482.051
165.939 627.66 471.795
165.939 638.298 384.615
165.939 648.936 446.154
165.939 659.574 466.667
165.939 670.213 466.667
165.939 680.851 466.667
165.939 691.489 225.641
165.939 702.128 405.128
165.939 712.766 384.615
165.939 723.404 266.667
165.939 734.043 266.667
165.939 744.681 266.667
165.939 755.319 261.538
165.939 765.957 261.538
165.939 776.596 261.538
165.939 787.234 261.538
165.939 797.872 261.538
165.939 808.511 261.538
170.306 276.596 364.103
170.306 287.234 374.359
170.306 297.872 394.872
170.306 308.511 456.41
170.306 319.149 533.333
170.306 329.787 497.436
170.306 340.426 435.897
170.306 351.064 323.077
170.306 361.702 271.795
170.306 372.34 200
170.306 414.894 41.0256
170.306 425.532 333.333
170.306 436.17 256.41
170.306 446.809 297.436
170.306 457.447 297.436
170.306 468.085 297.436
170.306 478.723 441.026
170.306 489.362 394.872
170.306 500 476.923
170.306 510.638 379.487
170.306 521.277 379.487
170.306 531.915 410.256
170.306 542.553 435.897
170.306 553.191 471.795
170.306 563.83 430.769
170.306 574.468 430.769
170.306 585.106 394.872
170.306 595.745 384.615
170.306 606.383 389.744
170.306 617.021 482.051
170.306 627.66 471.795
170.306 638.298 471.795
170.306 648.936 430.769
170.306 659.574 466.667
170.306 670.213 466.667
170.306 680.851 394.872
170.306 691.489 225.641
170.306 702.128 405.128
170.306 712.766 384.615
170.306 723.404 266.667
170.306 734.043 266.667
170.306 744.681 266.667
170.306 755.319 266.667
170.306 765.957 261.538
170.306 776.596 261.538
170.306 787.234 261.538
170.306 797.872 261.538
170.306 808.511 261.538
174.672 276.596 338.462
174.672 287.234 446.154
174.672 297.872 461.538
174.672 308.511 420.513
174.672 319.149 528.205
174.672 329.787 466.667
174.672 340.426 358.974
174.672 351.064 338.462
174.672 361.702 271.795
174.672 372.34 128.205
174.672 425.532 117.949
174.672 436.17 312.821
174.672 446.809 287.179
174.672 457.447 297.436
174.672 468.085 307.692
174.672 478.723 441.026
174.672 489.362 415.385
174.672 500 451.282
174.672 510.638 394.872
174.672 521.277 287.179
174.672 531.915 410.256
174.672 542.553 394.872
174.672 553.191 430.769
174.672 563.83 415.385
174.672 574.468 405.128
174.672 585.106 389.744
174.672 595.745 358.974
174.672 606.383 323.077
174.672 617.021 456.41
174.672 627.66 471.795
174.672 638.298 471.795
174.672 648.936 389.744
174.672 659.574 466.667
174.672 670.213 394.872
174.672 680.851 394.872
174.672 691.489 225.641
174.672 702.128 405.128
174.672 712.766 384.615
174.672 723.404 266.667
174.672 734.043 266.667
174.672 744.681 266.667
174.672 755.319 266.667
174.672 765.957 266.667
174.672 776.596 261.538
174.672 787.234 261.538
174.672 797.872 261.538
179.039 276.596 507.692
179.039 287.234 420.513
179.039 297.872 420.513
179.039 308.511 435.897
179.039 319.149 441.026
179.039 329.787 400
179.039 340.426 410.256
179.039 351.064 256.41
179.039 361.702 189.744
179.039 372.34 66.6667
179.039 425.532 76.9231
179.039 436.17 230.769
179.039 446.809 282.051
179.039 457.447 297.436
179.039 468.085 317.949
179.039 478.723 302.564
179.039 489.362 435.897
179.039 500 405.128
179.039 510.638 353.846
179.039 521.277 235.897
179.039 531.915 410.256
179.039 542.553 369.231
179.039 553.191 358.974
179.039 563.83 379.487
179.039 574.468 394.872
179.039 585.106 389.744
179.039 595.745 338.462
179.039 606.383 405.128
179.039 617.021 420.513
179.039 627.66 451.282
179.039 638.298 471.795
179.039 648.936 384.615
179.039 659.574 369.231
179.039 670.213 394.872
179.039 680.851 394.872
179.039 691.489 225.641
179.039 702.128 405.128
179.039 712.766 389.744
179.039 723.404 266.667
179.039 734.043 266.667
179.039 744.681 266.667
179.039 755.319 266.667
179.039 765.957 266.667
179.039 776.596 261.538
179.039 787.234 261.538
183.406 265.957 282.051
183.406 276.596 502.564
183.406 287.234 451.282
183.406 297.872 405.128
183.406 308.511 528.205
183.406 319.149 492.308
183.406 329.787 348.718
183.406 340.426 379.487
183.406 351.064 292.308
183.406 361.702 169.231
183.406 414.894 20.5128
183.406 425.532 112.821
183.406 436.17 102.564
183.406 446.809 405.128
183.406 457.447 297.436
183.406 468.085 317.949
183.406 478.723 307.692
183.406 489.362 435.897
183.406 500 394.872
183.406 510.638 307.692
183.406 521.277 523.077
183.406 531.915 374.359
183.406 542.553 328.205
183.406 553.191 323.077
183.406 563.83 333.333
183.406 574.468 364.103
183.406 585.106 364.103
183.406 595.745 317.949
183.406 606.383 394.872
183.406 617.021 384.615
183.406 627.66 435.897
183.406 638.298 471.795
183.406 648.936 471.795
183.406 659.574 343.59
183.406 670.213 394.872
183.406 680.851 369.231
183.406 691.489 194.872
183.406 702.128 400
183.406 712.766 389.744
183.406 723.404 266.667
183.406 734.043 266.667
183.406 744.681 266.667
183.406 755.319 266.667
183.406 765.957 266.667
183.406 776.596 261.538
187.773 265.957 558.974
187.773 276.596 456.41
187.773 287.234 456.41
187.773 297.872 430.769
187.773 308.511 517.949
187.773 319.149 456.41
187.773 329.787 420.513
187.773 340.426 307.692
187.773 351.064 225.641
187.773 361.702 107.692
187.773 414.894 20.5128
187.773 425.532 112.821
187.773 436.17 133.333
187.773 446.809 225.641
187.773 457.447 282.051
187.773 468.085 323.077
187.773 478.723 307.692
187.773 489.362 471.795
187.773 500 512.821
187.773 510.638 307.692
187.773 521.277 523.077
187.773 531.915 348.718
187.773 542.553 353.846
187.773 553.191 302.564
187.773 563.83 282.051
187.773 574.468 323.077
187.773 585.106 312.821
187.773 595.745 405.128
187.773 606.383 389.744
187.773 617.021 384.615
187.773 627.66 389.744
187.773 638.298 456.41
187.773 648.936 400
187.773 659.574 292.308
187.773 670.213 394.872
187.773 680.851 348.718
187.773 691.489 317.949
187.773 702.128 394.872
187.773 712.766 394.872
187.773 723.404 271.795
187.773 734.043 271.795
187.773 744.681 266.667
187.773 755.319 266.667
187.773 765.957 266.667
187.773 776.596 261.538
192.14 265.957 502.564
192.14 276.596 487.179
192.14 287.234 456.41
192.14 297.872 492.308
192.14 308.511 441.026
192.14 319.149 400
192.14 329.787 379.487
192.14 340.426 317.949
192.14 351.064 169.231
192.14 361.702 61.5385
192.14 414.894 20.5128
192.14 425.532 112.821
192.14 436.17 128.205
192.14 446.809 174.359
192.14 457.447 282.051
192.14 468.085 338.462
192.14 478.723 297.436
192.14 489.362 446.154
192.14 500 492.308
192.14 510.638 287.179
192.14 521.277 507.692
192.14 531.915 333.333
192.14 542.553 312.821
192.14 553.191 287.179
192.14 563.83 282.051
192.14 574.468 246.154
192.14 585.106 261.538
192.14 595.745 400
192.14 606.383 389.744
192.14 617.021 389.744
192.14 627.66 389.744
192.14 638.298 435.897
192.14 648.936 400
192.14 659.574 292.308
192.14 670.213 374.359
192.14 680.851 328.205
192.14 691.489 307.692
192.14 702.128 394.872
192.14 712.766 394.872
192.14 723.404 389.744
192.14 734.043 271.795
192.14 744.681 271.795
192.14 755.319 266.667
192.14 765.957 230.769
192.14 882.979 266.667
192.14 893.617 266.667
192.14 904.255 266.667
192.14 914.894 261.538
192.14 925.532 261.538
192.14 936.17 261.538
196.507 255.319 364.103
196.507 265.957 492.308
196.507 276.596 502.564
196.507 287.234 502.564
196.507 297.872 487.179
196.507 308.511 441.026
196.507 319.149 400
196.507 329.787 379.487
196.507 340.426 292.308
196.507 351.064 148.718
196.507 414.894 20.5128
196.507 425.532 112.821
196.507 436.17 128.205
196.507 446.809 205.128
196.507 457.447 276.923
196.507 468.085 323.077
196.507 478.723 307.692
196.507 489.362 512.821
196.507 500 451.282
196.507 510.638 369.231
196.507 521.277 482.051
196.507 531.915 358.974
196.507 542.553 297.436
196.507 553.191 287.179
196.507 563.83 246.154
196.507 574.468 169.231
196.507 585.106 302.564
196.507 595.745 369.231
196.507 606.383 389.744
196.507 617.021 389.744
196.507 627.66 389.744
196.507 638.298 400
196.507 648.936 405.128
196.507 659.574 297.436
196.507 670.213 353.846
196.507 680.851 415.385
196.507 691.489 297.436
196.507 702.128 394.872
196.507 712.766 394.872
196.507 723.404 394.872
196.507 734.043 271.795
196.507 744.681 271.795
196.507 755.319 235.897
196.507 765.957 164.103
196.507 776.596 251.282
196.507 787.234 256.41
196.507 797.872 256.41
196.507 808.511 251.282
196.507 851.064 261.538
196.507 861.702 266.667
196.507 872.34 266.667
196.507 882.979 266.667
196.507 893.617 266.667
196.507 904.255 266.667
196.507 914.894 266.667
196.507 925.532 266.667
196.507 936.17 261.538
196.507 946.809 261.538
196.507 957.447 261.538
200.873 255.319 435.897
200.873 265.957 507.692
200.873 276.596 492.308
200.873 287.234 461.538
200.873 297.872 471.795
200.873 308.511 441.026
200.873 319.149 400
200.873 329.787 415.385
200.873 340.426 287.179
200.873 351.064 148.718
200.873 414.894 20.5128
200.873 425.532 112.821
200.873 436.17 133.333
200.873 446.809 230.769
200.873 457.447 276.923
200.873 468.085 297.436
200.873 478.723 297.436
200.873 489.362 487.179
200.873 500 312.821
200.873 510.638 446.154
200.873 521.277 482.051
200.873 531.915 333.333
200.873 542.553 287.179
200.873 553.191 287.179
200.873 563.83 210.256
200.873 574.468 312.821
200.873 585.106 292.308
200.873 595.745 328.205
200.873 606.383 369.231
200.873 617.021 394.872
200.873 627.66 389.744
200.873 638.298 400
200.873 648.936 405.128
200.873 659.574 261.538
200.873 670.213 333.333
200.873 680.851 405.128
200.873 691.489 292.308
200.873 702.128 400
200.873 712.766 394.872
200.873 723.404 394.872
200.873 734.043 271.795
200.873 744.681 271.795
200.873 755.319 205.128
200.873 765.957 287.179
200.873 776.596 256.41
200.873 787.234 256.41
200.873 797.872 256.41
200.873 808.511 256.41
200.873 819.149 261.538
200.873 829.787 266.667
200.873 840.426 266.667
200.873 851.064 266.667
200.873 861.702 266.667
200.873 872.34 266.667
200.873 882.979 266.667
200.873 893.617 266.667
200.873 904.255 266.667
200.873 914.894 266.667
200.873 925.532 266.667
200.873 936.17 266.667
200.873 946.809 261.538
200.873 957.447 261.538
200.873 968.085 261.538
200.873 978.723 261.538
205.24 255.319 405.128
205.24 265.957 528.205
205.24 276.596 517.949
205.24 287.234 466.667
205.24 297.872 523.077
205.24 308.511 456.41
205.24 319.149 420.513
205.24 329.787 400
205.24 340.426 312.821
205.24 351.064 148.718
205.24 414.894 20.5128
205.24 425.532 112.821
205.24 436.17 153.846
205.24 446.809 225.641
205.24 457.447 276.923
205.24 468.085 302.564
205.24 478.723 384.615
205.24 489.362 461.538
205.24 500 343.59
205.24 510.638 441.026
205.24 521.277 353.846
205.24 531.915 307.692
205.24 542.553 287.179
205.24 553.191 287.179
205.24 563.83 205.128
205.24 574.468 317.949
205.24 585.106 287.179
205.24 595.745 287.179
205.24 606.383 328.205
205.24 617.021 369.231
205.24 627.66 394.872
205.24 638.298 400
205.24 648.936 482.051
205.24 659.574 230.769
205.24 670.213 420.513
205.24 680.851 405.128
205.24 691.489 307.692
205.24 702.128 400
205.24 712.766 400
205.24 723.404 276.923
205.24 734.043 276.923
205.24 744.681 241.026
205.24 755.319 169.231
205.24 765.957 276.923
205.24 776.596 256.41
205.24 787.234 256.41
205.24 797.872 256.41
205.24 808.511 369.231
205.24 819.149 266.667
205.24 829.787 266.667
205.24 840.426 266.667
205.24 851.064 266.667
205.24 861.702 266.667
205.24 872.34 266.667
205.24 882.979 266.667
205.24 893.617 266.667
205.24 904.255 266.667
205.24 914.894 266.667
205.24 925.532 266.667
205.24 936.17 266.667
205.24 946.809 266.667
205.24 957.447 261.538
205.24 968.085 261.538
205.24 978.723 261.538
209.607 255.319 405.128
209.607 265.957 543.59
209.607 276.596 482.051
209.607 287.234 435.897
209.607 297.872 441.026
209.607 308.511 487.179
209.607 319.149 435.897
209.607 329.787 425.641
209.607 340.426 348.718
209.607 351.064 158.974
209.607 414.894 20.5128
209.607 425.532 117.949
209.607 436.17 215.385
209.607 446.809 158.974
209.607 457.447 287.179
209.607 468.085 323.077
209.607 478.723 328.205
209.607 489.362 420.513
209.607 500 384.615
209.607 510.638 343.59
209.607 521.277 343.59
209.607 531.915 297.436
209.607 542.553 287.179
209.607 553.191 251.282
209.607 563.83 169.231
209.607 574.468 307.692
209.607 585.106 287.179
209.607 595.745 287.179
209.607 606.383 287.179
209.607 617.021 328.205
209.607 627.66 369.231
209.607 638.298 405.128
209.607 648.936 461.538
209.607 659.574 200
209.607 670.213 410.256
209.607 680.851 297.436
209.607 691.489 328.205
209.607 702.128 400
209.607 712.766 400
209.607 723.404 276.923
209.607 734.043 276.923
209.607 744.681 205.128
209.607 755.319 292.308
209.607 765.957 271.795
209.607 776.596 261.538
209.607 787.234 261.538
209.607 797.872 369.231
209.607 808.511 374.359
209.607 819.149 369.231
209.607 829.787 266.667
209.607 840.426 266.667
209.607 851.064 266.667
209.607 861.702 266.667
209.607 872.34 266.667
209.607 882.979 266.667
209.607 893.617 266.667
209.607 904.255 266.667
209.607 914.894 266.667
209.607 925.532 266.667
209.607 936.17 266.667
209.607 946.809 266.667
209.607 957.447 261.538
209.607 968.085 261.538
209.607 978.723 261.538
209.607 989.362 261.538
213.974 255.319 405.128
213.974 265.957 538.462
213.974 276.596 523.077
213.974 287.234 456.41
213.974 297.872 487.179
213.974 308.511 548.718
213.974 319.149 374.359
213.974 329.787 492.308
213.974 340.426 389.744
213.974 351.064 266.667
213.974 414.894 20.5128
213.974 425.532 153.846
213.974 436.17 205.128
213.974 446.809 169.231
213.974 457.447 307.692
213.974 468.085 328.205
213.974 478.723 358.974
213.974 489.362 415.385
213.974 500 405.128
213.974 510.638 343.59
213.974 521.277 358.974
213.974 531.915 287.179
213.974 542.553 287.179
213.974 553.191 210.256
213.974 563.83 323.077
213.974 574.468 297.436
213.974 585.106 287.179
213.974 595.745 287.179
213.974 606.383 287.179
213.974 617.021 287.179
213.974 627.66 328.205
213.974 638.298 353.846
213.974 648.936 430.769
213.974 659.574 410.256
213.974 670.213 405.128
213.974 680.851 297.436
213.974 691.489 400
213.974 702.128 400
213.974 712.766 400
213.974 723.404 276.923
213.974 734.043 276.923
213.974 744.681 205.128
213.974 755.319 297.436
213.974 765.957 261.538
213.974 776.596 261.538
213.974 787.234 261.538
213.974 797.872 374.359
213.974 808.511 374.359
213.974 819.149 374.359
213.974 829.787 266.667
213.974 840.426 266.667
213.974 851.064 266.667
213.974 861.702 266.667
213.974 872.34 266.667
213.974 882.979 266.667
213.974 893.617 266.667
213.974 904.255 266.667
213.974 914.894 266.667
213.974 925.532 266.667
213.974 936.17 266.667
213.974 946.809 266.667
213.974 957.447 266.667
213.974 968.085 261.538
213.974 978.723 261.538
213.974 989.362 261.538
218.341 265.957 523.077
218.341 276.596 492.308
218.341 287.234 451.282
218.341 297.872 441.026
218.341 308.511 548.718
218.341 319.149 400
218.341 329.787 466.667
218.341 340.426 343.59
218.341 351.064 369.231
218.341 414.894 41.0256
218.341 425.532 215.385
218.341 436.17 189.744
218.341 446.809 297.436
218.341 457.447 302.564
218.341 468.085 312.821
218.341 478.723 338.462
218.341 489.362 415.385
218.341 500 369.231
218.341 510.638 328.205
218.341 521.277 348.718
218.341 531.915 287.179
218.341 542.553 287.179
218.341 553.191 210.256
218.341 563.83 323.077
218.341 574.468 292.308
218.341 585.106 292.308
218.341 595.745 287.179
218.341 606.383 287.179
218.341 617.021 287.179
218.341 627.66 251.282
218.341 638.298 256.41
218.341 648.936 471.795
218.341 659.574 415.385
218.341 670.213 410.256
218.341 680.851 312.821
218.341 691.489 400
218.341 702.128 400
218.341 712.766 276.923
218.341 723.404 276.923
218.341 734.043 276.923
218.341 744.681 205.128
218.341 755.319 297.436
218.341 765.957 261.538
218.341 776.596 261.538
218.341 787.234 374.359
218.341 797.872 374.359
218.341 808.511 374.359
218.341 819.149 374.359
218.341 829.787 266.667
218.341 840.426 266.667
218.341 851.064 266.667
218.341 861.702 266.667
218.341 872.34 266.667
218.341 882.979 266.667
218.341 893.617 266.667
218.341 904.255 266.667
218.341 914.894 266.667
218.341 925.532 266.667
218.341 936.17 266.667
218.341 946.809 266.667
218.341 957.447 266.667
218.341 968.085 261.538
218.341 978.723 261.538
218.341 989.362 261.538
222.707 265.957 497.436
222.707 276.596 476.923
222.707 287.234 558.974
222.707 297.872 420.513
222.707 308.511 502.564
222.707 319.149 466.667
222.707 329.787 400
222.707 340.426 420.513
222.707 351.064 348.718
222.707 361.702 51.2821
222.707 414.894 82.0513
222.707 425.532 246.154
222.707 436.17 200
222.707 446.809 307.692
222.707 457.447 323.077
222.707 468.085 333.333
222.707 478.723 348.718
222.707 489.362 435.897
222.707 500 389.744
222.707 510.638 328.205
222.707 521.277 348.718
222.707 531.915 292.308
222.707 542.553 292.308
222.707 553.191 210.256
222.707 563.83 323.077
222.707 574.468 292.308
222.707 585.106 292.308
222.707 595.745 287.179
222.707 606.383 287.179
222.707 617.021 251.282
222.707 627.66 174.359
222.707 638.298 317.949
222.707 648.936 364.103
222.707 659.574 430.769
