379.31 40 634.799
379.31 53.3333 573.614
379.31 66.6667 615.679
379.31 80 657.744
379.31 93.3333 460.803
379.31 106.667 193.117
379.31 120 53.5373
379.31 693.333 133.843
379.31 706.667 95.6023
379.31 720 24.8566
379.31 733.333 28.6807
379.31 746.667 80.3059
379.31 760 191.205
379.31 773.333 151.052
379.31 786.667 114.723
379.31 800 103.25
379.31 813.333 97.5143
379.31 826.667 105.163
379.31 840 112.811
379.31 853.333 57.3614
379.31 866.667 66.9216
379.31 880 61.1855
379.31 893.333 122.371
379.31 906.667 344.168
379.31 920 678.776
379.31 933.333 586.998
379.31 946.667 464.627
379.31 960 326.96
379.31 973.333 491.396
379.31 986.667 491.396
384.236 40 715.105
384.236 53.3333 476.099
384.236 66.6667 579.35
384.236 80 627.151
384.236 93.3333 386.233
384.236 106.667 202.677
384.236 693.333 91.7782
384.236 706.667 162.524
384.236 720 45.8891
384.236 733.333 24.8566
384.236 746.667 47.8011
384.236 760 267.686
384.236 773.333 91.7782
384.236 786.667 68.8337
384.236 800 53.5373
384.236 813.333 51.6252
384.236 826.667 51.6252
384.236 840 55.4493
384.236 853.333 61.1855
384.236 866.667 61.1855
384.236 880 122.371
384.236 893.333 105.163
384.236 906.667 284.895
384.236 920 657.744
384.236 933.333 604.207
384.236 946.667 464.627
384.236 960 326.96
384.236 973.333 491.396
384.236 986.667 491.396
389.163 26.6667 630.975
389.163 40 713.193
389.163 53.3333 378.585
389.163 66.6667 481.836
389.163 80 653.92
389.163 93.3333 378.585
389.163 106.667 233.27
389.163 693.333 30.5927
389.163 706.667 154.876
389.163 720 51.6252
389.163 733.333 26.7686
389.163 746.667 28.6807
389.163 760 250.478
389.163 773.333 114.723
389.163 786.667 70.7457
389.163 800 63.0975
389.163 813.333 51.6252
389.163 826.667 51.6252
389.163 840 55.4493
389.163 853.333 61.1855
389.163 866.667 61.1855
389.163 880 107.075
389.163 893.333 93.6902
389.163 906.667 221.797
389.163 920 621.415
389.163 933.333 604.207
389.163 946.667 464.627
389.163 960 326.96
389.163 973.333 491.396
389.163 986.667 491.396
394.089 26.6667 713.193
394.089 40 468.451
394.089 53.3333 378.585
394.089 66.6667 623.327
394.089 80 669.216
394.089 93.3333 393.881
394.089 106.667 177.82
394.089 706.667 154.876
394.089 720 84.13
394.089 733.333 47.8011
394.089 746.667 28.6807
394.089 760 219.885
394.089 773.333 162.524
394.089 786.667 65.0096
394.089 800 65.0096
394.089 813.333 49.7132
394.089 826.667 47.8011
394.089 840 43.9771
394.089 853.333 51.6252
394.089 866.667 47.8011
394.089 880 93.6902
394.089 893.333 103.25
394.089 906.667 91.7782
394.089 920 590.822
394.089 933.333 739.962
394.089 946.667 562.141
394.089 960 326.96
394.089 973.333 491.396
394.089 986.667 491.396
399.015 13.3333 630.975
399.015 26.6667 713.193
399.015 40 634.799
399.015 53.3333 638.623
399.015 66.6667 690.249
399.015 80 476.099
399.015 93.3333 357.553
399.015 106.667 82.218
399.015 706.667 126.195
399.015 720 45.8891
399.015 733.333 49.7132
399.015 746.667 30.5927
399.015 760 151.052
399.015 773.333 212.237
399.015 786.667 74.5698
399.015 800 49.7132
399.015 813.333 53.5373
399.015 826.667 49.7132
399.015 840 42.065
399.015 853.333 38.2409
399.015 866.667 42.065
399.015 880 47.8011
399.015 893.333 89.8662
399.015 906.667 86.0421
399.015 920 567.878
399.015 933.333 739.962
399.015 946.667 636.711
399.015 960 326.96
399.015 973.333 661.568
399.015 986.667 491.396
403.941 13.3333 713.193
403.941 26.6667 470.363
403.941 40 474.187
403.941 53.3333 311.663
403.941 66.6667 600.382
403.941 80 474.187
403.941 93.3333 340.344
403.941 706.667 86.0421
403.941 720 40.153
403.941 733.333 42.065
403.941 746.667 26.7686
403.941 760 99.4264
403.941 773.333 204.589
403.941 786.667 68.8337
403.941 800 38.2409
403.941 813.333 38.2409
403.941 826.667 49.7132
403.941 840 45.8891
403.941 853.333 36.3289
403.941 866.667 45.8891
403.941 880 49.7132
403.941 893.333 91.7782
403.941 906.667 162.524
403.941 920 674.952
403.941 933.333 688.337
403.941 946.667 634.799
403.941 960 326.96
403.941 973.333 661.568
403.941 986.667 491.396
408.867 0 466.539
408.867 13.3333 713.193
408.867 26.6667 179.732
408.867 40 311.663
408.867 53.3333 263.862
408.867 66.6667 573.614
408.867 80 510.516
408.867 93.3333 237.094
408.867 106.667 19.1205
408.867 706.667 116.635
408.867 720 65.0096
408.867 733.333 47.8011
408.867 746.667 61.1855
408.867 760 28.6807
408.867 773.333 260.038
408.867 786.667 114.723
408.867 800 26.7686
408.867 813.333 30.5927
408.867 826.667 32.5048
408.867 840 34.4168
408.867 853.333 36.3289
408.867 866.667 59.2734
408.867 880 65.0096
408.867 893.333 49.7132
408.867 906.667 110.899
408.867 920 673.04
408.867 933.333 732.314
408.867 946.667 634.799
408.867 960 326.96
408.867 973.333 661.568
408.867 986.667 661.568
413.793 0 466.539
413.793 13.3333 565.966
413.793 26.6667 309.751
413.793 40 147.228
413.793 53.3333 311.663
413.793 66.6667 619.503
413.793 80 577.438
413.793 93.3333 221.797
413.793 106.667 43.9771
413.793 706.667 68.8337
413.793 720 86.0421
413.793 733.333 17.2084
413.793 746.667 65.0096
413.793 760 70.7457
413.793 773.333 254.302
413.793 786.667 235.182
413.793 800 45.8891
413.793 813.333 34.4168
413.793 826.667 36.3289
413.793 840 40.153
413.793 853.333 36.3289
413.793 866.667 45.8891
413.793 880 59.2734
413.793 893.333 53.5373
413.793 906.667 97.5143
413.793 920 483.748
413.793 933.333 770.554
413.793 946.667 585.086
413.793 960 481.836
413.793 973.333 493.308
413.793 986.667 663.48
418.719 0 627.151
418.719 13.3333 470.363
418.719 26.6667 309.751
418.719 40 147.228
418.719 53.3333 311.663
418.719 66.6667 508.604
418.719 80 567.878
418.719 93.3333 179.732
418.719 106.667 51.6252
418.719 120 17.2084
418.719 706.667 59.2734
418.719 720 87.9541
418.719 733.333 17.2084
418.719 746.667 68.8337
418.719 760 36.3289
418.719 773.333 175.908
418.719 786.667 235.182
418.719 800 40.153
418.719 813.333 36.3289
418.719 826.667 42.065
418.719 840 42.065
418.719 853.333 32.5048
418.719 866.667 36.3289
418.719 880 38.2409
418.719 893.333 53.5373
418.719 906.667 91.7782
418.719 920 332.696
418.719 933.333 705.545
418.719 946.667 414.914
418.719 960 384.321
418.719 973.333 242.83
418.719 986.667 663.48
423.645 0 466.539
423.645 13.3333 569.79
423.645 26.6667 374.761
423.645 40 147.228
423.645 53.3333 179.732
423.645 66.6667 596.558
423.645 80 655.832
423.645 93.3333 151.052
423.645 106.667 21.0325
423.645 120 55.4493
423.645 706.667 49.7132
423.645 720 87.9541
423.645 733.333 17.2084
423.645 746.667 68.8337
423.645 760 32.5048
423.645 773.333 168.26
423.645 786.667 196.941
423.645 800 36.3289
423.645 813.333 32.5048
423.645 826.667 36.3289
423.645 840 36.3289
423.645 853.333 36.3289
423.645 866.667 34.4168
423.645 880 32.5048
423.645 893.333 34.4168
423.645 906.667 86.0421
423.645 920 346.08
423.645 933.333 617.591
423.645 946.667 485.66
423.645 960 384.321
423.645 973.333 242.83
423.645 986.667 665.392
423.645 1000 665.392
428.571 0 468.451
428.571 13.3333 717.017
428.571 26.6667 227.533
428.571 40 372.849
428.571 53.3333 177.82
428.571 66.6667 676.864
428.571 80 500.956
428.571 93.3333 128.107
428.571 106.667 49.7132
428.571 120 24.8566
428.571 133.333 55.4493
428.571 706.667 72.6577
428.571 720 86.0421
428.571 733.333 43.9771
428.571 746.667 70.7457
428.571 760 32.5048
428.571 773.333 223.709
428.571 786.667 158.7
428.571 800 34.4168
428.571 813.333 36.3289
428.571 826.667 40.153
428.571 840 36.3289
428.571 853.333 36.3289
428.571 866.667 42.065
428.571 880 42.065
428.571 893.333 45.8891
428.571 906.667 42.065
428.571 920 391.969
428.571 933.333 617.591
428.571 946.667 485.66
428.571 960 382.409
428.571 973.333 242.83
428.571 986.667 326.96
428.571 1000 665.392
433.498 0 468.451
433.498 13.3333 638.623
433.498 26.6667 372.849
433.498 40 227.533
433.498 53.3333 370.937
433.498 66.6667 682.6
433.498 80 516.252
433.498 93.3333 66.9216
433.498 106.667 63.0975
433.498 120 55.4493
433.498 133.333 21.0325
433.498 146.667 57.3614
433.498 706.667 63.0975
433.498 720 40.153
433.498 733.333 49.7132
433.498 746.667 59.2734
433.498 760 34.4168
433.498 773.333 216.061
433.498 786.667 76.4818
433.498 800 32.5048
433.498 813.333 32.5048
433.498 826.667 38.2409
433.498 840 49.7132
433.498 853.333 38.2409
433.498 866.667 36.3289
433.498 880 49.7132
433.498 893.333 49.7132
433.498 906.667 36.3289
433.498 920 407.266
433.498 933.333 590.822
433.498 946.667 414.914
433.498 960 384.321
433.498 973.333 240.918
433.498 986.667 325.048
433.498 1000 663.48
438.424 13.3333 715.105
438.424 26.6667 370.937
438.424 40 229.446
438.424 53.3333 596.558
438.424 66.6667 780.115
438.424 80 414.914
438.424 93.3333 66.9216
438.424 106.667 66.9216
438.424 120 26.7686
438.424 133.333 53.5373
438.424 146.667 45.8891
438.424 160 17.2084
438.424 706.667 63.0975
438.424 720 42.065
438.424 733.333 59.2734
438.424 746.667 61.1855
438.424 760 34.4168
438.424 773.333 206.501
438.424 786.667 68.8337
438.424 800 30.5927
438.424 813.333 34.4168
438.424 826.667 49.7132
438.424 840 49.7132
438.424 853.333 45.8891
438.424 866.667 40.153
438.424 880 42.065
438.424 893.333 42.065
438.424 906.667 95.6023
438.424 920 422.562
438.424 933.333 632.887
438.424 946.667 413.002
438.424 960 384.321
438.424 973.333 325.048
438.424 986.667 495.22
438.424 1000 663.48
443.35 13.3333 713.193
443.35 26.6667 229.446
443.35 40 229.446
443.35 53.3333 764.818
443.35 66.6667 715.105
443.35 80 244.742
443.35 93.3333 28.6807
443.35 106.667 30.5927
443.35 120 107.075
443.35 133.333 22.9446
443.35 146.667 57.3614
443.35 160 82.218
443.35 706.667 66.9216
443.35 720 120.459
443.35 733.333 131.931
443.35 746.667 68.8337
443.35 760 70.7457
443.35 773.333 233.27
443.35 786.667 68.8337
443.35 800 28.6807
443.35 813.333 34.4168
443.35 826.667 49.7132
443.35 840 49.7132
443.35 853.333 49.7132
443.35 866.667 49.7132
443.35 880 49.7132
443.35 893.333 45.8891
443.35 906.667 110.899
443.35 920 372.849
443.35 933.333 632.887
443.35 946.667 315.488
443.35 960 384.321
443.35 973.333 325.048
443.35 986.667 663.48
443.35 1000 661.568
448.276 13.3333 634.799
448.276 26.6667 466.539
448.276 40 374.761
448.276 53.3333 799.235
448.276 66.6667 596.558
448.276 80 74.5698
448.276 93.3333 72.6577
448.276 106.667 34.4168
448.276 120 68.8337
448.276 133.333 61.1855
448.276 146.667 59.2734
448.276 160 53.5373
448.276 173.333 19.1205
448.276 706.667 15.2964
448.276 720 99.4264
448.276 733.333 116.635
448.276 746.667 49.7132
448.276 760 66.9216
448.276 773.333 183.556
448.276 786.667 26.7686
448.276 800 36.3289
448.276 813.333 42.065
448.276 826.667 49.7132
448.276 840 65.0096
448.276 853.333 59.2734
448.276 866.667 53.5373
448.276 880 55.4493
448.276 893.333 97.5143
448.276 906.667 97.5143
448.276 920 573.614
448.276 933.333 630.975
448.276 946.667 479.924
448.276 960 481.836
448.276 973.333 493.308
448.276 986.667 663.48
448.276 1000 491.396
453.202 13.3333 632.887
453.202 26.6667 468.451
453.202 40 671.128
453.202 53.3333 774.379
453.202 66.6667 434.034
453.202 80 53.5373
453.202 93.3333 22.9446
453.202 106.667 65.0096
453.202 120 22.9446
453.202 133.333 93.6902
453.202 146.667 63.0975
453.202 160 57.3614
453.202 173.333 53.5373
453.202 706.667 15.2964
453.202 720 107.075
453.202 733.333 116.635
453.202 746.667 80.3059
453.202 760 70.7457
453.202 773.333 196.941
453.202 786.667 26.7686
453.202 800 34.4168
453.202 813.333 42.065
453.202 826.667 57.3614
453.202 840 70.7457
453.202 853.333 63.0975
453.202 866.667 45.8891
453.202 880 105.163
453.202 893.333 112.811
453.202 906.667 248.566
453.202 920 615.679
453.202 933.333 571.702
453.202 946.667 479.924
453.202 960 479.924
453.202 973.333 491.396
453.202 986.667 661.568
453.202 1000 491.396
458.128 26.6667 629.063
458.128 40 810.707
458.128 53.3333 586.998
458.128 66.6667 336.52
458.128 80 78.3939
458.128 93.3333 17.2084
458.128 106.667 19.1205
458.128 120 53.5373
458.128 133.333 21.0325
458.128 146.667 95.6023
458.128 160 78.3939
458.128 173.333 42.065
458.128 706.667 17.2084
458.128 720 128.107
458.128 733.333 166.348
458.128 746.667 137.667
458.128 760 70.7457
458.128 773.333 168.26
458.128 786.667 32.5048
458.128 800 43.9771
458.128 813.333 45.8891
458.128 826.667 49.7132
458.128 840 70.7457
458.128 853.333 70.7457
458.128 866.667 122.371
458.128 880 97.5143
458.128 893.333 51.6252
458.128 906.667 365.201
458.128 920 673.04
458.128 933.333 489.484
458.128 946.667 479.924
458.128 960 323.136
458.128 973.333 661.568
458.128 986.667 661.568
458.128 1000 491.396
463.054 26.6667 625.239
463.054 40 812.62
463.054 53.3333 445.507
463.054 66.6667 208.413
463.054 80 195.029
463.054 93.3333 51.6252
463.054 106.667 24.8566
463.054 120 57.3614
463.054 133.333 26.7686
463.054 146.667 84.13
463.054 160 47.8011
463.054 173.333 74.5698
463.054 186.667 47.8011
463.054 706.667 24.8566
463.054 720 162.524
463.054 733.333 130.019
463.054 746.667 131.931
463.054 760 99.4264
463.054 773.333 151.052
463.054 786.667 38.2409
463.054 800 196.941
463.054 813.333 223.709
463.054 826.667 112.811
463.054 840 57.3614
463.054 853.333 120.459
463.054 866.667 103.25
463.054 880 43.9771
463.054 893.333 143.403
463.054 906.667 460.803
463.054 920 720.841
463.054 933.333 558.317
463.054 946.667 380.497
463.054 960 237.094
463.054 973.333 491.396
463.054 986.667 491.396
463.054 1000 491.396
467.98 40 866.157
467.98 53.3333 615.679
467.98 66.6667 158.7
467.98 80 250.478
467.98 93.3333 66.9216
467.98 106.667 24.8566
467.98 120 61.1855
467.98 133.333 65.0096
467.98 146.667 24.8566
467.98 160 114.723
467.98 173.333 74.5698
467.98 186.667 47.8011
467.98 200 17.2084
467.98 720 175.908
467.98 733.333 137.667
467.98 746.667 168.26
467.98 760 183.556
467.98 773.333 107.075
467.98 786.667 196.941
467.98 800 198.853
467.98 813.333 141.491
467.98 826.667 187.38
467.98 840 97.5143
467.98 853.333 97.5143
467.98 866.667 43.9771
467.98 880 43.9771
467.98 893.333 317.4
467.98 906.667 512.428
467.98 920 602.294
467.98 933.333 382.409
467.98 946.667 390.057
467.98 960 491.396
467.98 973.333 491.396
467.98 986.667 491.396
467.98 1000 491.396
472.906 40 629.063
472.906 53.3333 782.027
472.906 66.6667 292.543
472.906 80 244.742
472.906 93.3333 242.83
472.906 106.667 22.9446
472.906 120 24.8566
472.906 133.333 53.5373
472.906 146.667 51.6252
472.906 160 78.3939
472.906 173.333 49.7132
472.906 186.667 114.723
472.906 200 21.0325
472.906 720 166.348
472.906 733.333 130.019
472.906 746.667 152.964
472.906 760 214.149
472.906 773.333 78.3939
472.906 786.667 210.325
472.906 800 152.964
472.906 813.333 152.964
472.906 826.667 187.38
472.906 840 175.908
472.906 853.333 101.338
472.906 866.667 47.8011
472.906 880 103.25
472.906 893.333 384.321
472.906 906.667 544.933
472.906 920 621.415
472.906 933.333 380.497
472.906 946.667 323.136
472.906 960 493.308
472.906 973.333 659.656
472.906 986.667 491.396
477.833 40 460.803
477.833 53.3333 803.059
477.833 66.6667 443.595
477.833 80 189.293
477.833 93.3333 254.302
477.833 106.667 114.723
477.833 120 22.9446
477.833 133.333 24.8566
477.833 146.667 87.9541
477.833 160 84.13
477.833 173.333 86.0421
477.833 186.667 118.547
477.833 200 24.8566
477.833 720 191.205
477.833 733.333 131.931
477.833 746.667 114.723
477.833 760 252.39
477.833 773.333 145.315
477.833 786.667 187.38
477.833 800 185.468
477.833 813.333 185.468
477.833 826.667 281.071
477.833 840 175.908
477.833 853.333 57.3614
477.833 866.667 43.9771
477.833 880 103.25
477.833 893.333 374.761
477.833 906.667 552.581
477.833 920 426.386
477.833 933.333 239.006
477.833 946.667 391.969
477.833 960 493.308
477.833 973.333 491.396
482.759 40 458.891
482.759 53.3333 720.841
482.759 66.6667 663.48
482.759 80 294.455
482.759 93.3333 204.589
482.759 106.667 240.918
482.759 120 61.1855
482.759 133.333 24.8566
482.759 146.667 22.9446
482.759 160 152.964
482.759 173.333 89.8662
482.759 186.667 93.6902
482.759 200 22.9446
482.759 720 231.358
482.759 733.333 145.315
482.759 746.667 70.7457
482.759 760 216.061
482.759 773.333 248.566
482.759 786.667 200.765
482.759 800 206.501
482.759 813.333 206.501
482.759 826.667 359.465
482.759 840 108.987
482.759 853.333 40.153
482.759 866.667 89.8662
482.759 880 160.612
482.759 893.333 455.067
482.759 906.667 550.669
482.759 920 411.09
482.759 933.333 187.38
482.759 946.667 493.308
482.759 960 655.832
482.759 973.333 491.396
487.685 53.3333 458.891
487.685 66.6667 791.587
487.685 80 474.187
487.685 93.3333 217.973
487.685 106.667 204.589
487.685 120 162.524
487.685 133.333 63.0975
487.685 146.667 53.5373
487.685 160 181.644
487.685 173.333 110.899
487.685 186.667 86.0421
487.685 200 17.2084
487.685 720 151.052
487.685 733.333 145.315
487.685 746.667 74.5698
487.685 760 170.172
487.685 773.333 332.696
487.685 786.667 237.094
487.685 800 166.348
487.685 813.333 305.927
487.685 826.667 282.983
487.685 840 40.153
487.685 853.333 43.9771
487.685 866.667 95.6023
487.685 880 152.964
487.685 893.333 430.21
487.685 906.667 676.864
487.685 920 411.09
487.685 933.333 390.057
487.685 946.667 657.744
487.685 960 489.484
492.611 53.3333 458.891
492.611 66.6667 749.522
492.611 80 537.285
492.611 93.3333 212.237
492.611 106.667 294.455
492.611 120 93.6902
492.611 133.333 107.075
492.611 146.667 147.228
492.611 160 170.172
492.611 173.333 103.25
492.611 186.667 93.6902
492.611 200 19.1205
492.611 720 105.163
492.611 733.333 175.908
492.611 746.667 34.4168
492.611 760 128.107
492.611 773.333 244.742
492.611 786.667 237.094
492.611 800 244.742
492.611 813.333 336.52
492.611 826.667 185.468
492.611 840 45.8891
492.611 853.333 95.6023
492.611 866.667 206.501
492.611 880 112.811
492.611 893.333 539.197
492.611 906.667 652.008
492.611 920 187.38
492.611 933.333 655.832
492.611 946.667 653.92
492.611 960 483.748
497.537 66.6667 709.369
497.537 80 690.249
497.537 93.3333 541.109
497.537 106.667 294.455
497.537 120 95.6023
497.537 133.333 101.338
497.537 146.667 166.348
497.537 160 156.788
497.537 173.333 68.8337
497.537 186.667 101.338
497.537 200 19.1205
497.537 720 156.788
497.537 733.333 168.26
497.537 746.667 36.3289
497.537 760 99.4264
497.537 773.333 212.237
497.537 786.667 330.784
497.537 800 189.293
497.537 813.333 214.149
497.537 826.667 185.468
497.537 840 57.3614
497.537 853.333 160.612
497.537 866.667 97.5143
497.537 880 393.881
497.537 893.333 806.883
497.537 906.667 583.174
497.537 920 237.094
497.537 933.333 655.832
497.537 946.667 483.748
502.463 66.6667 466.539
502.463 80 827.916
502.463 93.3333 472.275
502.463 106.667 219.885
502.463 120 120.459
502.463 133.333 66.9216
502.463 146.667 202.677
502.463 160 200.765
502.463 173.333 70.7457
502.463 186.667 101.338
502.463 200 19.1205
502.463 720 149.14
502.463 733.333 170.172
502.463 746.667 68.8337
502.463 760 91.7782
502.463 773.333 196.941
502.463 786.667 296.367
502.463 800 128.107
502.463 813.333 183.556
502.463 826.667 151.052
502.463 840 235.182
502.463 853.333 233.27
502.463 866.667 116.635
502.463 880 686.424
502.463 893.333 732.314
502.463 906.667 187.38
502.463 920 485.66
502.463 933.333 485.66
502.463 946.667 483.748
507.389 80 887.189
507.389 93.3333 405.354
507.389 106.667 311.663
507.389 120 120.459
507.389 133.333 63.0975
507.389 146.667 195.029
507.389 160 210.325
507.389 173.333 78.3939
507.389 186.667 93.6902
507.389 200 17.2084
507.389 720 108.987
507.389 733.333 151.052
507.389 746.667 66.9216
507.389 760 72.6577
507.389 773.333 196.941
507.389 786.667 300.191
507.389 800 116.635
507.389 813.333 116.635
507.389 826.667 235.182
507.389 840 258.126
507.389 853.333 137.667
507.389 866.667 506.692
507.389 880 759.082
507.389 893.333 487.572
507.389 906.667 237.094
507.389 920 485.66
507.389 933.333 317.4
507.389 946.667 481.836
512.315 80 877.629
512.315 93.3333 393.881
512.315 106.667 328.872
512.315 120 133.843
512.315 133.333 70.7457
512.315 146.667 231.358
512.315 160 181.644
512.315 173.333 116.635
512.315 186.667 63.0975
512.315 200 45.8891
512.315 720 76.4818
512.315 733.333 137.667
512.315 746.667 110.899
512.315 760 87.9541
512.315 773.333 179.732
512.315 786.667 250.478
512.315 800 101.338
512.315 813.333 170.172
512.315 826.667 399.618
512.315 840 235.182
512.315 853.333 256.214
512.315 866.667 665.392
512.315 880 541.109
512.315 893.333 237.094
512.315 906.667 237.094
512.315 920 487.572
512.315 933.333 483.748
512.315 946.667 479.924
517.241 80 866.157
517.241 93.3333 311.663
517.241 106.667 376.673
517.241 120 172.084
517.241 133.333 158.7
517.241 146.667 254.302
517.241 160 221.797
517.241 173.333 105.163
517.241 186.667 97.5143
517.241 200 72.6577
517.241 720 72.6577
517.241 733.333 99.4264
517.241 746.667 101.338
517.241 760 95.6023
517.241 773.333 122.371
517.241 786.667 250.478
517.241 800 108.987
517.241 813.333 183.556
517.241 826.667 269.598
517.241 840 166.348
517.241 853.333 604.207
517.241 866.667 703.633
517.241 880 390.057
517.241 893.333 237.094
517.241 906.667 237.094
517.241 920 487.572
517.241 933.333 650.096
517.241 946.667 479.924
522.167 80 636.711
522.167 93.3333 787.763
522.167 106.667 311.663
522.167 120 330.784
522.167 133.333 47.8011
522.167 146.667 252.39
522.167 160 221.797
522.167 173.333 137.667
522.167 186.667 110.899
522.167 200 53.5373
522.167 720 76.4818
522.167 733.333 118.547
522.167 746.667 97.5143
522.167 760 162.524
522.167 773.333 185.468
522.167 786.667 273.423
522.167 800 101.338
522.167 813.333 233.27
522.167 826.667 269.598
522.167 840 198.853
522.167 853.333 627.151
522.167 866.667 485.66
522.167 880 237.094
522.167 893.333 237.094
522.167 906.667 321.224
522.167 920 487.572
522.167 933.333 650.096
527.094 93.3333 866.157
527.094 106.667 275.335
527.094 120 445.507
527.094 133.333 47.8011
527.094 146.667 219.885
527.094 160 221.797
527.094 173.333 168.26
527.094 186.667 137.667
527.094 200 49.7132
527.094 720 68.8337
527.094 733.333 118.547
527.094 746.667 101.338
527.094 760 175.908
527.094 773.333 202.677
527.094 786.667 235.182
527.094 800 101.338
527.094 813.333 260.038
527.094 826.667 214.149
527.094 840 397.706
527.094 853.333 646.272
527.094 866.667 430.21
527.094 880 237.094
527.094 893.333 237.094
527.094 906.667 487.572
527.094 920 485.66
527.094 933.333 650.096
532.02 93.3333 720.841
532.02 106.667 518.164
532.02 120 414.914
532.02 133.333 156.788
532.02 146.667 231.358
532.02 160 261.95
532.02 173.333 212.237
532.02 186.667 162.524
532.02 200 19.1205
532.02 720 57.3614
532.02 733.333 206.501
532.02 746.667 147.228
532.02 760 158.7
532.02 773.333 271.511
532.02 786.667 151.052
532.02 800 151.052
532.02 813.333 233.27
532.02 826.667 196.941
532.02 840 520.076
532.02 853.333 648.184
532.02 866.667 323.136
532.02 880 237.094
532.02 893.333 237.094
532.02 906.667 487.572
532.02 920 319.312
532.02 933.333 650.096
536.946 106.667 856.597
536.946 120 275.335
536.946 133.333 346.08
536.946 146.667 204.589
536.946 160 208.413
536.946 173.333 250.478
536.946 186.667 196.941
536.946 200 17.2084
536.946 733.333 183.556
536.946 746.667 152.964
536.946 760 166.348
536.946 773.333 273.423
536.946 786.667 118.547
536.946 800 173.996
536.946 813.333 315.488
536.946 826.667 248.566
536.946 840 535.373
536.946 853.333 598.47
536.946 866.667 154.876
536.946 880 239.006
536.946 893.333 239.006
536.946 906.667 489.484
536.946 920 319.312
536.946 933.333 650.096
541.872 106.667 636.711
541.872 120 671.128
541.872 133.333 332.696
541.872 146.667 426.386
541.872 160 204.589
541.872 173.333 221.797
541.872 186.667 231.358
541.872 200 15.2964
541.872 733.333 177.82
541.872 746.667 141.491
541.872 760 151.052
541.872 773.333 273.423
541.872 786.667 237.094
541.872 800 292.543
541.872 813.333 338.432
541.872 826.667 380.497
541.872 840 686.424
541.872 853.333 487.572
541.872 866.667 154.876
541.872 880 189.293
541.872 893.333 239.006
541.872 906.667 491.396
541.872 920 321.224
541.872 933.333 650.096
546.798 120 826.004
546.798 133.333 340.344
546.798 146.667 550.669
546.798 160 347.992
546.798 173.333 286.807
546.798 186.667 239.006
546.798 200 45.8891
546.798 733.333 191.205
546.798 746.667 133.843
546.798 760 151.052
546.798 773.333 248.566
546.798 786.667 321.224
546.798 800 292.543
546.798 813.333 355.641
546.798 826.667 479.924
546.798 840 695.985
546.798 853.333 321.224
546.798 866.667 191.205
546.798 880 189.293
546.798 893.333 239.006
546.798 906.667 491.396
546.798 920 323.136
546.798 933.333 648.184
551.724 133.333 858.509
551.724 146.667 476.099
551.724 160 474.187
551.724 173.333 265.774
551.724 186.667 189.293
551.724 200 76.4818
551.724 720 68.8337
551.724 733.333 177.82
551.724 746.667 141.491
551.724 760 131.931
551.724 773.333 168.26
551.724 786.667 407.266
551.724 800 252.39
551.724 813.333 550.669
551.724 826.667 793.499
551.724 840 541.109
551.724 853.333 191.205
551.724 866.667 191.205
551.724 880 191.205
551.724 893.333 391.969
551.724 906.667 491.396
551.724 920 321.224
551.724 933.333 648.184
556.65 133.333 722.753
556.65 146.667 847.036
556.65 160 588.91
556.65 173.333 359.465
556.65 186.667 223.709
556.65 200 66.9216
556.65 720 74.5698
556.65 733.333 114.723
556.65 746.667 130.019
556.65 760 108.987
556.65 773.333 130.019
556.65 786.667 414.914
556.65 800 481.836
556.65 813.333 780.115
556.65 826.667 751.434
556.65 840 487.572
556.65 853.333 156.788
556.65 866.667 189.293
556.65 880 189.293
556.65 893.333 489.484
556.65 906.667 321.224
556.65 920 650.096
556.65 933.333 483.748
561.576 133.333 804.971
561.576 146.667 642.447
561.576 160 690.249
561.576 173.333 346.08
561.576 186.667 342.256
561.576 200 101.338
561.576 720 59.2734
561.576 733.333 118.547
561.576 746.667 124.283
561.576 760 103.25
561.576 773.333 168.26
561.576 786.667 592.734
561.576 800 732.314
561.576 813.333 826.004
561.576 826.667 644.359
561.576 840 390.057
561.576 853.333 491.396
561.576 866.667 189.293
561.576 880 390.057
561.576 893.333 487.572
561.576 906.667 319.312
561.576 920 646.272
566.502 133.333 804.971
566.502 146.667 577.438
566.502 160 613.767
566.502 173.333 424.474
566.502 186.667 347.992
566.502 200 239.006
566.502 720 59.2734
566.502 733.333 108.987
566.502 746.667 114.723
566.502 760 112.811
566.502 773.333 290.631
566.502 786.667 822.18
566.502 800 835.564
566.502 813.333 644.359
566.502 826.667 487.572
566.502 840 653.92
566.502 853.333 491.396
566.502 866.667 736.138
566.502 880 585.086
566.502 893.333 319.312
566.502 906.667 646.272
566.502 920 483.748
571.429 133.333 847.036
571.429 146.667 478.011
571.429 160 149.14
571.429 173.333 684.512
571.429 186.667 439.771
571.429 200 359.465
571.429 720 63.0975
571.429 733.333 139.579
571.429 746.667 114.723
571.429 760 78.3939
571.429 773.333 500.956
571.429 786.667 845.124
571.429 800 646.272
571.429 813.333 577.438
571.429 826.667 653.92
571.429 840 653.92
571.429 853.333 653.92
571.429 866.667 653.92
571.429 880 479.924
571.429 893.333 483.748
571.429 906.667 483.748
576.355 120 472.275
576.355 133.333 847.036
576.355 146.667 311.663
576.355 160 407.266
576.355 173.333 665.392
576.355 186.667 644.359
576.355 200 401.53
576.355 720 24.8566
576.355 733.333 223.709
576.355 746.667 128.107
576.355 760 225.621
576.355 773.333 636.711
576.355 786.667 856.597
576.355 800 724.665
576.355 813.333 650.096
576.355 826.667 653.92
576.355 840 653.92
576.355 853.333 479.924
581.281 120 638.623
581.281 133.333 724.665
581.281 146.667 378.585
581.281 160 479.924
581.281 173.333 692.161
581.281 186.667 657.744
581.281 200 326.96
581.281 733.333 260.038
581.281 746.667 170.172
581.281 760 376.673
581.281 773.333 598.47
581.281 786.667 816.444
581.281 800 652.008
581.281 813.333 650.096
581.281 826.667 650.096
586.207 120 722.753
586.207 133.333 724.665
586.207 146.667 575.526
586.207 160 478.011
586.207 173.333 726.577
586.207 186.667 682.6
586.207 200 118.547
586.207 733.333 198.853
586.207 746.667 304.015
586.207 760 483.748
586.207 773.333 650.096
586.207 786.667 889.101
586.207 800 650.096
586.207 813.333 487.572
591.133 120 827.916
591.133 133.333 531.549
591.133 146.667 407.266
591.133 160 533.461
591.133 173.333 760.994
591.133 186.667 512.428
591.133 733.333 166.348
591.133 746.667 353.728
591.133 760 424.474
591.133 773.333 684.512
591.133 786.667 885.277
591.133 800 487.572
596.059 106.667 476.099
596.059 120 847.036
596.059 133.333 407.266
596.059 146.667 407.266
596.059 160 642.447
596.059 173.333 673.04
596.059 186.667 386.233
596.059 733.333 120.459
596.059 746.667 328.872
596.059 760 462.715
596.059 773.333 564.054
596.059 786.667 831.74
596.059 800 485.66
600.985 106.667 722.753
600.985 120 829.828
600.985 133.333 376.673
600.985 146.667 265.774
600.985 160 592.734
600.985 173.333 598.47
600.985 186.667 326.96
600.985 720 30.5927
600.985 733.333 154.876
600.985 746.667 328.872
600.985 760 504.78
600.985 773.333 518.164
600.985 786.667 852.772
600.985 800 483.748
605.911 106.667 722.753
605.911 120 548.757
605.911 133.333 378.585
605.911 146.667 409.178
605.911 160 642.447
605.911 173.333 569.79
605.911 186.667 328.872
605.911 720 22.9446
605.911 733.333 114.723
605.911 746.667 250.478
605.911 760 462.715
605.911 773.333 518.164
605.911 786.667 919.694
605.911 800 483.748
610.837 106.667 724.665
610.837 120 776.291
610.837 133.333 265.774
610.837 146.667 313.576
610.837 160 363.289
610.837 173.333 630.975
610.837 186.667 344.168
610.837 720 21.0325
610.837 733.333 139.579
610.837 746.667 250.478
610.837 760 460.803
610.837 773.333 514.34
610.837 786.667 919.694
615.764 106.667 724.665
615.764 120 776.291
615.764 133.333 315.488
615.764 146.667 315.488
615.764 160 210.325
615.764 173.333 598.47
615.764 186.667 340.344
615.764 720 86.0421
615.764 733.333 120.459
615.764 746.667 332.696
615.764 760 462.715
615.764 773.333 632.887
615.764 786.667 913.958
620.69 106.667 774.379
620.69 120 778.203
620.69 133.333 382.409
620.69 146.667 315.488
620.69 160 229.446
620.69 173.333 600.382
620.69 186.667 372.849
620.69 440 21.0325
620.69 466.667 13.3843
620.69 480 15.2964
620.69 720 89.8662
620.69 733.333 95.6023
620.69 746.667 288.719
620.69 760 575.526
620.69 773.333 873.805
620.69 786.667 894.837
625.616 106.667 774.379
625.616 120 778.203
625.616 133.333 382.409
625.616 146.667 481.836
625.616 160 334.608
625.616 173.333 621.415
625.616 186.667 342.256
625.616 426.667 19.1205
625.616 440 17.2084
625.616 453.333 47.8011
625.616 466.667 40.153
625.616 480 11.4723
625.616 493.333 11.4723
625.616 720 53.5373
625.616 733.333 87.9541
625.616 746.667 391.969
625.616 760 575.526
625.616 773.333 873.805
625.616 786.667 843.212
630.542 106.667 774.379
630.542 120 780.115
630.542 133.333 315.488
630.542 146.667 409.178
630.542 160 550.669
630.542 173.333 535.373
630.542 186.667 351.816
630.542 426.667 38.2409
630.542 440 11.4723
630.542 453.333 87.9541
630.542 466.667 42.065
630.542 480 40.153
630.542 493.333 38.2409
630.542 720 57.3614
630.542 733.333 151.052
630.542 746.667 416.826
630.542 760 562.141
630.542 773.333 873.805
630.542 786.667 818.356
635.468 106.667 776.291
635.468 120 695.985
635.468 133.333 315.488
635.468 146.667 550.669
635.468 160 550.669
635.468 173.333 499.044
635.468 186.667 414.914
635.468 413.333 9.56023
635.468 426.667 40.153
635.468 440 11.4723
635.468 453.333 122.371
635.468 466.667 40.153
635.468 480 78.3939
635.468 493.333 84.13
635.468 720 59.2734
635.468 733.333 183.556
635.468 746.667 432.122
635.468 760 483.748
635.468 773.333 808.795
635.468 786.667 860.421
640.394 106.667 776.291
640.394 120 695.985
640.394 133.333 233.27
640.394 146.667 550.669
640.394 160 518.164
640.394 173.333 518.164
640.394 186.667 330.784
640.394 413.333 36.3289
640.394 426.667 13.3843
640.394 440 15.2964
640.394 453.333 130.019
640.394 466.667 51.6252
640.394 480 84.13
640.394 493.333 101.338
640.394 720 57.3614
640.394 733.333 151.052
640.394 746.667 370.937
640.394 760 393.881
640.394 773.333 632.887
640.394 786.667 860.421
645.32 106.667 776.291
645.32 120 695.985
645.32 133.333 382.409
645.32 146.667 535.373
645.32 160 518.164
645.32 173.333 514.34
645.32 186.667 214.149
645.32 413.333 36.3289
645.32 426.667 13.3843
645.32 440 40.153
645.32 453.333 122.371
645.32 466.667 114.723
645.32 480 107.075
645.32 493.333 72.6577
645.32 720 42.065
645.32 733.333 74.5698
645.32 746.667 317.4
645.32 760 529.637
645.32 773.333 709.369
645.32 786.667 875.717
650.246 106.667 776.291
650.246 120 695.985
650.246 133.333 382.409
650.246 146.667 424.474
650.246 160 380.497
650.246 173.333 565.966
650.246 186.667 154.876
650.246 400 11.4723
650.246 413.333 40.153
650.246 426.667 13.3843
650.246 440 122.371
650.246 453.333 126.195
650.246 466.667 141.491
650.246 480 108.987
650.246 493.333 93.6902
650.246 720 38.2409
650.246 733.333 68.8337
650.246 746.667 256.214
650.246 760 420.65
650.246 773.333 634.799
650.246 786.667 877.629
650.246 800 483.748
655.172 106.667 776.291
655.172 120 694.073
655.172 133.333 315.488
655.172 146.667 380.497
655.172 160 313.576
655.172 173.333 621.415
655.172 186.667 154.876
655.172 400 11.4723
655.172 413.333 13.3843
655.172 426.667 15.2964
655.172 440 189.293
655.172 453.333 170.172
655.172 466.667 256.214
655.172 480 84.13
655.172 493.333 120.459
655.172 720 63.0975
655.172 733.333 72.6577
655.172 746.667 286.807
655.172 760 386.233
655.172 773.333 539.197
655.172 786.667 866.157
655.172 800 485.66
660.099 106.667 774.379
660.099 120 694.073
660.099 133.333 233.27
660.099 146.667 344.168
660.099 160 282.983
660.099 173.333 586.998
660.099 186.667 170.172
660.099 400 13.3843
660.099 413.333 17.2084
660.099 426.667 177.82
660.099 440 250.478
660.099 453.333 170.172
660.099 466.667 288.719
660.099 480 170.172
660.099 493.333 103.25
660.099 506.667 42.065
660.099 720 68.8337
660.099 733.333 82.218
660.099 746.667 296.367
660.099 760 525.813
660.099 773.333 638.623
660.099 786.667 768.642
660.099 800 485.66
665.025 106.667 774.379
665.025 120 808.795
665.025 133.333 313.576
665.025 146.667 380.497
665.025 160 282.983
665.025 173.333 644.359
665.025 186.667 233.27
665.025 400 13.3843
665.025 413.333 101.338
665.025 426.667 214.149
665.025 440 122.371
665.025 453.333 237.094
665.025 466.667 288.719
665.025 480 212.237
665.025 493.333 135.755
665.025 506.667 49.7132
665.025 720 72.6577
665.025 733.333 108.987
665.025 746.667 405.354
665.025 760 487.572
665.025 773.333 632.887
665.025 786.667 705.545
665.025 800 487.572
669.951 106.667 642.447
669.951 120 808.795
669.951 133.333 478.011
669.951 146.667 424.474
669.951 160 380.497
669.951 173.333 550.669
669.951 186.667 351.816
669.951 200 57.3614
669.951 400 13.3843
669.951 413.333 160.612
669.951 426.667 166.348
669.951 440 110.899
669.951 453.333 212.237
669.951 466.667 235.182
669.951 480 265.774
669.951 493.333 164.436
669.951 506.667 107.075
669.951 706.667 30.5927
669.951 720 108.987
669.951 733.333 258.126
669.951 746.667 485.66
669.951 760 533.461
669.951 773.333 776.291
669.951 786.667 793.499
669.951 800 487.572
674.877 106.667 476.099
674.877 120 774.379
674.877 133.333 644.359
674.877 146.667 479.924
674.877 160 355.641
674.877 173.333 598.47
674.877 186.667 357.553
674.877 200 126.195
674.877 400 101.338
674.877 413.333 206.501
674.877 426.667 198.853
674.877 440 223.709
674.877 453.333 273.423
674.877 466.667 281.071
674.877 480 344.168
674.877 493.333 229.446
674.877 506.667 149.14
674.877 706.667 30.5927
674.877 720 131.931
674.877 733.333 328.872
674.877 746.667 569.79
674.877 760 738.05
674.877 773.333 822.18
674.877 786.667 659.656
679.803 120 774.379
679.803 133.333 808.795
679.803 146.667 479.924
679.803 160 313.576
679.803 173.333 611.855
679.803 186.667 481.836
679.803 200 114.723
679.803 400 97.5143
679.803 413.333 179.732
679.803 426.667 185.468
679.803 440 235.182
679.803 453.333 305.927
679.803 466.667 281.071
679.803 480 319.312
679.803 493.333 147.228
679.803 506.667 229.446
679.803 706.667 28.6807
679.803 720 170.172
679.803 733.333 386.233
679.803 746.667 638.623
679.803 760 738.05
679.803 773.333 705.545
679.803 786.667 491.396
684.729 120 774.379
684.729 133.333 833.652
684.729 146.667 424.474
684.729 160 281.071
684.729 173.333 571.702
684.729 186.667 435.946
684.729 200 108.987
684.729 386.667 11.4723
684.729 400 118.547
684.729 413.333 235.182
684.729 426.667 260.038
684.729 440 300.191
684.729 453.333 365.201
684.729 466.667 382.409
684.729 480 367.113
684.729 493.333 395.793
684.729 506.667 244.742
684.729 693.333 38.2409
684.729 706.667 59.2734
684.729 720 233.27
684.729 733.333 449.331
684.729 746.667 747.61
684.729 760 772.467
684.729 773.333 795.411
684.729 786.667 491.396
689.655 120 774.379
689.655 133.333 835.564
689.655 146.667 409.178
689.655 160 380.497
689.655 173.333 527.725
689.655 186.667 382.409
689.655 200 105.163
689.655 386.667 40.153
689.655 400 120.459
689.655 413.333 279.159
689.655 426.667 281.071
689.655 440 235.182
689.655 453.333 453.155
689.655 466.667 464.627
689.655 480 514.34
689.655 493.333 380.497
689.655 506.667 413.002
689.655 693.333 32.5048
689.655 706.667 51.6252
689.655 720 225.621
689.655 733.333 399.618
689.655 746.667 701.721
689.655 760 739.962
689.655 773.333 745.698
694.581 106.667 472.275
694.581 120 774.379
694.581 133.333 728.489
694.581 146.667 407.266
694.581 160 424.474
694.581 173.333 458.891
694.581 186.667 279.159
694.581 200 162.524
694.581 386.667 95.6023
694.581 400 200.765
694.581 413.333 344.168
694.581 426.667 237.094
694.581 440 380.497
694.581 453.333 594.646
694.581 466.667 640.535
694.581 480 713.193
694.581 493.333 388.145
694.581 506.667 491.396
694.581 693.333 15.2964
694.581 706.667 72.6577
694.581 720 248.566
694.581 733.333 372.849
694.581 746.667 638.623
694.581 760 791.587
694.581 773.333 661.568
699.507 106.667 472.275
699.507 120 577.438
699.507 133.333 646.272
699.507 146.667 267.686
699.507 160 435.946
699.507 173.333 550.669
699.507 186.667 263.862
699.507 200 191.205
699.507 213.333 24.8566
699.507 373.333 40.153
699.507 386.667 122.371
699.507 400 273.423
699.507 413.333 319.312
699.507 426.667 120.459
699.507 440 472.275
699.507 453.333 594.646
699.507 466.667 782.027
699.507 480 776.291
699.507 493.333 378.585
699.507 506.667 521.989
699.507 693.333 9.56023
699.507 706.667 89.8662
699.507 720 263.862
699.507 733.333 298.279
699.507 746.667 638.623
699.507 760 902.486
699.507 773.333 659.656
704.433 106.667 472.275
704.433 120 577.438
704.433 133.333 646.272
704.433 146.667 183.556
704.433 160 579.35
704.433 173.333 456.979
704.433 186.667 191.205
704.433 200 170.172
704.433 213.333 95.6023
704.433 373.333 43.9771
704.433 386.667 135.755
704.433 400 269.598
704.433 413.333 112.811
704.433 426.667 212.237
704.433 440 623.327
704.433 453.333 785.851
704.433 466.667 728.489
704.433 480 520.076
704.433 493.333 372.849
704.433 506.667 521.989
704.433 693.333 59.2734
704.433 706.667 116.635
704.433 720 288.719
704.433 733.333 388.145
704.433 746.667 669.216
704.433 760 894.837
709.36 120 776.291
709.36 133.333 604.207
709.36 146.667 315.488
709.36 160 479.924
709.36 173.333 409.178
709.36 186.667 225.621
709.36 200 156.788
709.36 213.333 105.163
709.36 373.333 38.2409
709.36 386.667 170.172
709.36 400 288.719
709.36 413.333 93.6902
709.36 426.667 393.881
709.36 440 694.073
709.36 453.333 782.027
709.36 466.667 546.845
709.36 480 485.66
709.36 493.333 470.363
709.36 506.667 508.604
709.36 520 17.2084
709.36 693.333 57.3614
709.36 706.667 65.0096
709.36 720 321.224
709.36 733.333 510.516
709.36 746.667 789.675
709.36 760 885.277
714.286 120 776.291
714.286 133.333 579.35
714.286 146.667 481.836
714.286 160 525.813
714.286 173.333 340.344
714.286 186.667 407.266
714.286 200 95.6023
714.286 213.333 191.205
714.286 373.333 95.6023
714.286 386.667 248.566
714.286 400 282.983
714.286 413.333 99.4264
714.286 426.667 546.845
714.286 440 766.73
714.286 453.333 816.444
714.286 466.667 564.054
714.286 480 363.289
714.286 493.333 617.591
714.286 506.667 435.946
714.286 520 128.107
714.286 693.333 84.13
714.286 706.667 156.788
714.286 720 413.002
714.286 733.333 600.382
714.286 746.667 862.333
714.286 760 871.893
719.212 120 776.291
719.212 133.333 579.35
719.212 146.667 481.836
719.212 160 525.813
719.212 173.333 164.436
719.212 186.667 485.66
719.212 200 133.843
719.212 213.333 191.205
719.212 373.333 82.218
719.212 386.667 284.895
719.212 400 187.38
719.212 413.333 139.579
719.212 426.667 619.503
719.212 440 858.509
719.212 453.333 871.893
719.212 466.667 325.048
719.212 480 273.423
719.212 493.333 629.063
719.212 506.667 445.507
719.212 520 282.983
719.212 693.333 86.0421
719.212 706.667 193.117
719.212 720 422.562
719.212 733.333 755.258
719.212 746.667 829.828
719.212 760 745.698
724.138 120 774.379
724.138 133.333 579.35
724.138 146.667 550.669
724.138 160 564.054
724.138 173.333 256.214
724.138 186.667 441.683
724.138 200 170.172
724.138 213.333 191.205
724.138 373.333 61.1855
724.138 386.667 311.663
724.138 400 141.491
724.138 413.333 191.205
724.138 426.667 793.499
724.138 440 912.046
724.138 453.333 749.522
724.138 466.667 594.646
724.138 480 275.335
724.138 493.333 558.317
724.138 506.667 514.34
724.138 520 326.96
724.138 693.333 99.4264
724.138 706.667 273.423
724.138 720 422.562
724.138 733.333 707.457
724.138 746.667 661.568
724.138 760 745.698
729.064 120 772.467
729.064 133.333 311.663
729.064 146.667 479.924
729.064 160 435.946
729.064 173.333 290.631
729.064 186.667 347.992
729.064 200 269.598
729.064 213.333 151.052
729.064 373.333 72.6577
729.064 386.667 321.224
729.064 400 154.876
729.064 413.333 445.507
729.064 426.667 847.036
729.064 440 860.421
729.064 453.333 495.22
729.064 466.667 795.411
729.064 480 277.247
729.064 493.333 535.373
729.064 506.667 608.031
729.064 520 326.96
729.064 693.333 105.163
729.064 706.667 282.983
729.064 720 390.057
729.064 733.333 718.929
729.064 746.667 772.467
729.064 760 797.323
733.99 120 718.929
733.99 133.333 476.099
733.99 146.667 478.011
733.99 160 435.946
733.99 173.333 282.983
733.99 186.667 126.195
733.99 200 466.539
733.99 213.333 196.941
733.99 373.333 86.0421
733.99 386.667 355.641
733.99 400 212.237
733.99 413.333 724.665
733.99 426.667 934.99
733.99 440 801.147
733.99 466.667 793.499
733.99 480 275.335
733.99 493.333 543.021
733.99 506.667 682.6
733.99 520 328.872
733.99 680 9.56023
733.99 693.333 128.107
733.99 706.667 302.103
733.99 720 365.201
733.99 733.333 772.467
733.99 746.667 661.568
733.99 760 747.61
738.916 133.333 770.554
738.916 146.667 535.373
738.916 160 443.595
738.916 173.333 256.214
738.916 186.667 137.667
738.916 200 500.956
738.916 213.333 281.071
738.916 373.333 78.3939
738.916 386.667 382.409
738.916 400 240.918
738.916 413.333 785.851
738.916 426.667 917.782
738.916 440 495.22
738.916 466.667 738.05
738.916 480 418.738
738.916 493.333 497.132
738.916 506.667 709.369
738.916 520 369.025
738.916 680 11.4723
738.916 693.333 107.075
738.916 706.667 279.159
738.916 720 397.706
738.916 733.333 772.467
738.916 746.667 661.568
738.916 760 747.61
743.842 133.333 718.929
743.842 146.667 546.845
743.842 160 518.164
743.842 173.333 315.488
743.842 186.667 137.667
743.842 200 443.595
743.842 213.333 304.015
743.842 226.667 70.7457
743.842 373.333 133.843
743.842 386.667 382.409
743.842 400 307.839
743.842 413.333 822.18
743.842 426.667 873.805
743.842 466.667 646.272
743.842 480 560.229
743.842 493.333 650.096
743.842 506.667 715.105
743.842 520 361.377
743.842 680 38.2409
743.842 693.333 87.9541
743.842 706.667 269.598
743.842 720 414.914
743.842 733.333 732.314
743.842 746.667 661.568
743.842 760 747.61
748.768 133.333 717.017
748.768 146.667 476.099
748.768 160 550.669
748.768 173.333 338.432
748.768 186.667 250.478
748.768 200 445.507
748.768 213.333 367.113
748.768 226.667 91.7782
748.768 373.333 126.195
748.768 386.667 390.057
748.768 400 520.076
748.768 413.333 814.532
748.768 426.667 854.685
748.768 480 780.115
748.768 493.333 724.665
748.768 506.667 632.887
748.768 520 198.853
748.768 680 65.0096
748.768 693.333 99.4264
748.768 706.667 300.191
748.768 720 336.52
748.768 733.333 774.379
748.768 746.667 661.568
748.768 760 747.61
753.695 120 468.451
753.695 133.333 715.105
753.695 146.667 478.011
753.695 160 665.392
753.695 173.333 340.344
753.695 186.667 372.849
753.695 200 445.507
753.695 213.333 414.914
753.695 226.667 45.8891
753.695 373.333 124.283
753.695 386.667 390.057
753.695 400 697.897
753.695 413.333 768.642
753.695 426.667 795.411
753.695 480 644.359
753.695 493.333 852.772
753.695 506.667 539.197
753.695 520 40.153
753.695 680 91.7782
753.695 693.333 103.25
753.695 706.667 311.663
753.695 720 391.969
753.695 733.333 709.369
753.695 746.667 491.396
753.695 760 747.61
758.621 120 468.451
758.621 133.333 715.105
758.621 146.667 613.767
758.621 160 579.35
758.621 173.333 183.556
758.621 186.667 317.4
758.621 200 275.335
758.621 213.333 367.113
758.621 373.333 179.732
758.621 386.667 464.627
758.621 400 753.346
758.621 413.333 929.254
758.621 426.667 795.411
758.621 480 476.099
758.621 493.333 892.925
758.621 506.667 590.822
758.621 520 15.2964
758.621 680 103.25
758.621 693.333 135.755
758.621 706.667 275.335
758.621 720 491.396
758.621 733.333 745.698
758.621 746.667 564.054
758.621 760 747.61
763.547 120 634.799
763.547 133.333 768.642
763.547 146.667 669.216
763.547 160 411.09
763.547 173.333 172.084
763.547 186.667 256.214
763.547 200 317.4
763.547 213.333 332.696
763.547 360 84.13
763.547 373.333 200.765
763.547 386.667 476.099
763.547 400 797.323
763.547 413.333 891.013
763.547 426.667 487.572
763.547 493.333 940.727
763.547 506.667 573.614
763.547 520 43.9771
763.547 666.667 36.3289
763.547 680 181.644
763.547 693.333 263.862
763.547 706.667 286.807
763.547 720 548.757
763.547 733.333 734.226
763.547 746.667 827.916
763.547 760 659.656
768.473 120 636.711
768.473 133.333 575.526
768.473 146.667 648.184
768.473 160 269.598
768.473 173.333 183.556
768.473 186.667 233.27
768.473 200 357.553
768.473 213.333 286.807
768.473 226.667 26.7686
768.473 360 78.3939
768.473 373.333 323.136
768.473 386.667 676.864
768.473 400 873.805
768.473 413.333 829.828
768.473 493.333 875.717
768.473 506.667 780.115
768.473 520 130.019
768.473 666.667 99.4264
768.473 680 158.7
768.473 693.333 208.413
768.473 706.667 196.941
768.473 720 609.943
768.473 733.333 707.457
768.473 746.667 791.587
773.399 120 768.642
773.399 133.333 548.757
773.399 146.667 581.262
773.399 160 183.556
773.399 173.333 172.084
773.399 186.667 269.598
773.399 200 315.488
773.399 213.333 233.27
773.399 226.667 22.9446
773.399 360 133.843
773.399 373.333 478.011
773.399 386.667 837.476
773.399 400 934.99
773.399 413.333 791.587
773.399 493.333 785.851
773.399 506.667 873.805
773.399 520 294.455
773.399 666.667 170.172
773.399 680 198.853
773.399 693.333 179.732
773.399 706.667 269.598
773.399 720 695.985
773.399 733.333 720.841
773.399 746.667 789.675
778.325 120 770.554
778.325 133.333 411.09
778.325 146.667 552.581
778.325 160 196.941
778.325 173.333 55.4493
778.325 186.667 374.761
778.325 200 290.631
778.325 213.333 216.061
778.325 226.667 19.1205
778.325 360 265.774
778.325 373.333 617.591
778.325 386.667 917.782
778.325 400 850.86
778.325 493.333 818.356
778.325 506.667 837.476
778.325 520 455.067
778.325 533.333 22.9446
778.325 653.333 19.1205
778.325 666.667 240.918
778.325 680 191.205
778.325 693.333 202.677
778.325 706.667 334.608
778.325 720 791.587
778.325 733.333 770.554
778.325 746.667 739.962
783.251 120 804.971
783.251 133.333 479.924
783.251 146.667 399.618
783.251 160 338.432
783.251 173.333 61.1855
783.251 186.667 462.715
783.251 200 223.709
783.251 213.333 202.677
783.251 226.667 15.2964
783.251 360 286.807
783.251 373.333 741.874
783.251 386.667 896.75
783.251 400 741.874
783.251 493.333 841.3
783.251 506.667 774.379
783.251 520 546.845
783.251 533.333 26.7686
783.251 653.333 17.2084
783.251 666.667 284.895
783.251 680 145.315
783.251 693.333 195.029
783.251 706.667 441.683
783.251 720 808.795
783.251 733.333 703.633
783.251 746.667 487.572
788.177 106.667 468.451
788.177 120 829.828
788.177 133.333 479.924
788.177 146.667 317.4
788.177 160 338.432
788.177 173.333 128.107
788.177 186.667 428.298
788.177 200 170.172
788.177 213.333 227.533
788.177 226.667 17.2084
788.177 360 248.566
788.177 373.333 772.467
788.177 386.667 952.199
788.177 400 491.396
788.177 493.333 877.629
788.177 506.667 782.027
788.177 520 516.252
788.177 533.333 22.9446
788.177 666.667 296.367
788.177 680 198.853
788.177 693.333 177.82
788.177 706.667 510.516
788.177 720 755.258
788.177 733.333 655.832
788.177 746.667 657.744
793.103 106.667 636.711
