439.024 617.021 961.538
439.024 638.298 974.359
439.024 648.936 403.846
439.024 659.574 961.538
439.024 680.851 916.667
439.024 691.489 500
439.024 702.128 929.487
439.024 723.404 801.282
439.024 734.043 461.538
439.024 744.681 801.282
439.024 765.957 743.59
439.024 776.596 615.385
439.024 787.234 743.59
439.024 808.511 756.41
439.024 819.149 442.308
439.024 829.787 756.41
439.024 851.064 711.538
439.024 861.702 333.333
439.024 872.34 711.538
443.902 63.8298 564.103
443.902 74.4681 564.103
443.902 85.1064 564.103
443.902 95.7447 564.103
443.902 106.383 564.103
443.902 117.021 570.513
443.902 127.66 724.359
443.902 138.298 724.359
443.902 148.936 762.821
443.902 159.574 737.179
443.902 170.213 737.179
443.902 180.851 737.179
443.902 191.489 743.59
443.902 202.128 743.59
443.902 212.766 794.872
443.902 234.043 788.462
443.902 244.681 602.564
443.902 255.319 788.462
443.902 265.957 801.282
443.902 276.596 589.744
443.902 287.234 801.282
443.902 297.872 865.385
443.902 308.511 435.897
443.902 319.149 846.154
443.902 329.787 858.974
443.902 340.426 224.359
443.902 351.064 871.795
443.902 372.34 903.846
443.902 393.617 903.846
443.902 404.255 935.897
443.902 425.532 935.897
443.902 446.809 916.667
443.902 457.447 19.2308
443.902 468.085 923.077
443.902 478.723 935.897
443.902 500 935.897
443.902 521.277 948.718
443.902 531.915 19.2308
443.902 542.553 955.128
443.902 563.83 967.949
443.902 574.468 57.6923
443.902 585.106 967.949
443.902 595.745 961.538
443.902 606.383 179.487
443.902 617.021 961.538
443.902 638.298 974.359
443.902 648.936 230.769
443.902 659.574 974.359
443.902 680.851 942.308
443.902 691.489 679.487
443.902 702.128 942.308
443.902 723.404 788.462
443.902 734.043 493.59
443.902 744.681 794.872
443.902 765.957 692.308
443.902 776.596 320.513
443.902 787.234 743.59
443.902 808.511 608.974
443.902 819.149 416.667
443.902 829.787 756.41
443.902 851.064 705.128
443.902 861.702 429.487
443.902 872.34 711.538
448.78 63.8298 564.103
448.78 74.4681 564.103
448.78 85.1064 564.103
448.78 95.7447 557.692
448.78 106.383 557.692
448.78 117.021 564.103
448.78 127.66 679.487
448.78 138.298 679.487
448.78 148.936 724.359
448.78 159.574 794.872
448.78 170.213 794.872
448.78 180.851 794.872
448.78 191.489 788.462
448.78 202.128 615.385
448.78 212.766 788.462
448.78 234.043 820.513
448.78 244.681 519.231
448.78 255.319 820.513
448.78 265.957 769.231
448.78 276.596 608.974
448.78 287.234 801.282
448.78 297.872 833.333
448.78 308.511 653.846
448.78 319.149 865.385
448.78 329.787 852.564
448.78 340.426 205.128
448.78 351.064 858.974
448.78 372.34 903.846
448.78 382.979 0
448.78 393.617 903.846
448.78 404.255 935.897
448.78 425.532 935.897
448.78 446.809 916.667
448.78 457.447 38.4615
448.78 468.085 923.077
448.78 478.723 923.077
448.78 489.362 76.9231
448.78 500 929.487
448.78 521.277 948.718
448.78 531.915 19.2308
448.78 542.553 948.718
448.78 563.83 967.949
448.78 574.468 64.1026
448.78 585.106 967.949
448.78 595.745 961.538
448.78 606.383 134.615
448.78 617.021 961.538
448.78 638.298 974.359
448.78 648.936 211.538
448.78 659.574 967.949
448.78 680.851 955.128
448.78 691.489 512.821
448.78 702.128 955.128
448.78 723.404 750
448.78 734.043 750
448.78 744.681 794.872
448.78 765.957 692.308
448.78 776.596 320.513
448.78 787.234 692.308
448.78 808.511 615.385
448.78 819.149 416.667
448.78 829.787 608.974
448.78 851.064 512.821
448.78 861.702 512.821
448.78 872.34 705.128
453.659 63.8298 564.103
453.659 74.4681 564.103
453.659 85.1064 564.103
453.659 95.7447 564.103
453.659 106.383 564.103
453.659 117.021 564.103
453.659 127.66 673.077
453.659 138.298 673.077
453.659 148.936 737.179
453.659 159.574 801.282
453.659 170.213 589.744
453.659 180.851 833.333
453.659 191.489 737.179
453.659 202.128 737.179
453.659 212.766 788.462
453.659 234.043 743.59
453.659 244.681 743.59
453.659 255.319 820.513
453.659 265.957 775.641
453.659 276.596 705.128
453.659 287.234 769.231
453.659 297.872 794.872
453.659 308.511 724.359
453.659 319.149 833.333
453.659 329.787 858.974
453.659 340.426 230.769
453.659 351.064 858.974
453.659 372.34 903.846
453.659 382.979 0
453.659 393.617 903.846
453.659 404.255 929.487
453.659 425.532 935.897
453.659 446.809 923.077
453.659 457.447 0
453.659 468.085 916.667
453.659 478.723 916.667
453.659 489.362 89.7436
453.659 500 923.077
453.659 521.277 948.718
453.659 531.915 32.0513
453.659 542.553 948.718
453.659 563.83 967.949
453.659 574.468 121.795
453.659 585.106 967.949
453.659 595.745 974.359
453.659 606.383 179.487
453.659 617.021 967.949
453.659 638.298 967.949
453.659 648.936 224.359
453.659 659.574 974.359
453.659 680.851 942.308
453.659 691.489 467.949
453.659 702.128 961.538
453.659 723.404 698.718
453.659 734.043 692.308
453.659 744.681 750
453.659 765.957 602.564
453.659 776.596 423.077
453.659 787.234 692.308
453.659 808.511 615.385
453.659 819.149 570.513
453.659 829.787 615.385
453.659 851.064 506.41
453.659 861.702 506.41
453.659 872.34 506.41
458.537 0 314.103
458.537 10.6383 314.103
458.537 21.2766 314.103
458.537 63.8298 333.333
458.537 74.4681 333.333
458.537 85.1064 564.103
458.537 95.7447 570.513
458.537 106.383 570.513
458.537 117.021 557.692
458.537 127.66 673.077
458.537 138.298 307.692
458.537 148.936 673.077
458.537 159.574 564.103
458.537 170.213 564.103
458.537 180.851 794.872
458.537 191.489 737.179
458.537 202.128 737.179
458.537 212.766 737.179
458.537 234.043 576.923
458.537 244.681 576.923
458.537 255.319 743.59
458.537 265.957 730.769
458.537 276.596 653.846
458.537 287.234 775.641
458.537 297.872 788.462
458.537 308.511 711.538
458.537 319.149 801.282
458.537 329.787 826.923
458.537 340.426 282.051
458.537 351.064 846.154
458.537 372.34 903.846
458.537 382.979 6.41026
458.537 393.617 903.846
458.537 404.255 929.487
458.537 425.532 929.487
458.537 446.809 923.077
458.537 468.085 923.077
458.537 478.723 910.256
458.537 489.362 96.1538
458.537 500 916.667
458.537 521.277 948.718
458.537 531.915 57.6923
458.537 542.553 948.718
458.537 563.83 967.949
458.537 574.468 128.205
458.537 585.106 967.949
458.537 595.745 980.769
458.537 606.383 205.128
458.537 617.021 967.949
458.537 638.298 942.308
458.537 648.936 237.179
458.537 659.574 967.949
458.537 680.851 929.487
458.537 691.489 423.077
458.537 702.128 955.128
458.537 723.404 743.59
458.537 734.043 532.051
458.537 744.681 743.59
458.537 765.957 557.692
458.537 776.596 557.692
458.537 787.234 602.564
458.537 808.511 615.385
458.537 819.149 570.513
458.537 829.787 615.385
458.537 851.064 506.41
458.537 861.702 506.41
458.537 872.34 506.41
463.415 0 314.103
463.415 10.6383 314.103
463.415 21.2766 314.103
463.415 31.9149 320.513
463.415 42.5532 320.513
463.415 53.1915 320.513
463.415 63.8298 333.333
463.415 74.4681 333.333
463.415 85.1064 333.333
463.415 95.7447 660.256
463.415 106.383 660.256
463.415 117.021 679.487
463.415 127.66 564.103
463.415 138.298 564.103
463.415 148.936 685.897
463.415 159.574 333.333
463.415 170.213 333.333
463.415 180.851 564.103
463.415 191.489 564.103
463.415 202.128 564.103
463.415 212.766 737.179
463.415 234.043 570.513
463.415 244.681 570.513
463.415 255.319 570.513
463.415 265.957 737.179
463.415 276.596 647.436
463.415 287.234 762.821
463.415 297.872 788.462
463.415 308.511 711.538
463.415 319.149 788.462
463.415 329.787 794.872
463.415 340.426 256.41
463.415 351.064 826.923
463.415 372.34 903.846
463.415 382.979 76.9231
463.415 393.617 903.846
463.415 404.255 923.077
463.415 425.532 929.487
463.415 446.809 923.077
463.415 468.085 929.487
463.415 478.723 923.077
463.415 489.362 12.8205
463.415 500 916.667
463.415 521.277 948.718
463.415 542.553 948.718
463.415 563.83 974.359
463.415 574.468 83.3333
463.415 585.106 967.949
463.415 595.745 974.359
463.415 606.383 211.538
463.415 617.021 980.769
463.415 638.298 935.897
463.415 648.936 294.872
463.415 659.574 942.308
463.415 680.851 897.436
463.415 691.489 378.205
463.415 702.128 929.487
463.415 723.404 692.308
463.415 734.043 320.513
463.415 744.681 743.59
463.415 765.957 564.103
463.415 776.596 564.103
463.415 787.234 557.692
463.415 808.511 615.385
463.415 819.149 570.513
463.415 829.787 615.385
463.415 851.064 506.41
463.415 861.702 506.41
463.415 872.34 506.41
468.293 21.2766 314.103
468.293 31.9149 320.513
468.293 42.5532 320.513
468.293 53.1915 320.513
468.293 63.8298 326.923
468.293 74.4681 326.923
468.293 85.1064 333.333
468.293 95.7447 660.256
468.293 106.383 294.872
468.293 117.021 660.256
468.293 127.66 570.513
468.293 138.298 570.513
468.293 148.936 564.103
468.293 159.574 576.923
468.293 170.213 576.923
468.293 180.851 570.513
468.293 191.489 557.692
468.293 202.128 557.692
468.293 212.766 564.103
468.293 234.043 570.513
468.293 244.681 570.513
468.293 255.319 570.513
468.293 265.957 737.179
468.293 276.596 653.846
468.293 287.234 737.179
468.293 297.872 737.179
468.293 308.511 737.179
468.293 319.149 788.462
468.293 329.787 775.641
468.293 340.426 429.487
468.293 351.064 788.462
468.293 372.34 891.026
468.293 382.979 70.5128
468.293 393.617 903.846
468.293 404.255 923.077
468.293 425.532 923.077
468.293 446.809 923.077
468.293 468.085 923.077
468.293 478.723 929.487
468.293 500 916.667
468.293 521.277 948.718
468.293 542.553 948.718
468.293 563.83 974.359
468.293 574.468 89.7436
468.293 585.106 974.359
468.293 595.745 980.769
468.293 606.383 288.462
468.293 617.021 980.769
468.293 638.298 929.487
468.293 648.936 301.282
468.293 659.574 923.077
468.293 680.851 897.436
468.293 691.489 358.974
468.293 702.128 884.615
468.293 723.404 621.795
468.293 734.043 423.077
468.293 744.681 692.308
468.293 765.957 615.385
468.293 776.596 615.385
468.293 787.234 608.974
468.293 808.511 615.385
468.293 819.149 570.513
468.293 829.787 615.385
468.293 851.064 500
468.293 861.702 500
468.293 872.34 506.41
473.171 0 326.923
473.171 10.6383 326.923
473.171 21.2766 326.923
473.171 31.9149 326.923
473.171 42.5532 326.923
473.171 53.1915 320.513
473.171 63.8298 326.923
473.171 74.4681 326.923
473.171 85.1064 326.923
473.171 95.7447 660.256
473.171 106.383 301.282
473.171 117.021 660.256
473.171 127.66 570.513
473.171 138.298 570.513
473.171 148.936 570.513
473.171 159.574 576.923
473.171 170.213 576.923
473.171 180.851 576.923
473.171 191.489 564.103
473.171 202.128 564.103
473.171 212.766 557.692
473.171 234.043 576.923
473.171 244.681 576.923
473.171 255.319 564.103
473.171 265.957 679.487
473.171 276.596 576.923
473.171 287.234 737.179
473.171 297.872 666.667
473.171 308.511 666.667
473.171 319.149 737.179
473.171 329.787 775.641
473.171 340.426 576.923
473.171 351.064 801.282
473.171 372.34 884.615
473.171 382.979 102.564
473.171 393.617 897.436
473.171 404.255 916.667
473.171 425.532 923.077
473.171 446.809 923.077
473.171 468.085 923.077
473.171 478.723 923.077
473.171 500 929.487
473.171 521.277 948.718
473.171 542.553 948.718
473.171 563.83 967.949
473.171 574.468 89.7436
473.171 585.106 967.949
473.171 595.745 987.179
473.171 606.383 275.641
473.171 617.021 980.769
473.171 638.298 916.667
473.171 648.936 294.872
473.171 659.574 929.487
473.171 680.851 858.974
473.171 691.489 358.974
473.171 702.128 897.436
473.171 723.404 602.564
473.171 734.043 602.564
473.171 744.681 634.615
473.171 765.957 621.795
473.171 776.596 576.923
473.171 787.234 615.385
473.171 808.511 615.385
473.171 819.149 576.923
473.171 829.787 615.385
473.171 851.064 500
473.171 861.702 500
473.171 872.34 500
478.049 0 326.923
478.049 10.6383 326.923
478.049 21.2766 326.923
478.049 53.1915 326.923
478.049 63.8298 557.692
478.049 74.4681 557.692
478.049 85.1064 557.692
478.049 95.7447 660.256
478.049 106.383 307.692
478.049 117.021 660.256
478.049 127.66 570.513
478.049 138.298 570.513
478.049 148.936 570.513
478.049 159.574 576.923
478.049 170.213 576.923
478.049 180.851 576.923
478.049 191.489 564.103
478.049 202.128 564.103
478.049 212.766 564.103
478.049 255.319 576.923
478.049 265.957 679.487
478.049 276.596 576.923
478.049 287.234 679.487
478.049 297.872 743.59
478.049 308.511 743.59
478.049 319.149 743.59
478.049 329.787 737.179
478.049 340.426 538.462
478.049 351.064 769.231
478.049 372.34 878.205
478.049 382.979 141.026
478.049 393.617 884.615
478.049 404.255 910.256
478.049 425.532 916.667
478.049 446.809 916.667
478.049 468.085 916.667
478.049 478.723 923.077
478.049 500 923.077
478.049 521.277 948.718
478.049 542.553 948.718
478.049 563.83 980.769
478.049 574.468 38.4615
478.049 585.106 974.359
478.049 595.745 987.179
478.049 606.383 256.41
478.049 617.021 987.179
478.049 638.298 910.256
478.049 648.936 346.154
478.049 659.574 923.077
478.049 680.851 852.564
478.049 691.489 429.487
478.049 702.128 865.385
478.049 723.404 653.846
478.049 734.043 519.231
478.049 744.681 647.436
478.049 765.957 570.513
478.049 776.596 570.513
478.049 787.234 621.795
478.049 808.511 615.385
478.049 819.149 416.667
478.049 829.787 615.385
478.049 872.34 500
482.927 21.2766 326.923
482.927 63.8298 480.769
482.927 74.4681 480.769
482.927 85.1064 557.692
482.927 95.7447 487.179
482.927 106.383 487.179
482.927 117.021 660.256
482.927 127.66 576.923
482.927 138.298 576.923
482.927 148.936 570.513
482.927 159.574 570.513
482.927 170.213 570.513
482.927 180.851 570.513
482.927 191.489 570.513
482.927 202.128 570.513
482.927 212.766 564.103
482.927 265.957 660.256
482.927 276.596 660.256
482.927 287.234 750
482.927 297.872 666.667
482.927 308.511 666.667
482.927 319.149 737.179
482.927 329.787 750
482.927 340.426 570.513
482.927 351.064 743.59
482.927 372.34 858.974
482.927 382.979 147.436
482.927 393.617 871.795
482.927 404.255 910.256
482.927 425.532 910.256
482.927 446.809 910.256
482.927 468.085 916.667
482.927 478.723 923.077
482.927 500 923.077
482.927 521.277 948.718
482.927 542.553 948.718
482.927 563.83 974.359
482.927 574.468 25.641
482.927 585.106 974.359
482.927 595.745 980.769
482.927 606.383 192.308
482.927 617.021 987.179
482.927 638.298 910.256
482.927 648.936 301.282
482.927 659.574 910.256
482.927 680.851 839.744
482.927 691.489 384.615
482.927 702.128 846.154
482.927 723.404 653.846
482.927 734.043 384.615
482.927 744.681 653.846
482.927 765.957 467.949
482.927 776.596 467.949
482.927 787.234 615.385
482.927 808.511 467.949
482.927 819.149 205.128
482.927 829.787 615.385
487.805 63.8298 480.769
487.805 74.4681 480.769
487.805 85.1064 480.769
487.805 95.7447 493.59
487.805 106.383 493.59
487.805 117.021 487.179
487.805 127.66 576.923
487.805 138.298 576.923
487.805 148.936 576.923
487.805 159.574 551.282
487.805 170.213 551.282
487.805 180.851 570.513
487.805 191.489 339.744
487.805 202.128 339.744
487.805 212.766 570.513
487.805 234.043 339.744
487.805 244.681 339.744
487.805 255.319 339.744
487.805 265.957 660.256
487.805 276.596 660.256
487.805 287.234 660.256
487.805 297.872 564.103
487.805 308.511 564.103
487.805 319.149 666.667
487.805 329.787 743.59
487.805 340.426 641.026
487.805 351.064 750
487.805 372.34 852.564
487.805 382.979 76.9231
487.805 393.617 858.974
487.805 404.255 903.846
487.805 425.532 910.256
487.805 446.809 916.667
487.805 468.085 916.667
487.805 478.723 916.667
487.805 500 923.077
487.805 521.277 942.308
487.805 542.553 942.308
487.805 563.83 974.359
487.805 574.468 32.0513
487.805 585.106 980.769
487.805 595.745 980.769
487.805 606.383 83.3333
487.805 617.021 987.179
487.805 638.298 916.667
487.805 648.936 275.641
487.805 659.574 923.077
487.805 680.851 826.923
487.805 691.489 326.923
487.805 702.128 839.744
487.805 723.404 634.615
487.805 734.043 634.615
487.805 744.681 653.846
487.805 765.957 525.641
487.805 776.596 333.333
487.805 787.234 525.641
487.805 808.511 467.949
487.805 819.149 205.128
487.805 829.787 467.949
492.683 63.8298 480.769
492.683 74.4681 480.769
492.683 85.1064 480.769
492.683 95.7447 493.59
492.683 106.383 493.59
492.683 117.021 493.59
492.683 127.66 333.333
492.683 138.298 333.333
492.683 148.936 576.923
492.683 159.574 551.282
492.683 170.213 551.282
492.683 180.851 544.872
492.683 191.489 339.744
492.683 202.128 339.744
492.683 212.766 339.744
492.683 234.043 339.744
492.683 244.681 339.744
492.683 255.319 339.744
492.683 265.957 660.256
492.683 276.596 660.256
492.683 287.234 660.256
492.683 297.872 570.513
492.683 308.511 570.513
492.683 319.149 564.103
492.683 329.787 743.59
492.683 340.426 628.205
492.683 351.064 743.59
492.683 372.34 839.744
492.683 382.979 121.795
492.683 393.617 846.154
492.683 404.255 897.436
492.683 425.532 903.846
492.683 446.809 916.667
492.683 468.085 916.667
492.683 478.723 916.667
492.683 500 916.667
492.683 521.277 948.718
492.683 542.553 942.308
492.683 563.83 974.359
492.683 574.468 44.8718
492.683 585.106 967.949
492.683 595.745 967.949
492.683 606.383 108.974
492.683 617.021 980.769
492.683 638.298 903.846
492.683 648.936 307.692
492.683 659.574 910.256
492.683 680.851 826.923
492.683 691.489 320.513
492.683 702.128 820.513
492.683 723.404 570.513
492.683 734.043 410.256
492.683 744.681 653.846
492.683 765.957 519.231
492.683 776.596 134.615
492.683 787.234 525.641
492.683 808.511 339.744
492.683 819.149 339.744
492.683 829.787 467.949
497.561 63.8298 487.179
497.561 74.4681 487.179
497.561 85.1064 480.769
497.561 95.7447 487.179
497.561 106.383 487.179
497.561 117.021 487.179
497.561 127.66 333.333
497.561 138.298 333.333
497.561 148.936 333.333
497.561 159.574 326.923
497.561 170.213 326.923
497.561 180.851 551.282
497.561 191.489 339.744
497.561 202.128 339.744
497.561 212.766 339.744
497.561 234.043 487.179
497.561 244.681 487.179
497.561 255.319 570.513
497.561 265.957 564.103
497.561 276.596 564.103
497.561 287.234 673.077
497.561 297.872 615.385
497.561 308.511 615.385
497.561 319.149 615.385
497.561 329.787 737.179
497.561 340.426 602.564
497.561 351.064 743.59
497.561 372.34 833.333
497.561 382.979 179.487
497.561 393.617 839.744
497.561 404.255 897.436
497.561 425.532 903.846
497.561 446.809 916.667
497.561 468.085 916.667
497.561 478.723 923.077
497.561 500 916.667
497.561 521.277 948.718
497.561 542.553 948.718
497.561 563.83 967.949
497.561 574.468 19.2308
497.561 585.106 967.949
497.561 595.745 942.308
497.561 606.383 89.7436
497.561 617.021 961.538
497.561 638.298 903.846
497.561 648.936 339.744
497.561 659.574 903.846
497.561 680.851 750
497.561 691.489 435.897
497.561 702.128 826.923
497.561 723.404 576.923
497.561 734.043 333.333
497.561 744.681 570.513
497.561 765.957 512.821
497.561 776.596 134.615
497.561 787.234 525.641
497.561 808.511 339.744
497.561 819.149 339.744
497.561 829.787 339.744
497.561 851.064 333.333
497.561 861.702 333.333
497.561 872.34 333.333
502.439 63.8298 480.769
502.439 74.4681 480.769
502.439 85.1064 480.769
502.439 95.7447 480.769
502.439 106.383 480.769
502.439 117.021 487.179
502.439 127.66 326.923
502.439 138.298 326.923
502.439 148.936 333.333
502.439 159.574 333.333
502.439 170.213 333.333
502.439 180.851 320.513
502.439 212.766 339.744
502.439 234.043 570.513
502.439 244.681 570.513
502.439 255.319 570.513
502.439 265.957 570.513
502.439 276.596 570.513
502.439 287.234 564.103
502.439 297.872 621.795
502.439 308.511 429.487
502.439 319.149 615.385
502.439 329.787 737.179
502.439 340.426 602.564
502.439 351.064 737.179
502.439 372.34 820.513
502.439 382.979 102.564
502.439 393.617 833.333
502.439 404.255 897.436
502.439 414.894 0
502.439 425.532 897.436
502.439 446.809 910.256
502.439 468.085 916.667
502.439 478.723 923.077
502.439 500 923.077
502.439 521.277 948.718
502.439 542.553 948.718
502.439 563.83 967.949
502.439 585.106 967.949
502.439 595.745 929.487
502.439 606.383 96.1538
502.439 617.021 942.308
502.439 638.298 897.436
502.439 648.936 250
502.439 659.574 897.436
502.439 680.851 717.949
502.439 691.489 365.385
502.439 702.128 750
502.439 723.404 538.462
502.439 734.043 467.949
502.439 744.681 576.923
502.439 765.957 448.718
502.439 776.596 326.923
502.439 787.234 519.231
502.439 808.511 339.744
502.439 819.149 339.744
502.439 829.787 339.744
502.439 851.064 333.333
502.439 861.702 333.333
502.439 872.34 333.333
507.317 63.8298 480.769
507.317 74.4681 480.769
507.317 85.1064 480.769
507.317 95.7447 480.769
507.317 106.383 480.769
507.317 117.021 480.769
507.317 127.66 326.923
507.317 138.298 326.923
507.317 148.936 326.923
507.317 159.574 326.923
507.317 170.213 326.923
507.317 180.851 333.333
507.317 191.489 480.769
507.317 202.128 480.769
507.317 212.766 480.769
507.317 234.043 576.923
507.317 244.681 576.923
507.317 255.319 570.513
507.317 265.957 570.513
507.317 276.596 570.513
507.317 287.234 564.103
507.317 297.872 326.923
507.317 308.511 326.923
507.317 319.149 621.795
507.317 329.787 621.795
507.317 340.426 564.103
507.317 351.064 737.179
507.317 372.34 814.103
507.317 382.979 89.7436
507.317 393.617 820.513
507.317 404.255 891.026
507.317 414.894 6.41026
507.317 425.532 897.436
507.317 446.809 910.256
507.317 468.085 910.256
507.317 478.723 923.077
507.317 500 923.077
507.317 521.277 948.718
507.317 542.553 948.718
507.317 563.83 967.949
507.317 574.468 6.41026
507.317 585.106 967.949
507.317 595.745 916.667
507.317 606.383 185.897
507.317 617.021 929.487
507.317 638.298 833.333
507.317 648.936 403.846
507.317 659.574 884.615
507.317 680.851 673.077
507.317 691.489 275.641
507.317 702.128 717.949
507.317 723.404 467.949
507.317 734.043 467.949
507.317 744.681 538.462
507.317 765.957 461.538
507.317 776.596 205.128
507.317 787.234 455.128
507.317 808.511 333.333
507.317 819.149 333.333
507.317 829.787 333.333
507.317 851.064 333.333
507.317 861.702 333.333
507.317 872.34 333.333
512.195 63.8298 480.769
512.195 74.4681 480.769
512.195 85.1064 480.769
512.195 95.7447 480.769
512.195 106.383 480.769
512.195 117.021 480.769
512.195 127.66 326.923
512.195 138.298 326.923
512.195 148.936 326.923
512.195 159.574 326.923
512.195 170.213 326.923
512.195 180.851 326.923
512.195 191.489 564.103
512.195 202.128 564.103
512.195 212.766 564.103
512.195 234.043 576.923
512.195 244.681 576.923
512.195 255.319 570.513
512.195 287.234 570.513
512.195 297.872 326.923
512.195 308.511 326.923
512.195 319.149 326.923
512.195 329.787 564.103
512.195 340.426 564.103
512.195 351.064 621.795
512.195 372.34 807.692
512.195 382.979 128.205
512.195 393.617 814.103
512.195 404.255 891.026
512.195 414.894 0
512.195 425.532 891.026
512.195 446.809 903.846
512.195 468.085 910.256
512.195 478.723 923.077
512.195 500 923.077
512.195 521.277 948.718
512.195 542.553 948.718
512.195 563.83 955.128
512.195 574.468 44.8718
512.195 585.106 961.538
512.195 595.745 891.026
512.195 606.383 269.231
512.195 617.021 897.436
512.195 638.298 750
512.195 648.936 512.821
512.195 659.574 826.923
512.195 680.851 660.256
512.195 691.489 326.923
512.195 702.128 673.077
512.195 723.404 538.462
512.195 734.043 333.333
512.195 744.681 538.462
512.195 765.957 461.538
512.195 776.596 205.128
512.195 787.234 461.538
512.195 808.511 326.923
512.195 819.149 326.923
512.195 829.787 333.333
512.195 851.064 333.333
512.195 861.702 333.333
512.195 872.34 333.333
517.073 63.8298 480.769
517.073 74.4681 480.769
517.073 85.1064 480.769
517.073 95.7447 480.769
517.073 106.383 480.769
517.073 117.021 480.769
517.073 127.66 326.923
517.073 138.298 326.923
517.073 148.936 326.923
517.073 180.851 326.923
517.073 191.489 570.513
517.073 202.128 570.513
517.073 212.766 564.103
517.073 234.043 487.179
517.073 244.681 487.179
517.073 255.319 570.513
517.073 265.957 307.692
517.073 276.596 307.692
517.073 287.234 307.692
517.073 297.872 461.538
517.073 308.511 461.538
517.073 319.149 461.538
517.073 329.787 467.949
517.073 340.426 467.949
517.073 351.064 564.103
517.073 372.34 807.692
517.073 382.979 108.974
517.073 393.617 807.692
517.073 404.255 884.615
517.073 414.894 0
517.073 425.532 891.026
517.073 446.809 903.846
517.073 468.085 910.256
517.073 478.723 929.487
517.073 500 923.077
517.073 521.277 948.718
517.073 542.553 948.718
517.073 563.83 942.308
517.073 574.468 64.1026
517.073 585.106 948.718
517.073 595.745 878.205
517.073 606.383 314.103
517.073 617.021 891.026
517.073 638.298 679.487
517.073 648.936 442.308
517.073 659.574 750
517.073 680.851 666.667
517.073 691.489 384.615
517.073 702.128 660.256
517.073 723.404 532.051
517.073 734.043 333.333
517.073 744.681 532.051
517.073 765.957 320.513
517.073 776.596 320.513
517.073 787.234 467.949
517.073 808.511 333.333
517.073 819.149 333.333
517.073 829.787 326.923
517.073 872.34 333.333
521.951 85.1064 480.769
521.951 95.7447 480.769
521.951 106.383 480.769
521.951 117.021 480.769
521.951 127.66 326.923
521.951 138.298 326.923
521.951 148.936 326.923
521.951 191.489 500
521.951 202.128 500
521.951 212.766 570.513
521.951 234.043 467.949
521.951 244.681 467.949
521.951 255.319 493.59
521.951 265.957 307.692
521.951 276.596 307.692
521.951 287.234 307.692
521.951 297.872 455.128
521.951 308.511 198.718
521.951 319.149 455.128
521.951 329.787 333.333
521.951 340.426 333.333
521.951 351.064 467.949
521.951 372.34 801.282
521.951 382.979 19.2308
521.951 393.617 807.692
521.951 404.255 878.205
521.951 414.894 25.641
521.951 425.532 884.615
521.951 446.809 910.256
521.951 468.085 903.846
521.951 478.723 929.487
521.951 500 929.487
521.951 521.277 948.718
521.951 542.553 948.718
521.951 563.83 923.077
521.951 574.468 76.9231
521.951 585.106 942.308
521.951 595.745 826.923
521.951 606.383 480.769
521.951 617.021 871.795
521.951 638.298 679.487
521.951 648.936 480.769
521.951 659.574 685.897
521.951 680.851 660.256
521.951 691.489 384.615
521.951 702.128 666.667
521.951 723.404 570.513
521.951 734.043 410.256
521.951 744.681 570.513
521.951 765.957 326.923
521.951 776.596 326.923
521.951 787.234 320.513
521.951 808.511 333.333
521.951 819.149 333.333
521.951 829.787 333.333
526.829 117.021 480.769
526.829 127.66 326.923
526.829 138.298 326.923
526.829 148.936 326.923
526.829 191.489 493.59
526.829 202.128 493.59
526.829 212.766 493.59
526.829 234.043 467.949
526.829 244.681 467.949
526.829 255.319 467.949
526.829 265.957 307.692
526.829 276.596 307.692
526.829 287.234 307.692
526.829 297.872 320.513
526.829 308.511 320.513
526.829 319.149 455.128
526.829 329.787 326.923
526.829 340.426 326.923
526.829 351.064 326.923
526.829 372.34 794.872
526.829 382.979 38.4615
526.829 393.617 801.282
526.829 404.255 878.205
526.829 414.894 38.4615
526.829 425.532 878.205
526.829 446.809 910.256
526.829 468.085 910.256
526.829 478.723 935.897
526.829 500 929.487
526.829 521.277 948.718
526.829 542.553 948.718
526.829 563.83 916.667
526.829 574.468 70.5128
526.829 585.106 929.487
526.829 595.745 769.231
526.829 606.383 435.897
526.829 617.021 833.333
526.829 638.298 673.077
526.829 648.936 525.641
526.829 659.574 685.897
526.829 680.851 660.256
526.829 691.489 320.513
526.829 702.128 660.256
526.829 723.404 596.154
526.829 734.043 205.128
526.829 744.681 596.154
526.829 765.957 326.923
526.829 776.596 326.923
526.829 787.234 320.513
526.829 829.787 333.333
531.707 148.936 326.923
531.707 191.489 493.59
531.707 202.128 493.59
531.707 212.766 493.59
531.707 234.043 467.949
531.707 244.681 467.949
531.707 255.319 467.949
531.707 265.957 307.692
531.707 276.596 307.692
531.707 287.234 307.692
531.707 297.872 320.513
531.707 308.511 320.513
531.707 319.149 320.513
531.707 329.787 326.923
531.707 340.426 326.923
531.707 351.064 326.923
531.707 372.34 794.872
531.707 382.979 12.8205
531.707 393.617 794.872
531.707 404.255 871.795
531.707 414.894 32.0513
531.707 425.532 878.205
531.707 446.809 903.846
531.707 468.085 903.846
531.707 478.723 929.487
531.707 500 935.897
531.707 521.277 948.718
531.707 531.915 6.41026
531.707 542.553 948.718
531.707 563.83 910.256
531.707 574.468 76.9231
531.707 585.106 916.667
531.707 595.745 769.231
531.707 606.383 583.333
531.707 617.021 769.231
531.707 638.298 673.077
531.707 648.936 435.897
531.707 659.574 673.077
531.707 680.851 660.256
531.707 691.489 391.026
531.707 702.128 660.256
531.707 723.404 570.513
531.707 734.043 333.333
531.707 744.681 596.154
531.707 787.234 326.923
536.585 191.489 493.59
536.585 202.128 493.59
536.585 212.766 493.59
536.585 234.043 480.769
536.585 244.681 480.769
536.585 255.319 474.359
536.585 265.957 314.103
536.585 276.596 314.103
536.585 287.234 307.692
536.585 297.872 320.513
536.585 308.511 320.513
536.585 319.149 320.513
536.585 329.787 326.923
536.585 340.426 326.923
536.585 351.064 326.923
536.585 372.34 794.872
536.585 382.979 12.8205
536.585 393.617 794.872
536.585 404.255 871.795
536.585 414.894 128.205
536.585 425.532 878.205
536.585 446.809 897.436
536.585 468.085 903.846
536.585 478.723 929.487
536.585 500 929.487
536.585 521.277 948.718
536.585 542.553 948.718
536.585 563.83 910.256
536.585 574.468 102.564
536.585 585.106 910.256
536.585 595.745 769.231
536.585 606.383 564.103
536.585 617.021 782.051
536.585 638.298 602.564
536.585 648.936 467.949
536.585 659.574 679.487
536.585 680.851 615.385
536.585 691.489 256.41
536.585 702.128 666.667
536.585 723.404 570.513
536.585 734.043 333.333
536.585 744.681 570.513
541.463 191.489 487.179
541.463 202.128 487.179
541.463 212.766 487.179
541.463 234.043 487.179
541.463 244.681 487.179
541.463 255.319 474.359
541.463 287.234 314.103
541.463 297.872 320.513
541.463 308.511 320.513
541.463 319.149 320.513
541.463 329.787 326.923
541.463 340.426 326.923
541.463 351.064 326.923
541.463 372.34 794.872
541.463 382.979 32.0513
541.463 393.617 794.872
541.463 404.255 871.795
541.463 414.894 102.564
541.463 425.532 871.795
541.463 446.809 897.436
541.463 468.085 897.436
541.463 478.723 929.487
541.463 500 929.487
541.463 521.277 948.718
541.463 542.553 948.718
541.463 563.83 910.256
541.463 574.468 108.974
541.463 585.106 910.256
541.463 595.745 769.231
541.463 606.383 506.41
541.463 617.021 762.821
541.463 638.298 596.154
541.463 648.936 333.333
541.463 659.574 602.564
541.463 680.851 615.385
541.463 691.489 391.026
541.463 702.128 628.205
541.463 723.404 564.103
541.463 734.043 250
541.463 744.681 570.513
546.341 191.489 487.179
546.341 202.128 487.179
546.341 212.766 487.179
546.341 234.043 487.179
546.341 244.681 487.179
546.341 255.319 487.179
546.341 297.872 320.513
546.341 308.511 320.513
546.341 319.149 320.513
546.341 329.787 326.923
546.341 340.426 326.923
546.341 351.064 326.923
546.341 372.34 801.282
546.341 382.979 108.974
546.341 393.617 801.282
546.341 404.255 878.205
546.341 414.894 134.615
546.341 425.532 871.795
546.341 446.809 897.436
546.341 468.085 897.436
546.341 478.723 929.487
546.341 500 929.487
546.341 521.277 948.718
546.341 542.553 948.718
546.341 563.83 903.846
546.341 574.468 108.974
546.341 585.106 903.846
546.341 595.745 762.821
546.341 606.383 474.359
546.341 617.021 788.462
546.341 638.298 615.385
546.341 648.936 275.641
546.341 659.574 615.385
546.341 680.851 596.154
546.341 691.489 333.333
546.341 702.128 615.385
546.341 723.404 564.103
546.341 734.043 461.538
546.341 744.681 570.513
551.22 212.766 487.179
551.22 234.043 480.769
551.22 244.681 480.769
551.22 255.319 480.769
551.22 297.872 326.923
551.22 308.511 326.923
551.22 319.149 320.513
551.22 329.787 307.692
551.22 340.426 307.692
551.22 351.064 442.308
551.22 372.34 807.692
551.22 382.979 38.4615
551.22 393.617 807.692
551.22 404.255 878.205
551.22 414.894 108.974
551.22 425.532 878.205
551.22 446.809 897.436
551.22 457.447 12.8205
551.22 468.085 897.436
551.22 478.723 929.487
551.22 500 929.487
551.22 521.277 961.538
551.22 542.553 948.718
551.22 563.83 903.846
551.22 574.468 205.128
551.22 585.106 910.256
551.22 595.745 769.231
551.22 606.383 557.692
551.22 617.021 762.821
551.22 638.298 653.846
551.22 648.936 512.821
551.22 659.574 666.667
551.22 680.851 461.538
551.22 691.489 461.538
551.22 702.128 589.744
551.22 744.681 564.103
556.098 234.043 480.769
556.098 244.681 480.769
556.098 255.319 480.769
556.098 319.149 326.923
556.098 329.787 307.692
556.098 340.426 307.692
556.098 351.064 307.692
556.098 372.34 833.333
556.098 382.979 211.538
556.098 393.617 833.333
556.098 404.255 878.205
556.098 414.894 89.7436
556.098 425.532 871.795
556.098 446.809 897.436
556.098 457.447 51.2821
556.098 468.085 897.436
556.098 478.723 923.077
556.098 500 923.077
556.098 521.277 961.538
556.098 542.553 955.128
556.098 563.83 916.667
556.098 574.468 217.949
556.098 585.106 903.846
556.098 595.745 788.462
556.098 606.383 608.974
556.098 617.021 769.231
556.098 638.298 557.692
556.098 648.936 557.692
556.098 659.574 653.846
556.098 680.851 326.923
556.098 691.489 326.923
556.098 702.128 461.538
560.976 234.043 480.769
560.976 244.681 480.769
560.976 255.319 480.769
560.976 329.787 307.692
560.976 340.426 307.692
560.976 351.064 307.692
560.976 372.34 839.744
560.976 382.979 179.487
560.976 393.617 839.744
560.976 404.255 878.205
560.976 414.894 83.3333
560.976 425.532 878.205
560.976 446.809 903.846
560.976 457.447 44.8718
560.976 468.085 897.436
560.976 478.723 923.077
560.976 500 923.077
560.976 521.277 967.949
560.976 542.553 961.538
560.976 563.83 923.077
560.976 574.468 173.077
560.976 585.106 923.077
560.976 595.745 788.462
560.976 606.383 608.974
560.976 617.021 788.462
560.976 638.298 333.333
560.976 648.936 333.333
560.976 659.574 557.692
560.976 702.128 326.923
565.854 234.043 480.769
565.854 244.681 480.769
565.854 255.319 480.769
565.854 351.064 307.692
565.854 372.34 826.923
565.854 382.979 243.59
565.854 393.617 839.744
565.854 404.255 884.615
565.854 414.894 128.205
565.854 425.532 878.205
565.854 446.809 910.256
565.854 468.085 903.846
565.854 478.723 935.897
565.854 500 929.487
565.854 521.277 955.128
565.854 542.553 961.538
565.854 563.83 916.667
565.854 574.468 108.974
565.854 585.106 923.077
565.854 595.745 474.359
565.854 606.383 474.359
565.854 617.021 788.462
565.854 659.574 333.333
570.732 255.319 480.769
570.732 372.34 826.923
570.732 382.979 230.769
570.732 393.617 820.513
570.732 404.255 891.026
570.732 414.894 70.5128
570.732 425.532 884.615
570.732 446.809 916.667
570.732 468.085 910.256
570.732 478.723 942.308
570.732 500 935.897
570.732 521.277 942.308
570.732 542.553 955.128
570.732 563.83 916.667
570.732 574.468 192.308
570.732 585.106 923.077
570.732 617.021 474.359
575.61 372.34 820.513
575.61 382.979 128.205
575.61 393.617 814.103
575.61 404.255 891.026
575.61 414.894 96.1538
575.61 425.532 891.026
575.61 446.809 923.077
575.61 468.085 916.667
575.61 478.723 935.897
575.61 500 942.308
575.61 521.277 948.718
575.61 531.915 6.41026
575.61 542.553 942.308
575.61 563.83 910.256
575.61 574.468 96.1538
575.61 585.106 916.667
575.61 595.745 339.744
575.61 606.383 339.744
575.61 617.021 339.744
580.488 372.34 820.513
580.488 382.979 121.795
580.488 393.617 820.513
580.488 404.255 897.436
580.488 414.894 134.615
580.488 425.532 897.436
580.488 446.809 923.077
580.488 468.085 923.077
580.488 478.723 923.077
580.488 500 929.487
580.488 521.277 942.308
580.488 531.915 0
580.488 542.553 942.308
580.488 563.83 903.846
580.488 574.468 76.9231
580.488 585.106 910.256
580.488 595.745 339.744
580.488 606.383 339.744
580.488 617.021 339.744
585.366 372.34 826.923
585.366 382.979 153.846
585.366 393.617 820.513
585.366 404.255 903.846
585.366 414.894 108.974
585.366 425.532 897.436
585.366 446.809 923.077
585.366 468.085 923.077
585.366 478.723 923.077
585.366 500 923.077
585.366 521.277 942.308
585.366 531.915 6.41026
585.366 542.553 942.308
585.366 563.83 897.436
585.366 574.468 70.5128
585.366 585.106 910.256
585.366 595.745 506.41
585.366 606.383 506.41
585.366 617.021 506.41
590.244 372.34 820.513
590.244 382.979 121.795
590.244 393.617 826.923
590.244 404.255 903.846
590.244 414.894 134.615
590.244 425.532 903.846
590.244 446.809 923.077
590.244 468.085 923.077
590.244 478.723 923.077
590.244 500 923.077
590.244 521.277 942.308
590.244 531.915 19.2308
590.244 542.553 942.308
590.244 563.83 897.436
590.244 574.468 160.256
590.244 585.106 897.436
590.244 595.745 596.154
590.244 606.383 596.154
590.244 617.021 596.154
595.122 372.34 820.513
595.122 382.979 141.026
595.122 393.617 820.513
595.122 404.255 897.436
595.122 414.894 134.615
595.122 425.532 897.436
595.122 446.809 916.667
595.122 457.447 6.41026
595.122 468.085 923.077
595.122 478.723 929.487
595.122 500 923.077
595.122 521.277 942.308
595.122 531.915 44.8718
595.122 542.553 942.308
595.122 563.83 897.436
595.122 574.468 128.205
595.122 585.106 897.436
595.122 595.745 602.564
595.122 606.383 602.564
595.122 617.021 596.154
595.122 638.298 397.436
595.122 648.936 397.436
595.122 659.574 397.436
600 372.34 814.103
600 382.979 128.205
600 393.617 820.513
600 404.255 878.205
600 414.894 147.436
600 425.532 891.026
600 446.809 916.667
600 457.447 38.4615
600 468.085 916.667
600 478.723 935.897
600 500 929.487
600 521.277 942.308
600 531.915 6.41026
600 542.553 942.308
600 563.83 897.436
600 574.468 205.128
600 585.106 897.436
600 595.745 602.564
600 606.383 602.564
600 617.021 596.154
600 638.298 397.436
600 648.936 397.436
600 659.574 397.436
604.878 372.34 801.282
604.878 382.979 141.026
604.878 393.617 814.103
604.878 404.255 878.205
604.878 414.894 134.615
604.878 425.532 878.205
604.878 446.809 916.667
604.878 457.447 0
604.878 468.085 916.667
604.878 478.723 935.897
604.878 500 929.487
604.878 521.277 942.308
604.878 531.915 19.2308
604.878 542.553 942.308
604.878 563.83 903.846
604.878 574.468 57.6923
604.878 585.106 897.436
604.878 595.745 685.897
604.878 606.383 685.897
604.878 617.021 685.897
604.878 638.298 397.436
604.878 648.936 397.436
604.878 659.574 397.436
609.756 372.34 807.692
609.756 382.979 198.718
609.756 393.617 807.692
609.756 404.255 871.795
609.756 414.894 89.7436
609.756 425.532 878.205
609.756 446.809 916.667
609.756 468.085 916.667
609.756 478.723 935.897
609.756 500 935.897
609.756 521.277 942.308
609.756 542.553 942.308
609.756 563.83 910.256
609.756 574.468 102.564
609.756 585.106 903.846
609.756 595.745 769.231
609.756 606.383 583.333
609.756 617.021 769.231
609.756 638.298 397.436
609.756 648.936 397.436
609.756 659.574 397.436
614.634 372.34 807.692
614.634 382.979 121.795
614.634 393.617 807.692
614.634 404.255 878.205
614.634 414.894 115.385
614.634 425.532 871.795
614.634 446.809 923.077
614.634 457.447 19.2308
614.634 468.085 916.667
614.634 478.723 935.897
614.634 500 935.897
614.634 521.277 942.308
614.634 531.915 6.41026
614.634 542.553 942.308
614.634 563.83 916.667
614.634 574.468 64.1026
614.634 585.106 910.256
614.634 595.745 794.872
614.634 606.383 512.821
614.634 617.021 794.872
614.634 659.574 397.436
619.512 372.34 807.692
619.512 382.979 128.205
619.512 393.617 807.692
619.512 404.255 878.205
619.512 414.894 108.974
619.512 425.532 871.795
619.512 446.809 923.077
619.512 457.447 25.641
619.512 468.085 923.077
619.512 478.723 935.897
619.512 500 935.897
619.512 521.277 942.308
619.512 542.553 942.308
619.512 563.83 923.077
619.512 574.468 89.7436
619.512 585.106 916.667
619.512 595.745 814.103
619.512 606.383 461.538
619.512 617.021 814.103
619.512 638.298 544.872
619.512 648.936 544.872
619.512 659.574 544.872
624.39 372.34 820.513
624.39 382.979 185.897
624.39 393.617 820.513
624.39 404.255 878.205
624.39 414.894 70.5128
624.39 425.532 878.205
624.39 446.809 916.667
624.39 457.447 32.0513
624.39 468.085 923.077
624.39 478.723 935.897
624.39 500 935.897
624.39 521.277 942.308
624.39 542.553 942.308
624.39 563.83 923.077
624.39 574.468 76.9231
624.39 585.106 923.077
624.39 595.745 826.923
624.39 606.383 358.974
624.39 617.021 826.923
624.39 638.298 628.205
624.39 648.936 403.846
624.39 659.574 628.205
629.268 372.34 814.103
629.268 382.979 160.256
629.268 393.617 820.513
629.268 404.255 884.615
629.268 414.894 96.1538
629.268 425.532 884.615
629.268 446.809 910.256
629.268 457.447 25.641
629.268 468.085 916.667
629.268 478.723 929.487
629.268 500 935.897
629.268 521.277 942.308
629.268 542.553 942.308
629.268 563.83 923.077
629.268 574.468 173.077
629.268 585.106 916.667
629.268 595.745 826.923
629.268 606.383 365.385
629.268 617.021 826.923
629.268 638.298 679.487
629.268 648.936 493.59
629.268 659.574 679.487
634.146 372.34 820.513
634.146 382.979 262.821
634.146 393.617 814.103
634.146 404.255 884.615
634.146 414.894 57.6923
634.146 425.532 884.615
634.146 446.809 903.846
634.146 457.447 25.641
634.146 468.085 910.256
634.146 478.723 935.897
634.146 489.362 12.8205
634.146 500 929.487
634.146 521.277 942.308
634.146 542.553 942.308
634.146 563.83 916.667
634.146 574.468 153.846
634.146 585.106 916.667
634.146 595.745 826.923
634.146 606.383 358.974
634.146 617.021 826.923
634.146 638.298 769.231
634.146 648.936 557.692
634.146 659.574 775.641
639.024 329.787 339.744
639.024 340.426 339.744
639.024 351.064 339.744
639.024 372.34 826.923
639.024 382.979 352.564
639.024 393.617 820.513
639.024 404.255 878.205
639.024 414.894 70.5128
639.024 425.532 884.615
639.024 446.809 897.436
639.024 457.447 38.4615
639.024 468.085 903.846
639.024 478.723 935.897
639.024 489.362 12.8205
639.024 500 935.897
639.024 521.277 942.308
639.024 542.553 942.308
639.024 563.83 916.667
639.024 574.468 115.385
639.024 585.106 916.667
639.024 595.745 826.923
639.024 606.383 384.615
639.024 617.021 833.333
639.024 638.298 794.872
639.024 648.936 320.513
639.024 659.574 788.462
639.024 680.851 403.846
639.024 691.489 403.846
639.024 702.128 403.846
643.902 329.787 339.744
643.902 340.426 339.744
643.902 351.064 339.744
643.902 372.34 820.513
643.902 382.979 256.41
643.902 393.617 820.513
643.902 404.255 878.205
643.902 414.894 76.9231
643.902 425.532 878.205
643.902 446.809 897.436
643.902 457.447 0
643.902 468.085 897.436
643.902 478.723 935.897
643.902 489.362 0
643.902 500 935.897
643.902 521.277 942.308
643.902 542.553 942.308
643.902 563.83 916.667
643.902 574.468 134.615
643.902 585.106 916.667
643.902 595.745 846.154
643.902 606.383 423.077
643.902 617.021 839.744
643.902 638.298 794.872
643.902 648.936 192.308
643.902 659.574 794.872
643.902 680.851 737.179
643.902 691.489 717.949
643.902 702.128 737.179
648.78 329.787 480.769
648.78 340.426 480.769
648.78 351.064 480.769
648.78 372.34 820.513
648.78 382.979 282.051
648.78 393.617 820.513
648.78 404.255 878.205
648.78 414.894 89.7436
648.78 425.532 878.205
648.78 446.809 897.436
648.78 457.447 0
648.78 468.085 897.436
648.78 478.723 929.487
648.78 489.362 0
648.78 500 935.897
648.78 521.277 942.308
648.78 542.553 942.308
648.78 563.83 923.077
648.78 574.468 76.9231
648.78 585.106 916.667
648.78 595.745 858.974
648.78 606.383 307.692
648.78 617.021 852.564
648.78 638.298 807.692
648.78 648.936 294.872
648.78 659.574 807.692
648.78 680.851 788.462
648.78 691.489 352.564
648.78 702.128 788.462
653.659 329.787 487.179
653.659 340.426 346.154
653.659 351.064 480.769
653.659 372.34 820.513
653.659 382.979 282.051
653.659 393.617 820.513
653.659 404.255 871.795
653.659 414.894 76.9231
653.659 425.532 878.205
653.659 446.809 897.436
653.659 457.447 6.41026
653.659 468.085 897.436
653.659 478.723 916.667
653.659 489.362 32.0513
653.659 500 929.487
653.659 521.277 942.308
653.659 542.553 942.308
653.659 563.83 916.667
653.659 574.468 83.3333
653.659 585.106 923.077
653.659 595.745 858.974
653.659 606.383 282.051
653.659 617.021 858.974
653.659 638.298 820.513
653.659 648.936 339.744
653.659 659.574 820.513
653.659 680.851 788.462
653.659 691.489 38.4615
653.659 702.128 788.462
653.659 723.404 403.846
653.659 734.043 403.846
653.659 744.681 403.846
658.537 329.787 487.179
658.537 340.426 211.538
658.537 351.064 487.179
658.537 372.34 814.103
658.537 382.979 282.051
658.537 393.617 820.513
658.537 404.255 865.385
658.537 414.894 76.9231
658.537 425.532 865.385
658.537 446.809 891.026
658.537 457.447 6.41026
658.537 468.085 891.026
658.537 478.723 910.256
658.537 489.362 12.8205
658.537 500 916.667
658.537 521.277 942.308
658.537 542.553 942.308
658.537 563.83 916.667
658.537 574.468 83.3333
658.537 585.106 916.667
658.537 595.745 858.974
658.537 606.383 371.795
658.537 617.021 858.974
658.537 638.298 826.923
658.537 648.936 211.538
658.537 659.574 820.513
658.537 680.851 788.462
658.537 691.489 64.1026
658.537 702.128 788.462
658.537 723.404 685.897
658.537 734.043 500
658.537 744.681 685.897
663.415 329.787 487.179
663.415 340.426 352.564
663.415 351.064 487.179
663.415 372.34 807.692
663.415 382.979 403.846
663.415 393.617 814.103
663.415 404.255 852.564
663.415 414.894 76.9231
663.415 425.532 865.385
663.415 446.809 878.205
663.415 457.447 25.641
663.415 468.085 891.026
663.415 478.723 897.436
663.415 489.362 32.0513
663.415 500 910.256
663.415 521.277 948.718
663.415 542.553 942.308
663.415 563.83 916.667
663.415 574.468 32.0513
663.415 585.106 916.667
663.415 595.745 858.974
663.415 606.383 192.308
663.415 617.021 858.974
663.415 638.298 826.923
663.415 648.936 275.641
663.415 659.574 826.923
663.415 680.851 794.872
663.415 691.489 115.385
663.415 702.128 794.872
663.415 723.404 756.41
663.415 734.043 557.692
663.415 744.681 756.41
668.293 329.787 487.179
668.293 340.426 352.564
668.293 351.064 487.179
668.293 372.34 807.692
668.293 382.979 294.872
668.293 393.617 807.692
668.293 404.255 858.974
668.293 414.894 64.1026
668.293 425.532 852.564
668.293 446.809 878.205
668.293 457.447 44.8718
668.293 468.085 878.205
668.293 478.723 897.436
668.293 489.362 32.0513
668.293 500 897.436
668.293 521.277 942.308
668.293 542.553 942.308
668.293 563.83 916.667
668.293 574.468 32.0513
668.293 585.106 916.667
668.293 595.745 858.974
668.293 606.383 179.487
668.293 617.021 858.974
668.293 638.298 820.513
668.293 648.936 224.359
668.293 659.574 826.923
668.293 680.851 794.872
668.293 691.489 115.385
668.293 702.128 794.872
668.293 723.404 769.231
668.293 734.043 96.1538
668.293 744.681 769.231
673.171 329.787 487.179
673.171 340.426 352.564
673.171 351.064 487.179
673.171 372.34 801.282
673.171 382.979 371.795
673.171 393.617 801.282
673.171 404.255 858.974
673.171 414.894 70.5128
673.171 425.532 858.974
673.171 446.809 878.205
673.171 457.447 44.8718
673.171 468.085 878.205
673.171 478.723 897.436
673.171 489.362 38.4615
673.171 500 897.436
673.171 521.277 935.897
673.171 531.915 0
673.171 542.553 942.308
673.171 563.83 916.667
673.171 574.468 32.0513
673.171 585.106 916.667
673.171 595.745 858.974
673.171 606.383 179.487
673.171 617.021 858.974
673.171 638.298 820.513
673.171 648.936 282.051
673.171 659.574 826.923
673.171 680.851 794.872
673.171 691.489 51.2821
673.171 702.128 794.872
673.171 723.404 737.179
673.171 734.043 128.205
673.171 744.681 769.231
678.049 329.787 487.179
678.049 340.426 352.564
678.049 351.064 487.179
678.049 372.34 794.872
678.049 382.979 346.154
678.049 393.617 801.282
678.049 404.255 858.974
678.049 414.894 108.974
678.049 425.532 858.974
678.049 446.809 878.205
678.049 457.447 102.564
678.049 468.085 878.205
678.049 478.723 897.436
678.049 489.362 64.1026
678.049 500 897.436
678.049 521.277 935.897
678.049 531.915 0
678.049 542.553 935.897
678.049 563.83 910.256
678.049 574.468 25.641
678.049 585.106 916.667
678.049 595.745 858.974
678.049 606.383 243.59
678.049 617.021 858.974
678.049 638.298 826.923
678.049 648.936 282.051
678.049 659.574 826.923
678.049 680.851 794.872
678.049 691.489 19.2308
678.049 702.128 794.872
678.049 723.404 634.615
678.049 734.043 403.846
678.049 744.681 737.179
682.927 297.872 346.154
682.927 308.511 346.154
682.927 319.149 346.154
682.927 329.787 487.179
682.927 340.426 352.564
682.927 351.064 487.179
682.927 372.34 794.872
682.927 382.979 314.103
682.927 393.617 794.872
682.927 404.255 858.974
682.927 414.894 108.974
682.927 425.532 858.974
682.927 446.809 878.205
682.927 457.447 153.846
682.927 468.085 878.205
682.927 478.723 897.436
682.927 489.362 38.4615
682.927 500 897.436
682.927 521.277 929.487
682.927 531.915 6.41026
682.927 542.553 935.897
682.927 563.83 916.667
682.927 574.468 32.0513
682.927 585.106 916.667
682.927 595.745 858.974
682.927 606.383 243.59
682.927 617.021 858.974
682.927 638.298 833.333
682.927 648.936 250
682.927 659.574 833.333
682.927 680.851 794.872
682.927 691.489 44.8718
682.927 702.128 794.872
682.927 723.404 557.692
682.927 734.043 397.436
682.927 744.681 634.615
687.805 297.872 346.154
687.805 308.511 346.154
687.805 319.149 346.154
687.805 329.787 596.154
687.805 340.426 429.487
687.805 351.064 596.154
687.805 372.34 794.872
687.805 382.979 314.103
687.805 393.617 794.872
687.805 404.255 852.564
687.805 414.894 134.615
