267.327 643.836 143.678
267.327 657.534 408.046
267.327 671.233 408.046
267.327 684.932 137.931
267.327 698.63 408.046
267.327 712.329 408.046
267.327 726.027 304.598
267.327 739.726 413.793
267.327 753.425 408.046
267.327 767.123 402.299
267.327 780.822 396.552
267.327 794.521 396.552
267.327 808.219 396.552
267.327 821.918 413.793
267.327 835.616 201.149
267.327 849.315 264.368
267.327 863.014 327.586
267.327 876.712 293.103
267.327 890.411 586.207
267.327 904.11 419.54
267.327 917.808 568.966
267.327 931.507 402.299
267.327 945.205 402.299
267.327 958.904 402.299
267.327 972.603 402.299
267.327 986.301 402.299
272.277 54.7945 316.092
272.277 68.4932 620.69
272.277 82.1918 471.264
272.277 95.8904 316.092
272.277 109.589 678.161
272.277 123.288 557.471
272.277 136.986 586.207
272.277 150.685 574.713
272.277 164.384 471.264
272.277 575.342 11.4943
272.277 589.041 5.74713
272.277 602.74 5.74713
272.277 630.137 51.7241
272.277 643.836 143.678
272.277 657.534 408.046
272.277 671.233 408.046
272.277 684.932 143.678
272.277 698.63 413.793
272.277 712.329 408.046
272.277 726.027 143.678
272.277 739.726 413.793
272.277 753.425 413.793
272.277 767.123 402.299
272.277 780.822 396.552
272.277 794.521 419.54
272.277 808.219 201.149
272.277 821.918 252.874
272.277 835.616 252.874
272.277 849.315 408.046
272.277 863.014 419.54
272.277 876.712 431.034
272.277 890.411 591.954
272.277 904.11 431.034
272.277 917.808 568.966
272.277 931.507 402.299
272.277 945.205 402.299
272.277 958.904 402.299
272.277 972.603 402.299
272.277 986.301 402.299
277.228 54.7945 373.563
277.228 68.4932 597.701
277.228 82.1918 442.529
277.228 95.8904 316.092
277.228 109.589 626.437
277.228 123.288 528.736
277.228 136.986 505.747
277.228 150.685 580.46
277.228 164.384 390.805
277.228 589.041 11.4943
277.228 602.74 11.4943
277.228 616.438 11.4943
277.228 630.137 17.2414
277.228 643.836 91.954
277.228 657.534 356.322
277.228 671.233 419.54
277.228 684.932 195.402
277.228 698.63 413.793
277.228 712.329 419.54
277.228 726.027 195.402
277.228 739.726 413.793
277.228 753.425 413.793
277.228 767.123 408.046
277.228 780.822 206.897
277.228 794.521 258.621
277.228 808.219 252.874
277.228 821.918 408.046
277.228 835.616 408.046
277.228 849.315 408.046
277.228 863.014 402.299
277.228 876.712 442.529
277.228 890.411 557.471
277.228 904.11 448.276
277.228 917.808 568.966
277.228 931.507 402.299
277.228 945.205 402.299
277.228 958.904 408.046
277.228 972.603 402.299
277.228 986.301 402.299
277.228 1000 402.299
282.178 54.7945 568.966
282.178 68.4932 591.954
282.178 82.1918 436.782
282.178 95.8904 321.839
282.178 109.589 591.954
282.178 123.288 643.678
282.178 136.986 528.736
282.178 150.685 522.989
282.178 164.384 270.115
282.178 589.041 0
282.178 602.74 11.4943
282.178 616.438 17.2414
282.178 630.137 17.2414
282.178 643.836 68.9655
282.178 657.534 304.598
282.178 671.233 143.678
282.178 684.932 247.126
282.178 698.63 413.793
282.178 712.329 143.678
282.178 726.027 252.874
282.178 739.726 419.54
282.178 753.425 419.54
282.178 767.123 143.678
282.178 780.822 258.621
282.178 794.521 413.793
282.178 808.219 408.046
282.178 821.918 408.046
282.178 835.616 408.046
282.178 849.315 408.046
282.178 863.014 408.046
282.178 876.712 448.276
282.178 890.411 522.989
282.178 904.11 448.276
282.178 917.808 574.713
282.178 931.507 408.046
282.178 945.205 408.046
282.178 958.904 408.046
282.178 972.603 408.046
282.178 986.301 408.046
282.178 1000 402.299
287.129 54.7945 655.172
287.129 68.4932 448.276
287.129 82.1918 431.034
287.129 95.8904 316.092
287.129 109.589 591.954
287.129 123.288 637.931
287.129 136.986 540.23
287.129 150.685 454.023
287.129 164.384 132.184
287.129 602.74 5.74713
287.129 616.438 17.2414
287.129 630.137 17.2414
287.129 643.836 57.4713
287.129 657.534 149.425
287.129 671.233 143.678
287.129 684.932 413.793
287.129 698.63 413.793
287.129 712.329 143.678
287.129 726.027 419.54
287.129 739.726 419.54
287.129 753.425 425.287
287.129 767.123 201.149
287.129 780.822 413.793
287.129 794.521 419.54
287.129 808.219 413.793
287.129 821.918 408.046
287.129 835.616 408.046
287.129 849.315 408.046
287.129 863.014 408.046
287.129 876.712 448.276
287.129 890.411 454.023
287.129 904.11 431.034
287.129 917.808 666.667
287.129 931.507 568.966
287.129 945.205 408.046
287.129 958.904 408.046
287.129 972.603 408.046
287.129 986.301 408.046
287.129 1000 402.299
292.079 54.7945 632.184
292.079 68.4932 390.805
292.079 82.1918 477.011
292.079 95.8904 316.092
292.079 109.589 568.966
292.079 123.288 626.437
292.079 136.986 545.977
292.079 150.685 390.805
292.079 630.137 5.74713
292.079 643.836 57.4713
292.079 657.534 149.425
292.079 671.233 86.2069
292.079 684.932 356.322
292.079 698.63 419.54
292.079 712.329 201.149
292.079 726.027 419.54
292.079 739.726 419.54
292.079 753.425 143.678
292.079 767.123 275.862
292.079 780.822 206.897
292.079 794.521 264.368
292.079 808.219 206.897
292.079 821.918 419.54
292.079 835.616 408.046
292.079 849.315 408.046
292.079 863.014 408.046
292.079 876.712 459.77
292.079 890.411 454.023
292.079 904.11 586.207
292.079 917.808 609.195
292.079 931.507 574.713
292.079 945.205 408.046
292.079 958.904 408.046
292.079 972.603 408.046
292.079 986.301 408.046
292.079 1000 408.046
297.03 41.0959 431.034
297.03 54.7945 620.69
297.03 68.4932 344.828
297.03 82.1918 477.011
297.03 95.8904 316.092
297.03 109.589 574.713
297.03 123.288 649.425
297.03 136.986 574.713
297.03 150.685 362.069
297.03 657.534 91.954
297.03 671.233 356.322
297.03 684.932 304.598
297.03 698.63 143.678
297.03 712.329 252.874
297.03 726.027 419.54
297.03 739.726 419.54
297.03 753.425 149.425
297.03 767.123 143.678
297.03 780.822 258.621
297.03 794.521 431.034
297.03 808.219 425.287
297.03 821.918 316.092
297.03 835.616 413.793
297.03 849.315 408.046
297.03 863.014 408.046
297.03 876.712 459.77
297.03 890.411 459.77
297.03 904.11 666.667
297.03 917.808 517.241
297.03 931.507 695.402
297.03 945.205 408.046
297.03 958.904 408.046
297.03 972.603 408.046
297.03 986.301 408.046
301.98 41.0959 477.011
301.98 54.7945 591.954
301.98 68.4932 379.31
301.98 82.1918 477.011
301.98 95.8904 505.747
301.98 109.589 540.23
301.98 123.288 672.414
301.98 136.986 511.494
301.98 150.685 327.586
301.98 657.534 63.2184
301.98 671.233 304.598
301.98 684.932 143.678
301.98 698.63 149.425
301.98 712.329 419.54
301.98 726.027 419.54
301.98 739.726 419.54
301.98 753.425 149.425
301.98 767.123 143.678
301.98 780.822 431.034
301.98 794.521 431.034
301.98 808.219 431.034
301.98 821.918 373.563
301.98 835.616 482.759
301.98 849.315 408.046
301.98 863.014 413.793
301.98 876.712 448.276
301.98 890.411 471.264
301.98 904.11 643.678
301.98 917.808 436.782
301.98 931.507 660.92
301.98 945.205 408.046
301.98 958.904 408.046
301.98 972.603 408.046
301.98 986.301 408.046
306.931 41.0959 505.747
306.931 54.7945 568.966
306.931 68.4932 385.057
306.931 82.1918 477.011
306.931 95.8904 603.448
306.931 109.589 563.218
306.931 123.288 643.678
306.931 136.986 436.782
306.931 150.685 298.851
306.931 657.534 63.2184
306.931 671.233 143.678
306.931 684.932 149.425
306.931 698.63 149.425
306.931 712.329 419.54
306.931 726.027 419.54
306.931 739.726 419.54
306.931 753.425 143.678
306.931 767.123 86.2069
306.931 780.822 367.816
306.931 794.521 431.034
306.931 808.219 431.034
306.931 821.918 431.034
306.931 835.616 373.563
306.931 849.315 419.54
306.931 863.014 413.793
306.931 876.712 425.287
306.931 890.411 454.023
306.931 904.11 712.644
306.931 917.808 597.701
306.931 931.507 637.931
306.931 945.205 563.218
306.931 958.904 408.046
306.931 972.603 419.54
311.881 54.7945 614.943
311.881 68.4932 522.989
311.881 82.1918 500
311.881 95.8904 580.46
311.881 109.589 563.218
311.881 123.288 620.69
311.881 136.986 390.805
311.881 150.685 287.356
311.881 657.534 63.2184
311.881 671.233 143.678
311.881 684.932 143.678
311.881 698.63 91.954
311.881 712.329 362.069
311.881 726.027 419.54
311.881 739.726 419.54
311.881 753.425 143.678
311.881 767.123 431.034
311.881 780.822 155.172
311.881 794.521 436.782
311.881 808.219 431.034
311.881 821.918 431.034
311.881 835.616 431.034
311.881 849.315 373.563
311.881 863.014 419.54
311.881 876.712 413.793
311.881 890.411 534.483
311.881 904.11 706.897
311.881 917.808 563.218
311.881 931.507 568.966
311.881 945.205 568.966
311.881 958.904 419.54
311.881 972.603 201.149
316.832 54.7945 505.747
316.832 68.4932 534.483
316.832 82.1918 488.506
316.832 95.8904 557.471
316.832 109.589 597.701
316.832 123.288 603.448
316.832 136.986 350.575
316.832 150.685 287.356
316.832 657.534 63.2184
316.832 671.233 143.678
316.832 684.932 143.678
316.832 698.63 413.793
316.832 712.329 310.345
316.832 726.027 419.54
316.832 739.726 419.54
316.832 753.425 178.161
316.832 767.123 471.264
316.832 780.822 270.115
316.832 794.521 379.31
316.832 808.219 436.782
316.832 821.918 431.034
316.832 835.616 431.034
316.832 849.315 431.034
316.832 863.014 373.563
316.832 876.712 431.034
316.832 890.411 459.77
316.832 904.11 678.161
316.832 917.808 528.736
316.832 931.507 695.402
316.832 945.205 643.678
316.832 958.904 201.149
316.832 972.603 258.621
321.782 68.4932 626.437
321.782 82.1918 637.931
321.782 95.8904 534.483
321.782 109.589 609.195
321.782 123.288 574.713
321.782 136.986 275.862
321.782 150.685 252.874
321.782 657.534 51.7241
321.782 671.233 143.678
321.782 684.932 143.678
321.782 698.63 413.793
321.782 712.329 143.678
321.782 726.027 419.54
321.782 739.726 419.54
321.782 753.425 212.644
321.782 767.123 500
321.782 780.822 436.782
321.782 794.521 436.782
321.782 808.219 321.839
321.782 821.918 431.034
321.782 835.616 431.034
321.782 849.315 431.034
321.782 863.014 431.034
321.782 876.712 431.034
321.782 890.411 321.839
321.782 904.11 545.977
321.782 917.808 310.345
321.782 931.507 591.954
321.782 945.205 488.506
321.782 958.904 471.264
321.782 972.603 419.54
326.733 68.4932 563.218
326.733 82.1918 706.897
326.733 95.8904 643.678
326.733 109.589 643.678
326.733 123.288 540.23
326.733 136.986 367.816
326.733 150.685 224.138
326.733 671.233 103.448
326.733 684.932 137.931
326.733 698.63 413.793
326.733 712.329 91.954
326.733 726.027 362.069
326.733 739.726 419.54
326.733 753.425 212.644
326.733 767.123 597.701
326.733 780.822 436.782
326.733 794.521 436.782
326.733 808.219 385.057
326.733 821.918 505.747
326.733 835.616 431.034
326.733 849.315 431.034
326.733 863.014 431.034
326.733 876.712 431.034
326.733 890.411 431.034
326.733 904.11 540.23
326.733 917.808 563.218
326.733 931.507 649.425
326.733 945.205 591.954
326.733 958.904 701.149
331.683 68.4932 505.747
331.683 82.1918 672.414
331.683 95.8904 683.908
331.683 109.589 626.437
331.683 123.288 505.747
331.683 136.986 367.816
331.683 150.685 195.402
331.683 671.233 74.7126
331.683 684.932 86.2069
331.683 698.63 356.322
331.683 712.329 413.793
331.683 726.027 310.345
331.683 739.726 419.54
331.683 753.425 178.161
331.683 767.123 563.218
331.683 780.822 436.782
331.683 794.521 436.782
331.683 808.219 436.782
331.683 821.918 379.31
331.683 835.616 442.529
331.683 849.315 431.034
331.683 863.014 431.034
331.683 876.712 431.034
331.683 890.411 448.276
331.683 904.11 540.23
331.683 917.808 637.931
331.683 931.507 591.954
331.683 945.205 580.46
331.683 958.904 672.414
336.634 82.1918 672.414
336.634 95.8904 712.644
336.634 109.589 637.931
336.634 123.288 459.77
336.634 136.986 327.586
336.634 150.685 143.678
336.634 671.233 74.7126
336.634 684.932 143.678
336.634 698.63 304.598
336.634 712.329 413.793
336.634 726.027 91.954
336.634 739.726 367.816
336.634 753.425 442.529
336.634 767.123 528.736
336.634 780.822 436.782
336.634 794.521 436.782
336.634 808.219 442.529
336.634 821.918 442.529
336.634 835.616 379.31
336.634 849.315 459.77
336.634 863.014 431.034
336.634 876.712 431.034
336.634 890.411 442.529
336.634 904.11 482.759
336.634 917.808 551.724
336.634 931.507 591.954
336.634 945.205 701.149
336.634 958.904 316.092
341.584 82.1918 666.667
341.584 95.8904 747.126
341.584 109.589 597.701
341.584 123.288 408.046
341.584 136.986 344.828
341.584 150.685 86.2069
341.584 671.233 51.7241
341.584 684.932 97.7011
341.584 698.63 143.678
341.584 712.329 413.793
341.584 726.027 413.793
341.584 739.726 310.345
341.584 753.425 442.529
341.584 767.123 448.276
341.584 780.822 436.782
341.584 794.521 442.529
341.584 808.219 442.529
341.584 821.918 448.276
341.584 835.616 448.276
341.584 849.315 442.529
341.584 863.014 212.644
341.584 876.712 459.77
341.584 890.411 436.782
341.584 904.11 488.506
341.584 917.808 494.253
341.584 931.507 436.782
341.584 945.205 574.713
341.584 958.904 149.425
341.584 972.603 431.034
346.535 82.1918 614.943
346.535 95.8904 689.655
346.535 109.589 522.989
346.535 123.288 367.816
346.535 136.986 316.092
346.535 671.233 51.7241
346.535 684.932 155.172
346.535 698.63 143.678
346.535 712.329 413.793
346.535 726.027 413.793
346.535 739.726 149.425
346.535 753.425 442.529
346.535 767.123 448.276
346.535 780.822 431.034
346.535 794.521 442.529
346.535 808.219 448.276
346.535 821.918 448.276
346.535 835.616 448.276
346.535 849.315 448.276
346.535 863.014 442.529
346.535 876.712 442.529
346.535 890.411 275.862
346.535 904.11 362.069
346.535 917.808 356.322
346.535 931.507 454.023
346.535 945.205 568.966
346.535 958.904 91.954
346.535 972.603 373.563
351.485 68.4932 568.966
351.485 82.1918 597.701
351.485 95.8904 626.437
351.485 109.589 545.977
351.485 123.288 459.77
351.485 136.986 298.851
351.485 671.233 51.7241
351.485 684.932 155.172
351.485 698.63 86.2069
351.485 712.329 362.069
351.485 726.027 419.54
351.485 739.726 103.448
351.485 753.425 396.552
351.485 767.123 419.54
351.485 780.822 419.54
351.485 794.521 436.782
351.485 808.219 454.023
351.485 821.918 454.023
351.485 835.616 454.023
351.485 849.315 454.023
351.485 863.014 448.276
351.485 876.712 448.276
351.485 890.411 448.276
351.485 904.11 488.506
351.485 917.808 252.874
351.485 931.507 344.828
351.485 945.205 534.483
351.485 958.904 425.287
351.485 972.603 316.092
356.436 68.4932 655.172
356.436 82.1918 637.931
356.436 95.8904 586.207
356.436 109.589 488.506
356.436 123.288 413.793
356.436 136.986 247.126
356.436 671.233 51.7241
356.436 684.932 155.172
356.436 698.63 149.425
356.436 712.329 310.345
356.436 726.027 419.54
356.436 739.726 419.54
356.436 753.425 344.828
356.436 767.123 431.034
356.436 780.822 212.644
356.436 794.521 270.115
356.436 808.219 264.368
356.436 821.918 258.621
356.436 835.616 252.874
356.436 849.315 252.874
356.436 863.014 252.874
356.436 876.712 264.368
356.436 890.411 281.609
356.436 904.11 350.575
356.436 917.808 620.69
356.436 931.507 413.793
356.436 945.205 494.253
356.436 958.904 425.287
356.436 972.603 155.172
361.386 68.4932 689.655
361.386 82.1918 597.701
361.386 95.8904 620.69
361.386 109.589 494.253
361.386 123.288 367.816
361.386 136.986 172.414
361.386 657.534 0
361.386 671.233 68.9655
361.386 684.932 149.425
361.386 698.63 155.172
361.386 712.329 143.678
361.386 726.027 419.54
361.386 739.726 419.54
361.386 753.425 229.885
361.386 767.123 201.149
361.386 780.822 258.621
361.386 794.521 431.034
361.386 808.219 436.782
361.386 821.918 436.782
361.386 835.616 436.782
361.386 849.315 448.276
361.386 863.014 172.414
361.386 876.712 235.632
361.386 890.411 275.862
361.386 904.11 310.345
361.386 917.808 678.161
361.386 931.507 195.402
361.386 945.205 408.046
361.386 958.904 425.287
361.386 972.603 155.172
361.386 986.301 143.678
366.337 54.7945 252.874
366.337 68.4932 540.23
366.337 82.1918 597.701
366.337 95.8904 580.46
366.337 109.589 471.264
366.337 123.288 350.575
366.337 136.986 86.2069
366.337 643.836 0
366.337 657.534 0
366.337 671.233 34.4828
366.337 684.932 149.425
366.337 698.63 155.172
366.337 712.329 143.678
366.337 726.027 419.54
366.337 739.726 419.54
366.337 753.425 212.644
366.337 767.123 275.862
366.337 780.822 471.264
366.337 794.521 218.391
366.337 808.219 258.621
366.337 821.918 229.885
366.337 835.616 229.885
366.337 849.315 229.885
366.337 863.014 229.885
366.337 876.712 402.299
366.337 890.411 413.793
366.337 904.11 534.483
366.337 917.808 597.701
366.337 931.507 241.379
366.337 945.205 408.046
366.337 958.904 425.287
366.337 972.603 155.172
366.337 986.301 149.425
371.287 54.7945 367.816
371.287 68.4932 551.724
371.287 82.1918 666.667
371.287 95.8904 614.943
371.287 109.589 419.54
371.287 123.288 316.092
371.287 643.836 0
371.287 657.534 0
371.287 671.233 0
371.287 684.932 103.448
371.287 698.63 91.954
371.287 712.329 91.954
371.287 726.027 367.816
371.287 739.726 425.287
371.287 753.425 212.644
371.287 767.123 448.276
371.287 780.822 270.115
371.287 794.521 436.782
371.287 808.219 327.586
371.287 821.918 402.299
371.287 835.616 396.552
371.287 849.315 402.299
371.287 863.014 402.299
371.287 876.712 402.299
371.287 890.411 402.299
371.287 904.11 500
371.287 917.808 482.759
371.287 931.507 212.644
371.287 945.205 408.046
371.287 958.904 425.287
371.287 972.603 155.172
371.287 986.301 143.678
376.238 41.0959 247.126
376.238 54.7945 304.598
376.238 68.4932 557.471
376.238 82.1918 741.379
376.238 95.8904 649.425
376.238 109.589 385.057
376.238 123.288 224.138
376.238 643.836 0
376.238 657.534 0
376.238 671.233 0
376.238 684.932 68.9655
376.238 698.63 304.598
376.238 712.329 310.345
376.238 726.027 310.345
376.238 739.726 425.287
376.238 753.425 183.908
376.238 767.123 155.172
376.238 780.822 431.034
376.238 794.521 431.034
376.238 808.219 327.586
376.238 821.918 454.023
376.238 835.616 396.552
376.238 849.315 396.552
376.238 863.014 402.299
376.238 876.712 402.299
376.238 890.411 413.793
376.238 904.11 454.023
376.238 917.808 344.828
376.238 931.507 603.448
376.238 945.205 356.322
376.238 958.904 425.287
376.238 972.603 155.172
376.238 986.301 143.678
381.188 41.0959 362.069
381.188 54.7945 373.563
381.188 68.4932 649.425
381.188 82.1918 770.115
381.188 95.8904 672.414
381.188 109.589 448.276
381.188 123.288 126.437
381.188 657.534 0
381.188 671.233 0
381.188 684.932 40.2299
381.188 698.63 149.425
381.188 712.329 149.425
381.188 726.027 143.678
381.188 739.726 419.54
381.188 753.425 132.184
381.188 767.123 149.425
381.188 780.822 431.034
381.188 794.521 431.034
381.188 808.219 321.839
381.188 821.918 454.023
381.188 835.616 396.552
381.188 849.315 396.552
381.188 863.014 396.552
381.188 876.712 402.299
381.188 890.411 436.782
381.188 904.11 339.08
381.188 917.808 356.322
381.188 931.507 706.897
381.188 945.205 310.345
381.188 958.904 425.287
381.188 972.603 155.172
381.188 986.301 143.678
386.139 41.0959 385.057
386.139 54.7945 373.563
386.139 68.4932 597.701
386.139 82.1918 747.126
386.139 95.8904 666.667
386.139 109.589 482.759
386.139 684.932 0
386.139 698.63 114.943
386.139 712.329 149.425
386.139 726.027 143.678
386.139 739.726 419.54
386.139 753.425 431.034
386.139 767.123 143.678
386.139 780.822 431.034
386.139 794.521 431.034
386.139 808.219 379.31
386.139 821.918 505.747
386.139 835.616 408.046
386.139 849.315 408.046
386.139 863.014 408.046
386.139 876.712 431.034
386.139 890.411 264.368
386.139 904.11 500
386.139 917.808 465.517
386.139 931.507 706.897
386.139 945.205 189.655
386.139 958.904 425.287
386.139 972.603 155.172
386.139 986.301 143.678
391.089 27.3973 316.092
391.089 41.0959 344.828
391.089 54.7945 367.816
391.089 68.4932 649.425
391.089 82.1918 689.655
391.089 95.8904 632.184
391.089 109.589 442.529
391.089 698.63 80.4598
391.089 712.329 143.678
391.089 726.027 91.954
391.089 739.726 367.816
391.089 753.425 425.287
391.089 767.123 229.885
391.089 780.822 425.287
391.089 794.521 425.287
391.089 808.219 419.54
391.089 821.918 419.54
391.089 835.616 264.368
391.089 849.315 264.368
391.089 863.014 264.368
391.089 876.712 264.368
391.089 890.411 281.609
391.089 904.11 557.471
391.089 917.808 448.276
391.089 931.507 672.414
391.089 945.205 155.172
391.089 958.904 425.287
391.089 972.603 155.172
391.089 986.301 143.678
396.04 27.3973 425.287
396.04 41.0959 264.368
396.04 54.7945 287.356
396.04 68.4932 695.402
396.04 82.1918 643.678
396.04 95.8904 586.207
396.04 109.589 310.345
396.04 698.63 68.9655
396.04 712.329 86.2069
396.04 726.027 367.816
396.04 739.726 310.345
396.04 753.425 425.287
396.04 767.123 212.644
396.04 780.822 419.54
396.04 794.521 419.54
396.04 808.219 419.54
396.04 821.918 419.54
396.04 835.616 419.54
396.04 849.315 419.54
396.04 863.014 419.54
396.04 876.712 419.54
396.04 890.411 425.287
396.04 904.11 522.989
396.04 917.808 442.529
396.04 931.507 540.23
396.04 945.205 419.54
396.04 958.904 373.563
396.04 972.603 155.172
400.99 13.6986 316.092
400.99 27.3973 298.851
400.99 41.0959 281.609
400.99 54.7945 402.299
400.99 68.4932 649.425
400.99 82.1918 597.701
400.99 95.8904 534.483
400.99 109.589 178.161
400.99 698.63 63.2184
400.99 712.329 149.425
400.99 726.027 310.345
400.99 739.726 143.678
400.99 753.425 425.287
400.99 767.123 189.655
400.99 780.822 390.805
400.99 794.521 419.54
400.99 808.219 419.54
400.99 821.918 419.54
400.99 835.616 419.54
400.99 849.315 419.54
400.99 863.014 419.54
400.99 876.712 419.54
400.99 890.411 419.54
400.99 904.11 431.034
400.99 917.808 425.287
400.99 931.507 247.126
400.99 945.205 597.701
400.99 958.904 316.092
400.99 972.603 149.425
405.941 13.6986 385.057
405.941 27.3973 367.816
405.941 41.0959 459.77
405.941 54.7945 321.839
405.941 68.4932 637.931
405.941 82.1918 620.69
405.941 95.8904 534.483
405.941 109.589 28.7356
405.941 698.63 51.7241
405.941 712.329 149.425
405.941 726.027 172.414
405.941 739.726 201.149
405.941 753.425 431.034
405.941 767.123 229.885
405.941 780.822 344.828
405.941 794.521 419.54
405.941 808.219 419.54
405.941 821.918 419.54
405.941 835.616 419.54
405.941 849.315 419.54
405.941 863.014 419.54
405.941 876.712 419.54
405.941 890.411 419.54
405.941 904.11 425.287
405.941 917.808 511.494
405.941 931.507 189.655
405.941 945.205 563.218
405.941 958.904 149.425
405.941 972.603 149.425
405.941 986.301 431.034
410.891 0 298.851
410.891 13.6986 327.586
410.891 27.3973 287.356
410.891 41.0959 390.805
410.891 54.7945 252.874
410.891 68.4932 620.69
410.891 82.1918 655.172
410.891 95.8904 557.471
410.891 109.589 252.874
410.891 698.63 51.7241
410.891 712.329 155.172
410.891 726.027 143.678
410.891 739.726 258.621
410.891 753.425 149.425
410.891 767.123 155.172
410.891 780.822 206.897
410.891 794.521 419.54
410.891 808.219 413.793
410.891 821.918 413.793
410.891 835.616 413.793
410.891 849.315 413.793
410.891 863.014 413.793
410.891 876.712 419.54
410.891 890.411 419.54
410.891 904.11 425.287
410.891 917.808 436.782
410.891 931.507 264.368
410.891 945.205 528.736
410.891 958.904 149.425
410.891 972.603 149.425
410.891 986.301 431.034
415.842 0 247.126
415.842 13.6986 385.057
415.842 27.3973 459.77
415.842 41.0959 321.839
415.842 54.7945 367.816
415.842 68.4932 620.69
415.842 82.1918 649.425
415.842 95.8904 442.529
415.842 109.589 304.598
415.842 123.288 28.7356
415.842 698.63 51.7241
415.842 712.329 155.172
415.842 726.027 143.678
415.842 739.726 425.287
415.842 753.425 149.425
415.842 767.123 160.92
415.842 780.822 206.897
415.842 794.521 413.793
415.842 808.219 413.793
415.842 821.918 408.046
415.842 835.616 408.046
415.842 849.315 408.046
415.842 863.014 408.046
415.842 876.712 413.793
415.842 890.411 413.793
415.842 904.11 419.54
415.842 917.808 431.034
415.842 931.507 281.609
415.842 945.205 454.023
415.842 958.904 436.782
415.842 972.603 91.954
415.842 986.301 379.31
420.792 0 298.851
420.792 13.6986 327.586
420.792 27.3973 390.805
420.792 41.0959 252.874
420.792 54.7945 339.08
420.792 68.4932 586.207
420.792 82.1918 614.943
420.792 95.8904 448.276
420.792 109.589 431.034
420.792 123.288 264.368
420.792 698.63 51.7241
420.792 712.329 178.161
420.792 726.027 143.678
420.792 739.726 425.287
420.792 753.425 149.425
420.792 767.123 160.92
420.792 780.822 218.391
420.792 794.521 413.793
420.792 808.219 408.046
420.792 821.918 408.046
420.792 835.616 408.046
420.792 849.315 408.046
420.792 863.014 408.046
420.792 876.712 408.046
420.792 890.411 408.046
420.792 904.11 408.046
420.792 917.808 425.287
420.792 931.507 298.851
420.792 945.205 390.805
420.792 958.904 436.782
420.792 972.603 425.287
420.792 986.301 321.839
425.743 0 304.598
425.743 13.6986 488.506
425.743 27.3973 321.839
425.743 41.0959 459.77
425.743 54.7945 321.839
425.743 68.4932 586.207
425.743 82.1918 563.218
425.743 95.8904 477.011
425.743 109.589 356.322
425.743 123.288 367.816
425.743 136.986 126.437
425.743 698.63 68.9655
425.743 712.329 149.425
425.743 726.027 143.678
425.743 739.726 425.287
425.743 753.425 149.425
425.743 767.123 166.667
425.743 780.822 137.931
425.743 794.521 408.046
425.743 808.219 408.046
425.743 821.918 408.046
425.743 835.616 408.046
425.743 849.315 408.046
425.743 863.014 408.046
425.743 876.712 408.046
425.743 890.411 408.046
425.743 904.11 419.54
425.743 917.808 241.379
425.743 931.507 339.08
425.743 945.205 534.483
425.743 958.904 419.54
425.743 972.603 373.563
425.743 986.301 149.425
425.743 1000 431.034
430.693 0 304.598
430.693 13.6986 494.253
430.693 27.3973 310.345
430.693 41.0959 459.77
430.693 54.7945 310.345
430.693 68.4932 620.69
430.693 82.1918 557.471
430.693 95.8904 494.253
430.693 109.589 408.046
430.693 123.288 356.322
430.693 136.986 367.816
430.693 150.685 91.954
430.693 698.63 68.9655
430.693 712.329 149.425
430.693 726.027 143.678
430.693 739.726 425.287
430.693 753.425 149.425
430.693 767.123 166.667
430.693 780.822 137.931
430.693 794.521 408.046
430.693 808.219 408.046
430.693 821.918 408.046
430.693 835.616 408.046
430.693 849.315 408.046
430.693 863.014 408.046
430.693 876.712 408.046
430.693 890.411 408.046
430.693 904.11 160.92
430.693 917.808 275.862
430.693 931.507 229.885
430.693 945.205 413.793
430.693 958.904 436.782
430.693 972.603 316.092
430.693 986.301 91.954
430.693 1000 379.31
435.644 13.6986 494.253
435.644 27.3973 310.345
435.644 41.0959 459.77
435.644 54.7945 310.345
435.644 68.4932 557.471
435.644 82.1918 551.724
435.644 95.8904 367.816
435.644 109.589 419.54
435.644 123.288 408.046
435.644 136.986 356.322
435.644 150.685 310.345
435.644 164.384 28.7356
435.644 698.63 63.2184
435.644 712.329 143.678
435.644 726.027 143.678
435.644 739.726 431.034
435.644 753.425 201.149
435.644 767.123 166.667
435.644 780.822 143.678
435.644 794.521 408.046
435.644 808.219 408.046
435.644 821.918 408.046
435.644 835.616 408.046
435.644 849.315 408.046
435.644 863.014 408.046
435.644 876.712 408.046
435.644 890.411 419.54
435.644 904.11 206.897
435.644 917.808 425.287
435.644 931.507 252.874
435.644 945.205 344.828
435.644 958.904 436.782
435.644 972.603 149.425
435.644 986.301 431.034
435.644 1000 321.839
440.594 13.6986 494.253
440.594 27.3973 310.345
440.594 41.0959 459.77
440.594 54.7945 563.218
440.594 68.4932 517.241
440.594 82.1918 528.736
440.594 95.8904 408.046
440.594 109.589 356.322
440.594 123.288 413.793
440.594 136.986 408.046
440.594 150.685 298.851
440.594 164.384 247.126
440.594 698.63 34.4828
440.594 712.329 97.7011
440.594 726.027 97.7011
440.594 739.726 143.678
440.594 753.425 270.115
440.594 767.123 212.644
440.594 780.822 143.678
440.594 794.521 408.046
440.594 808.219 402.299
440.594 821.918 402.299
440.594 835.616 402.299
440.594 849.315 408.046
440.594 863.014 408.046
440.594 876.712 408.046
440.594 890.411 155.172
440.594 904.11 264.368
440.594 917.808 425.287
440.594 931.507 264.368
440.594 945.205 206.897
440.594 958.904 436.782
440.594 972.603 149.425
440.594 986.301 431.034
440.594 1000 143.678
445.545 13.6986 459.77
445.545 27.3973 362.069
445.545 41.0959 488.506
445.545 54.7945 609.195
445.545 68.4932 545.977
445.545 82.1918 367.816
445.545 95.8904 408.046
445.545 109.589 408.046
445.545 123.288 356.322
445.545 136.986 413.793
445.545 150.685 350.575
445.545 164.384 385.057
445.545 178.082 22.9885
445.545 698.63 34.4828
445.545 712.329 160.92
445.545 726.027 310.345
445.545 739.726 149.425
445.545 753.425 143.678
445.545 767.123 275.862
445.545 780.822 143.678
445.545 794.521 408.046
445.545 808.219 402.299
445.545 821.918 402.299
445.545 835.616 402.299
445.545 849.315 408.046
445.545 863.014 408.046
445.545 876.712 408.046
445.545 890.411 149.425
445.545 904.11 425.287
445.545 917.808 442.529
445.545 931.507 229.885
445.545 945.205 201.149
445.545 958.904 436.782
445.545 972.603 149.425
445.545 986.301 431.034
445.545 1000 143.678
450.495 13.6986 482.759
450.495 27.3973 419.54
450.495 41.0959 396.552
450.495 54.7945 620.69
450.495 68.4932 580.46
450.495 82.1918 367.816
450.495 95.8904 477.011
450.495 109.589 408.046
450.495 123.288 408.046
450.495 136.986 367.816
450.495 150.685 408.046
450.495 164.384 293.103
450.495 178.082 189.655
450.495 698.63 28.7356
450.495 712.329 160.92
450.495 726.027 155.172
450.495 739.726 172.414
450.495 753.425 201.149
450.495 767.123 166.667
450.495 780.822 143.678
450.495 794.521 408.046
450.495 808.219 402.299
450.495 821.918 402.299
450.495 835.616 408.046
450.495 849.315 408.046
450.495 863.014 408.046
450.495 876.712 419.54
450.495 890.411 206.897
450.495 904.11 425.287
450.495 917.808 448.276
450.495 931.507 275.862
450.495 945.205 247.126
450.495 958.904 149.425
450.495 972.603 149.425
450.495 986.301 442.529
450.495 1000 201.149
455.446 27.3973 413.793
455.446 41.0959 540.23
455.446 54.7945 620.69
455.446 68.4932 666.667
455.446 82.1918 408.046
455.446 95.8904 298.851
455.446 109.589 408.046
455.446 123.288 408.046
455.446 136.986 408.046
455.446 150.685 356.322
455.446 164.384 367.816
455.446 178.082 304.598
455.446 698.63 34.4828
455.446 712.329 160.92
455.446 726.027 155.172
455.446 739.726 143.678
455.446 753.425 258.621
455.446 767.123 183.908
455.446 780.822 143.678
455.446 794.521 408.046
455.446 808.219 408.046
455.446 821.918 419.54
455.446 835.616 408.046
455.446 849.315 408.046
455.446 863.014 419.54
455.446 876.712 206.897
455.446 890.411 258.621
455.446 904.11 436.782
455.446 917.808 448.276
455.446 931.507 189.655
455.446 945.205 321.839
455.446 958.904 155.172
455.446 972.603 155.172
455.446 986.301 143.678
455.446 1000 258.621
460.396 27.3973 477.011
460.396 41.0959 643.678
460.396 54.7945 718.391
460.396 68.4932 574.713
460.396 82.1918 477.011
460.396 95.8904 356.322
460.396 109.589 477.011
460.396 123.288 408.046
460.396 136.986 408.046
460.396 150.685 477.011
460.396 164.384 402.299
460.396 178.082 189.655
460.396 191.781 86.2069
460.396 712.329 114.943
460.396 726.027 149.425
460.396 739.726 172.414
460.396 753.425 379.31
460.396 767.123 264.368
460.396 780.822 143.678
460.396 794.521 431.034
460.396 808.219 454.023
460.396 821.918 454.023
460.396 835.616 459.77
460.396 849.315 442.529
460.396 863.014 201.149
460.396 876.712 258.621
460.396 890.411 425.287
460.396 904.11 459.77
460.396 917.808 471.264
460.396 931.507 201.149
460.396 945.205 436.782
460.396 958.904 224.138
460.396 972.603 206.897
460.396 986.301 143.678
460.396 1000 431.034
465.347 41.0959 689.655
465.347 54.7945 637.931
465.347 68.4932 655.172
465.347 82.1918 660.92
465.347 95.8904 408.046
465.347 109.589 356.322
465.347 123.288 413.793
465.347 136.986 408.046
465.347 150.685 402.299
465.347 164.384 402.299
465.347 178.082 465.517
465.347 191.781 287.356
465.347 205.479 22.9885
465.347 712.329 80.4598
465.347 726.027 97.7011
465.347 739.726 160.92
465.347 753.425 160.92
465.347 767.123 172.414
465.347 780.822 212.644
465.347 794.521 431.034
465.347 808.219 488.506
465.347 821.918 597.701
465.347 835.616 379.31
465.347 849.315 408.046
465.347 863.014 258.621
465.347 876.712 419.54
465.347 890.411 431.034
465.347 904.11 482.759
465.347 917.808 350.575
465.347 931.507 293.103
465.347 945.205 206.897
465.347 958.904 149.425
465.347 972.603 275.862
465.347 986.301 201.149
470.297 41.0959 425.287
470.297 54.7945 649.425
470.297 68.4932 758.621
470.297 82.1918 580.46
470.297 95.8904 488.506
470.297 109.589 408.046
470.297 123.288 356.322
470.297 136.986 408.046
470.297 150.685 402.299
470.297 164.384 448.276
470.297 178.082 396.552
470.297 191.781 293.103
470.297 205.479 178.161
470.297 712.329 74.7126
470.297 726.027 172.414
470.297 739.726 206.897
470.297 753.425 120.69
470.297 767.123 149.425
470.297 780.822 298.851
470.297 794.521 258.621
470.297 808.219 500
470.297 821.918 500
470.297 835.616 408.046
470.297 849.315 557.471
470.297 863.014 465.517
470.297 876.712 419.54
470.297 890.411 442.529
470.297 904.11 316.092
470.297 917.808 356.322
470.297 931.507 143.678
470.297 945.205 275.862
470.297 958.904 206.897
470.297 972.603 149.425
475.248 41.0959 298.851
475.248 54.7945 706.897
475.248 68.4932 666.667
475.248 82.1918 666.667
475.248 95.8904 568.966
475.248 109.589 419.54
475.248 123.288 408.046
475.248 136.986 350.575
475.248 150.685 425.287
475.248 164.384 442.529
475.248 178.082 396.552
475.248 191.781 373.563
475.248 205.479 178.161
475.248 712.329 86.2069
475.248 726.027 206.897
475.248 739.726 258.621
475.248 753.425 120.69
475.248 767.123 109.195
475.248 780.822 212.644
475.248 794.521 298.851
475.248 808.219 597.701
475.248 821.918 597.701
475.248 835.616 522.989
475.248 849.315 551.724
475.248 863.014 465.517
475.248 876.712 425.287
475.248 890.411 465.517
475.248 904.11 327.586
475.248 917.808 356.322
475.248 931.507 206.897
475.248 945.205 143.678
475.248 958.904 275.862
475.248 972.603 206.897
480.198 41.0959 350.575
480.198 54.7945 706.897
480.198 68.4932 620.69
480.198 82.1918 729.885
480.198 95.8904 614.943
480.198 109.589 517.241
480.198 123.288 408.046
480.198 136.986 396.552
480.198 150.685 396.552
480.198 164.384 275.862
480.198 178.082 448.276
480.198 191.781 356.322
480.198 205.479 172.414
480.198 712.329 80.4598
480.198 726.027 172.414
480.198 739.726 425.287
480.198 753.425 160.92
480.198 767.123 114.943
480.198 780.822 212.644
480.198 794.521 442.529
480.198 808.219 591.954
480.198 821.918 551.724
480.198 835.616 482.759
480.198 849.315 505.747
480.198 863.014 442.529
480.198 876.712 436.782
480.198 890.411 224.138
480.198 904.11 419.54
480.198 917.808 344.828
480.198 931.507 270.115
480.198 945.205 206.897
480.198 958.904 149.425
485.149 54.7945 293.103
485.149 68.4932 551.724
485.149 82.1918 729.885
485.149 95.8904 637.931
485.149 109.589 563.218
485.149 123.288 436.782
485.149 136.986 408.046
485.149 150.685 396.552
485.149 164.384 494.253
485.149 178.082 327.586
485.149 191.781 321.839
485.149 205.479 172.414
485.149 712.329 68.9655
485.149 726.027 178.161
485.149 739.726 379.31
485.149 753.425 195.402
485.149 767.123 137.931
485.149 780.822 132.184
485.149 794.521 362.069
485.149 808.219 482.759
485.149 821.918 459.77
485.149 835.616 534.483
485.149 849.315 482.759
485.149 863.014 436.782
485.149 876.712 465.517
485.149 890.411 304.598
485.149 904.11 511.494
485.149 917.808 258.621
485.149 931.507 143.678
485.149 945.205 275.862
485.149 958.904 201.149
490.099 54.7945 293.103
490.099 68.4932 672.414
490.099 82.1918 724.138
490.099 95.8904 586.207
490.099 109.589 586.207
490.099 123.288 586.207
490.099 136.986 362.069
490.099 150.685 465.517
490.099 164.384 477.011
490.099 178.082 385.057
490.099 191.781 339.08
490.099 205.479 126.437
490.099 712.329 68.9655
490.099 726.027 166.667
490.099 739.726 143.678
490.099 753.425 258.621
490.099 767.123 425.287
490.099 780.822 109.195
490.099 794.521 333.333
490.099 808.219 591.954
490.099 821.918 591.954
490.099 835.616 522.989
490.099 849.315 465.517
490.099 863.014 436.782
490.099 876.712 477.011
490.099 890.411 413.793
490.099 904.11 511.494
490.099 917.808 431.034
490.099 931.507 206.897
490.099 945.205 143.678
495.05 68.4932 465.517
495.05 82.1918 643.678
495.05 95.8904 649.425
495.05 109.589 666.667
495.05 123.288 505.747
495.05 136.986 500
495.05 150.685 522.989
495.05 164.384 488.506
495.05 178.082 402.299
495.05 191.781 344.828
495.05 205.479 86.2069
495.05 712.329 80.4598
495.05 726.027 166.667
495.05 739.726 143.678
495.05 753.425 425.287
495.05 767.123 425.287
495.05 780.822 109.195
495.05 794.521 166.667
495.05 808.219 551.724
495.05 821.918 591.954
495.05 835.616 517.241
495.05 849.315 471.264
495.05 863.014 488.506
495.05 876.712 339.08
495.05 890.411 482.759
495.05 904.11 258.621
495.05 917.808 143.678
495.05 931.507 258.621
495.05 945.205 143.678
500 68.4932 298.851
500 82.1918 678.161
500 95.8904 747.126
500 109.589 683.908
500 123.288 500
500 136.986 528.736
500 150.685 580.46
500 164.384 477.011
500 178.082 402.299
500 191.781 344.828
500 205.479 172.414
500 712.329 68.9655
500 726.027 155.172
500 739.726 86.2069
500 753.425 367.816
500 767.123 431.034
500 780.822 166.667
500 794.521 206.897
500 808.219 517.241
500 821.918 591.954
500 835.616 517.241
500 849.315 488.506
500 863.014 494.253
500 876.712 505.747
500 890.411 247.126
500 904.11 425.287
500 917.808 143.678
500 931.507 425.287
500 945.205 143.678
504.95 82.1918 666.667
504.95 95.8904 706.897
504.95 109.589 568.966
504.95 123.288 528.736
504.95 136.986 557.471
504.95 150.685 609.195
504.95 164.384 511.494
504.95 178.082 293.103
504.95 191.781 344.828
504.95 205.479 172.414
504.95 712.329 51.7241
504.95 726.027 109.195
504.95 739.726 155.172
504.95 753.425 310.345
504.95 767.123 201.149
504.95 780.822 172.414
504.95 794.521 206.897
504.95 808.219 436.782
504.95 821.918 591.954
504.95 835.616 528.736
504.95 849.315 517.241
504.95 863.014 448.276
504.95 876.712 477.011
504.95 890.411 201.149
504.95 904.11 425.287
504.95 917.808 143.678
504.95 931.507 425.287
504.95 945.205 143.678
509.901 82.1918 666.667
509.901 95.8904 706.897
509.901 109.589 609.195
509.901 123.288 551.724
509.901 136.986 609.195
509.901 150.685 620.69
509.901 164.384 477.011
509.901 178.082 344.828
509.901 191.781 367.816
509.901 205.479 178.161
509.901 712.329 51.7241
509.901 726.027 155.172
509.901 739.726 103.448
509.901 753.425 155.172
509.901 767.123 218.391
509.901 780.822 172.414
509.901 794.521 201.149
509.901 808.219 436.782
509.901 821.918 586.207
509.901 835.616 540.23
509.901 849.315 563.218
509.901 863.014 482.759
509.901 876.712 143.678
509.901 890.411 252.874
509.901 904.11 425.287
509.901 917.808 143.678
509.901 931.507 425.287
509.901 945.205 143.678
514.851 82.1918 741.379
514.851 95.8904 695.402
514.851 109.589 626.437
514.851 123.288 626.437
514.851 136.986 425.287
514.851 150.685 614.943
514.851 164.384 505.747
514.851 178.082 442.529
514.851 191.781 287.356
514.851 205.479 247.126
514.851 712.329 51.7241
514.851 726.027 155.172
514.851 739.726 178.161
514.851 753.425 155.172
514.851 767.123 229.885
514.851 780.822 201.149
514.851 794.521 258.621
514.851 808.219 459.77
514.851 821.918 591.954
514.851 835.616 557.471
514.851 849.315 609.195
514.851 863.014 287.356
514.851 876.712 143.678
514.851 890.411 419.54
514.851 904.11 425.287
514.851 917.808 143.678
514.851 931.507 425.287
519.802 82.1918 431.034
519.802 95.8904 603.448
519.802 109.589 626.437
519.802 123.288 597.701
519.802 136.986 465.517
519.802 150.685 683.908
519.802 164.384 557.471
519.802 178.082 442.529
519.802 191.781 350.575
519.802 205.479 281.609
519.802 712.329 51.7241
519.802 726.027 160.92
519.802 739.726 206.897
519.802 753.425 166.667
519.802 767.123 160.92
519.802 780.822 224.138
519.802 794.521 287.356
519.802 808.219 482.759
519.802 821.918 563.218
519.802 835.616 436.782
519.802 849.315 511.494
519.802 863.014 350.575
519.802 876.712 143.678
519.802 890.411 419.54
519.802 904.11 425.287
519.802 917.808 143.678
519.802 931.507 425.287
524.752 95.8904 660.92
524.752 109.589 586.207
524.752 123.288 597.701
524.752 136.986 580.46
524.752 150.685 632.184
524.752 164.384 637.931
524.752 178.082 505.747
524.752 191.781 350.575
524.752 205.479 229.885
524.752 712.329 51.7241
524.752 726.027 160.92
524.752 739.726 206.897
524.752 753.425 183.908
524.752 767.123 166.667
524.752 780.822 172.414
524.752 794.521 436.782
524.752 808.219 591.954
524.752 821.918 431.034
524.752 835.616 574.713
524.752 849.315 471.264
524.752 863.014 419.54
524.752 876.712 143.678
524.752 890.411 419.54
524.752 904.11 425.287
524.752 917.808 143.678
524.752 931.507 425.287
529.703 95.8904 540.23
529.703 109.589 482.759
529.703 123.288 695.402
529.703 136.986 568.966
529.703 150.685 574.713
529.703 164.384 660.92
529.703 178.082 568.966
529.703 191.781 396.552
529.703 205.479 201.149
529.703 726.027 114.943
529.703 739.726 212.644
529.703 753.425 155.172
529.703 767.123 172.414
529.703 780.822 206.897
529.703 794.521 442.529
529.703 808.219 482.759
529.703 821.918 482.759
529.703 835.616 718.391
529.703 849.315 494.253
529.703 863.014 419.54
529.703 876.712 143.678
529.703 890.411 419.54
529.703 904.11 431.034
529.703 917.808 195.402
529.703 931.507 425.287
534.653 109.589 609.195
534.653 123.288 517.241
534.653 136.986 643.678
534.653 150.685 620.69
534.653 164.384 666.667
534.653 178.082 626.437
534.653 191.781 436.782
534.653 205.479 178.161
534.653 726.027 97.7011
534.653 739.726 212.644
534.653 753.425 155.172
534.653 767.123 172.414
534.653 780.822 206.897
534.653 794.521 206.897
534.653 808.219 511.494
534.653 821.918 660.92
534.653 835.616 620.69
534.653 849.315 356.322
534.653 863.014 425.287
534.653 876.712 201.149
534.653 890.411 425.287
534.653 904.11 143.678
534.653 917.808 252.874
534.653 931.507 425.287
539.604 109.589 396.552
539.604 123.288 477.011
539.604 136.986 649.425
539.604 150.685 643.678
539.604 164.384 580.46
539.604 178.082 574.713
539.604 191.781 465.517
539.604 205.479 183.908
539.604 726.027 97.7011
539.604 739.726 212.644
539.604 753.425 448.276
539.604 767.123 166.667
539.604 780.822 172.414
539.604 794.521 212.644
539.604 808.219 614.943
539.604 821.918 672.414
539.604 835.616 563.218
539.604 849.315 442.529
539.604 863.014 143.678
539.604 876.712 252.874
539.604 890.411 425.287
539.604 904.11 143.678
539.604 917.808 419.54
539.604 931.507 425.287
544.554 123.288 603.448
544.554 136.986 522.989
544.554 150.685 718.391
544.554 164.384 597.701
544.554 178.082 620.69
544.554 191.781 494.253
544.554 205.479 143.678
544.554 726.027 149.425
544.554 739.726 212.644
544.554 753.425 448.276
544.554 767.123 109.195
544.554 780.822 178.161
544.554 794.521 229.885
544.554 808.219 620.69
544.554 821.918 586.207
544.554 835.616 528.736
544.554 849.315 419.54
544.554 863.014 143.678
544.554 876.712 419.54
544.554 890.411 425.287
544.554 904.11 201.149
544.554 917.808 419.54
544.554 931.507 431.034
549.505 136.986 528.736
549.505 150.685 632.184
549.505 164.384 735.632
549.505 178.082 500
549.505 191.781 505.747
549.505 205.479 218.391
549.505 712.329 51.7241
549.505 726.027 160.92
549.505 739.726 212.644
549.505 753.425 448.276
549.505 767.123 425.287
549.505 780.822 132.184
549.505 794.521 264.368
549.505 808.219 540.23
549.505 821.918 660.92
549.505 835.616 551.724
549.505 849.315 436.782
549.505 863.014 195.402
549.505 876.712 419.54
549.505 890.411 143.678
549.505 904.11 252.874
549.505 917.808 425.287
549.505 931.507 143.678
554.455 136.986 247.126
554.455 150.685 603.448
554.455 164.384 603.448
554.455 178.082 574.713
554.455 191.781 563.218
554.455 205.479 333.333
554.455 712.329 51.7241
554.455 726.027 160.92
554.455 739.726 218.391
554.455 753.425 448.276
554.455 767.123 431.034
554.455 780.822 189.655
554.455 794.521 316.092
554.455 808.219 574.713
554.455 821.918 683.908
554.455 835.616 563.218
554.455 849.315 488.506
554.455 863.014 275.862
554.455 876.712 419.54
554.455 890.411 143.678
554.455 904.11 419.54
554.455 917.808 431.034
559.406 136.986 373.563
559.406 150.685 413.793
559.406 164.384 597.701
559.406 178.082 500
559.406 191.781 632.184
559.406 205.479 339.08
559.406 712.329 51.7241
559.406 726.027 160.92
559.406 739.726 218.391
559.406 753.425 448.276
559.406 767.123 431.034
559.406 780.822 247.126
559.406 794.521 350.575
559.406 808.219 591.954
559.406 821.918 603.448
559.406 835.616 477.011
559.406 849.315 454.023
559.406 863.014 563.218
559.406 876.712 448.276
559.406 890.411 224.138
559.406 904.11 442.529
559.406 917.808 201.149
564.356 136.986 477.011
564.356 150.685 379.31
564.356 164.384 632.184
564.356 178.082 603.448
564.356 191.781 666.667
564.356 205.479 362.069
564.356 712.329 51.7241
564.356 726.027 160.92
564.356 739.726 212.644
564.356 753.425 149.425
564.356 767.123 431.034
564.356 780.822 471.264
564.356 794.521 310.345
564.356 808.219 706.897
564.356 821.918 477.011
564.356 835.616 500
564.356 849.315 597.701
564.356 863.014 563.218
564.356 876.712 419.54
564.356 890.411 258.621
564.356 904.11 258.621
569.307 136.986 448.276
569.307 150.685 362.069
569.307 164.384 367.816
569.307 178.082 603.448
569.307 191.781 586.207
569.307 205.479 477.011
569.307 712.329 28.7356
569.307 726.027 114.943
569.307 739.726 212.644
569.307 753.425 143.678
569.307 767.123 436.782
569.307 780.822 511.494
569.307 794.521 287.356
569.307 808.219 471.264
569.307 821.918 500
569.307 835.616 597.701
569.307 849.315 419.54
574.257 136.986 574.713
574.257 150.685 333.333
574.257 164.384 321.839
574.257 178.082 609.195
574.257 191.781 580.46
574.257 205.479 477.011
574.257 726.027 126.437
574.257 739.726 155.172
574.257 753.425 166.667
574.257 767.123 448.276
574.257 780.822 252.874
574.257 794.521 206.897
574.257 808.219 494.253
574.257 821.918 597.701
579.208 123.288 247.126
579.208 136.986 557.471
579.208 150.685 310.345
579.208 164.384 373.563
579.208 178.082 563.218
579.208 191.781 563.218
579.208 205.479 431.034
579.208 726.027 86.2069
579.208 739.726 103.448
579.208 753.425 212.644
579.208 767.123 442.529
579.208 780.822 212.644
579.208 794.521 247.126
579.208 808.219 431.034
584.158 123.288 362.069
584.158 136.986 500
584.158 150.685 252.874
584.158 164.384 431.034
584.158 178.082 557.471
584.158 191.781 545.977
584.158 205.479 304.598
584.158 726.027 86.2069
584.158 739.726 172.414
584.158 753.425 212.644
584.158 767.123 425.287
584.158 780.822 270.115
584.158 794.521 143.678
589.109 123.288 373.563
589.109 136.986 431.034
589.109 150.685 333.333
589.109 164.384 396.552
589.109 178.082 557.471
589.109 191.781 482.759
589.109 205.479 160.92
589.109 726.027 80.4598
589.109 739.726 172.414
589.109 753.425 172.414
589.109 767.123 178.161
589.109 780.822 218.391
589.109 794.521 143.678
594.059 123.288 522.989
594.059 136.986 321.839
594.059 150.685 390.805
594.059 164.384 551.724
594.059 178.082 563.218
594.059 191.781 482.759
594.059 726.027 114.943
594.059 739.726 189.655
594.059 753.425 229.885
594.059 767.123 166.667
594.059 780.822 206.897
594.059 794.521 143.678
599.01 109.589 310.345
599.01 123.288 477.011
599.01 136.986 373.563
599.01 150.685 373.563
599.01 164.384 597.701
599.01 178.082 568.966
599.01 191.781 500
599.01 712.329 28.7356
599.01 726.027 160.92
599.01 739.726 172.414
599.01 753.425 235.632
599.01 767.123 160.92
599.01 780.822 241.379
599.01 794.521 143.678
603.96 109.589 413.793
603.96 123.288 454.023
603.96 136.986 367.816
603.96 150.685 321.839
603.96 164.384 632.184
603.96 178.082 614.943
603.96 191.781 500
603.96 712.329 28.7356
603.96 726.027 160.92
603.96 739.726 166.667
603.96 753.425 235.632
603.96 767.123 166.667
603.96 780.822 224.138
608.911 109.589 413.793
608.911 123.288 448.276
608.911 136.986 367.816
608.911 150.685 500
608.911 164.384 551.724
608.911 178.082 614.943
608.911 191.781 505.747
608.911 712.329 28.7356
608.911 726.027 178.161
608.911 739.726 120.69
608.911 753.425 218.391
608.911 767.123 172.414
608.911 780.822 252.874
613.861 109.589 413.793
613.861 123.288 448.276
613.861 136.986 367.816
613.861 150.685 500
613.861 164.384 362.069
613.861 178.082 603.448
613.861 191.781 500
613.861 465.753 28.7356
613.861 479.452 34.4828
613.861 712.329 63.2184
613.861 726.027 149.425
613.861 739.726 166.667
613.861 753.425 189.655
613.861 767.123 195.402
613.861 780.822 264.368
618.812 109.589 373.563
618.812 123.288 431.034
618.812 136.986 362.069
618.812 150.685 500
618.812 164.384 362.069
618.812 178.082 597.701
618.812 191.781 517.241
618.812 424.658 86.2069
618.812 438.356 143.678
618.812 452.055 126.437
618.812 465.753 201.149
618.812 479.452 201.149
618.812 493.151 91.954
618.812 712.329 51.7241
618.812 726.027 149.425
618.812 739.726 166.667
618.812 753.425 218.391
618.812 767.123 178.161
618.812 780.822 229.885
623.762 109.589 528.736
623.762 123.288 419.54
623.762 136.986 367.816
623.762 150.685 500
623.762 164.384 367.816
623.762 178.082 597.701
623.762 191.781 517.241
623.762 410.959 28.7356
623.762 424.658 149.425
