186.364 427.586 391.608
186.364 434.483 391.608
186.364 627.586 538.462
186.364 634.483 538.462
186.364 641.379 615.385
186.364 655.172 825.175
186.364 662.069 153.846
186.364 668.966 839.161
186.364 682.759 860.14
186.364 689.655 97.9021
186.364 696.552 860.14
186.364 703.448 811.189
186.364 710.345 167.832
186.364 717.241 818.182
186.364 731.034 818.182
186.364 737.931 83.9161
186.364 744.828 818.182
186.364 758.621 818.182
186.364 765.517 125.874
186.364 772.414 825.175
186.364 786.207 405.594
186.364 793.103 405.594
186.364 800 405.594
190.909 34.4828 524.476
190.909 41.3793 524.476
190.909 48.2759 517.483
190.909 55.1724 524.476
190.909 62.069 524.476
190.909 68.9655 517.483
190.909 75.8621 496.503
190.909 82.7586 496.503
190.909 89.6552 517.483
190.909 96.5517 517.483
190.909 103.448 503.497
190.909 110.345 475.524
190.909 117.241 496.503
190.909 137.931 503.497
190.909 158.621 475.524
190.909 165.517 475.524
190.909 172.414 482.517
190.909 200 496.503
190.909 206.897 496.503
190.909 213.793 503.497
190.909 220.69 510.49
190.909 227.586 510.49
190.909 268.966 482.517
190.909 275.862 538.462
190.909 282.759 538.462
190.909 289.655 538.462
190.909 296.552 685.315
190.909 303.448 685.315
190.909 310.345 685.315
190.909 317.241 818.182
190.909 324.138 818.182
190.909 331.034 825.175
190.909 337.931 839.161
190.909 344.828 839.161
190.909 351.724 867.133
190.909 358.621 748.252
190.909 365.517 748.252
190.909 372.414 811.189
190.909 379.31 874.126
190.909 386.207 307.692
190.909 393.103 881.119
190.909 400 888.112
190.909 406.897 391.608
190.909 413.793 874.126
190.909 420.69 398.601
190.909 427.586 398.601
190.909 434.483 391.608
190.909 641.379 538.462
190.909 655.172 818.182
190.909 662.069 48.951
190.909 668.966 825.175
190.909 682.759 860.14
190.909 689.655 174.825
190.909 696.552 860.14
190.909 703.448 811.189
190.909 710.345 153.846
190.909 717.241 811.189
190.909 731.034 811.189
190.909 737.931 111.888
190.909 744.828 818.182
190.909 758.621 818.182
190.909 765.517 314.685
190.909 772.414 825.175
190.909 786.207 405.594
190.909 793.103 405.594
190.909 800 405.594
195.455 48.2759 524.476
195.455 55.1724 524.476
195.455 62.069 524.476
195.455 68.9655 517.483
195.455 75.8621 503.497
195.455 82.7586 496.503
195.455 103.448 517.483
195.455 117.241 475.524
195.455 158.621 475.524
195.455 165.517 475.524
195.455 172.414 475.524
195.455 200 496.503
195.455 206.897 496.503
195.455 213.793 503.497
195.455 220.69 510.49
195.455 227.586 510.49
195.455 234.483 517.483
195.455 241.379 517.483
195.455 248.276 517.483
195.455 275.862 279.72
195.455 282.759 279.72
195.455 289.655 531.469
195.455 296.552 566.434
195.455 303.448 566.434
195.455 310.345 685.315
195.455 317.241 797.203
195.455 324.138 650.35
195.455 331.034 818.182
195.455 337.931 839.161
195.455 344.828 839.161
195.455 351.724 839.161
195.455 358.621 867.133
195.455 365.517 685.315
195.455 372.414 881.119
195.455 379.31 818.182
195.455 386.207 615.385
195.455 393.103 874.126
195.455 400 895.105
195.455 406.897 398.601
195.455 413.793 888.112
195.455 420.69 608.392
195.455 427.586 286.713
195.455 434.483 594.406
195.455 441.379 405.594
195.455 448.276 405.594
195.455 455.172 405.594
195.455 468.966 398.601
195.455 475.862 398.601
195.455 482.759 398.601
195.455 627.586 384.615
195.455 634.483 384.615
195.455 641.379 384.615
195.455 655.172 811.189
195.455 662.069 34.965
195.455 668.966 818.182
195.455 682.759 860.14
195.455 689.655 90.9091
195.455 696.552 853.147
195.455 703.448 811.189
195.455 710.345 125.874
195.455 717.241 818.182
195.455 731.034 811.189
195.455 737.931 174.825
195.455 744.828 818.182
195.455 758.621 825.175
195.455 765.517 279.72
195.455 772.414 825.175
195.455 786.207 650.35
195.455 793.103 412.587
195.455 800 643.357
200 55.1724 517.483
200 62.069 517.483
200 68.9655 517.483
200 75.8621 510.49
200 82.7586 503.497
200 89.6552 510.49
200 96.5517 510.49
200 103.448 510.49
200 172.414 475.524
200 200 699.301
200 206.897 699.301
200 213.793 678.322
200 220.69 671.329
200 227.586 685.315
200 234.483 517.483
200 241.379 517.483
200 248.276 517.483
200 275.862 265.734
200 282.759 265.734
200 289.655 286.713
200 296.552 573.427
200 303.448 573.427
200 310.345 566.434
200 317.241 790.21
200 324.138 650.35
200 331.034 797.203
200 337.931 832.168
200 344.828 832.168
200 351.724 839.161
200 358.621 860.14
200 365.517 671.329
200 372.414 867.133
200 379.31 818.182
200 386.207 475.524
200 393.103 860.14
200 400 895.105
200 406.897 314.685
200 413.793 895.105
200 420.69 622.378
200 427.586 279.72
200 434.483 601.399
200 441.379 587.413
200 448.276 272.727
200 455.172 587.413
200 468.966 398.601
200 475.862 398.601
200 482.759 398.601
200 489.655 398.601
200 496.552 398.601
200 503.448 398.601
200 627.586 384.615
200 634.483 384.615
200 641.379 384.615
200 655.172 769.231
200 662.069 405.594
200 668.966 811.189
200 682.759 860.14
200 689.655 160.839
200 696.552 860.14
200 703.448 846.154
200 710.345 293.706
200 717.241 846.154
200 731.034 839.161
200 737.931 419.58
200 744.828 846.154
200 758.621 839.161
200 765.517 321.678
200 772.414 839.161
200 786.207 769.231
200 793.103 482.517
200 800 769.231
204.545 55.1724 517.483
204.545 62.069 517.483
204.545 68.9655 517.483
204.545 75.8621 510.49
204.545 82.7586 510.49
204.545 89.6552 510.49
204.545 96.5517 510.49
204.545 103.448 510.49
204.545 110.345 510.49
204.545 117.241 510.49
204.545 124.138 510.49
204.545 131.034 510.49
204.545 137.931 510.49
204.545 158.621 496.503
204.545 165.517 496.503
204.545 172.414 496.503
204.545 200 489.51
204.545 206.897 489.51
204.545 213.793 692.308
204.545 220.69 664.336
204.545 227.586 678.322
204.545 234.483 517.483
204.545 241.379 517.483
204.545 248.276 517.483
204.545 255.172 517.483
204.545 262.069 517.483
204.545 268.966 517.483
204.545 275.862 265.734
204.545 282.759 265.734
204.545 289.655 265.734
204.545 296.552 559.441
204.545 303.448 559.441
204.545 310.345 566.434
204.545 317.241 783.217
204.545 324.138 643.357
204.545 331.034 790.21
204.545 337.931 818.182
204.545 344.828 818.182
204.545 351.724 832.168
204.545 358.621 818.182
204.545 365.517 818.182
204.545 372.414 860.14
204.545 379.31 881.119
204.545 386.207 573.427
204.545 393.103 902.098
204.545 400 902.098
204.545 406.897 405.594
204.545 413.793 902.098
204.545 420.69 853.147
204.545 427.586 685.315
204.545 434.483 853.147
204.545 441.379 594.406
204.545 448.276 272.727
204.545 455.172 587.413
204.545 468.966 405.594
204.545 475.862 405.594
204.545 482.759 398.601
204.545 489.655 398.601
204.545 496.552 398.601
204.545 503.448 398.601
204.545 641.379 384.615
204.545 655.172 615.385
204.545 662.069 538.462
204.545 668.966 769.231
204.545 682.759 860.14
204.545 689.655 118.881
204.545 696.552 860.14
204.545 703.448 853.147
204.545 710.345 97.9021
204.545 717.241 846.154
204.545 731.034 853.147
204.545 737.931 244.755
204.545 744.828 853.147
204.545 758.621 860.14
204.545 765.517 405.594
204.545 772.414 867.133
204.545 786.207 825.175
204.545 793.103 475.524
204.545 800 825.175
209.091 55.1724 517.483
209.091 62.069 517.483
209.091 68.9655 517.483
209.091 82.7586 510.49
209.091 89.6552 517.483
209.091 96.5517 517.483
209.091 103.448 510.49
209.091 110.345 510.49
209.091 117.241 510.49
209.091 124.138 510.49
209.091 131.034 510.49
209.091 137.931 510.49
209.091 158.621 503.497
209.091 165.517 503.497
209.091 172.414 503.497
209.091 179.31 510.49
209.091 186.207 510.49
209.091 193.103 510.49
209.091 200 496.503
209.091 206.897 496.503
209.091 213.793 496.503
209.091 220.69 496.503
209.091 227.586 664.336
209.091 234.483 720.28
209.091 241.379 720.28
209.091 248.276 720.28
209.091 255.172 517.483
209.091 262.069 517.483
209.091 268.966 517.483
209.091 275.862 265.734
209.091 282.759 265.734
209.091 289.655 265.734
209.091 296.552 293.706
209.091 303.448 293.706
209.091 310.345 559.441
209.091 317.241 594.406
209.091 324.138 594.406
209.091 331.034 790.21
209.091 337.931 762.238
209.091 344.828 762.238
209.091 351.724 818.182
209.091 358.621 818.182
209.091 365.517 818.182
209.091 372.414 818.182
209.091 379.31 874.126
209.091 386.207 678.322
209.091 393.103 881.119
209.091 400 909.091
209.091 406.897 230.769
209.091 413.793 909.091
209.091 420.69 860.14
209.091 427.586 314.685
209.091 434.483 860.14
209.091 441.379 692.308
209.091 448.276 447.552
209.091 455.172 685.315
209.091 468.966 594.406
209.091 475.862 272.727
209.091 482.759 594.406
209.091 489.655 405.594
209.091 496.552 405.594
209.091 503.448 398.601
209.091 655.172 384.615
209.091 662.069 384.615
209.091 668.966 615.385
209.091 682.759 804.196
209.091 689.655 461.538
209.091 696.552 860.14
209.091 703.448 832.168
209.091 710.345 174.825
209.091 717.241 846.154
209.091 731.034 853.147
209.091 737.931 146.853
209.091 744.828 853.147
209.091 758.621 867.133
209.091 765.517 104.895
209.091 772.414 874.126
209.091 786.207 860.14
209.091 793.103 454.545
209.091 800 860.14
209.091 813.793 706.294
209.091 820.69 706.294
209.091 827.586 706.294
213.636 55.1724 517.483
213.636 62.069 517.483
213.636 68.9655 517.483
213.636 103.448 517.483
213.636 117.241 510.49
213.636 124.138 517.483
213.636 131.034 517.483
213.636 137.931 510.49
213.636 158.621 510.49
213.636 165.517 510.49
213.636 172.414 503.497
213.636 179.31 510.49
213.636 186.207 510.49
213.636 193.103 510.49
213.636 200 510.49
213.636 206.897 510.49
213.636 213.793 496.503
213.636 220.69 503.497
213.636 227.586 496.503
213.636 234.483 524.476
213.636 241.379 524.476
213.636 248.276 720.28
213.636 255.172 510.49
213.636 262.069 510.49
213.636 268.966 517.483
213.636 275.862 545.455
213.636 282.759 545.455
213.636 289.655 545.455
213.636 296.552 300.699
213.636 303.448 300.699
213.636 310.345 293.706
213.636 317.241 377.622
213.636 324.138 377.622
213.636 331.034 594.406
213.636 337.931 727.273
213.636 344.828 727.273
213.636 351.724 762.238
213.636 358.621 811.189
213.636 365.517 811.189
213.636 372.414 811.189
213.636 379.31 881.119
213.636 386.207 685.315
213.636 393.103 874.126
213.636 400 909.091
213.636 406.897 223.776
213.636 413.793 909.091
213.636 420.69 860.14
213.636 427.586 314.685
213.636 434.483 860.14
213.636 441.379 790.21
213.636 448.276 391.608
213.636 455.172 783.217
213.636 468.966 692.308
213.636 475.862 447.552
213.636 482.759 692.308
213.636 489.655 405.594
213.636 496.552 405.594
213.636 503.448 405.594
213.636 531.034 454.545
213.636 537.931 454.545
213.636 544.828 454.545
213.636 606.897 454.545
213.636 613.793 454.545
213.636 620.69 454.545
213.636 655.172 384.615
213.636 662.069 384.615
213.636 668.966 384.615
213.636 682.759 685.315
213.636 689.655 643.357
213.636 696.552 804.196
213.636 703.448 790.21
213.636 710.345 328.671
213.636 717.241 839.161
213.636 731.034 825.175
213.636 737.931 370.629
213.636 744.828 853.147
213.636 758.621 867.133
213.636 765.517 6.99301
213.636 772.414 867.133
213.636 786.207 874.126
213.636 793.103 76.9231
213.636 800 867.133
213.636 813.793 832.168
213.636 820.69 706.294
213.636 827.586 832.168
213.636 841.379 692.308
213.636 848.276 692.308
213.636 855.172 692.308
213.636 868.966 587.413
213.636 875.862 587.413
213.636 882.759 587.413
218.182 68.9655 517.483
218.182 124.138 517.483
218.182 131.034 517.483
218.182 137.931 517.483
218.182 172.414 510.49
218.182 193.103 510.49
218.182 200 517.483
218.182 206.897 517.483
218.182 213.793 510.49
218.182 220.69 510.49
218.182 227.586 503.497
218.182 234.483 524.476
218.182 241.379 524.476
218.182 248.276 524.476
218.182 255.172 503.497
218.182 262.069 503.497
218.182 268.966 517.483
218.182 275.862 545.455
218.182 282.759 545.455
218.182 289.655 545.455
218.182 296.552 573.427
218.182 303.448 573.427
218.182 310.345 573.427
218.182 317.241 377.622
218.182 324.138 377.622
218.182 331.034 377.622
218.182 337.931 720.28
218.182 344.828 720.28
218.182 351.724 727.273
218.182 358.621 769.231
218.182 365.517 769.231
218.182 372.414 818.182
218.182 379.31 881.119
218.182 386.207 685.315
218.182 393.103 874.126
218.182 400 937.063
218.182 406.897 328.671
218.182 413.793 937.063
218.182 420.69 909.091
218.182 427.586 230.769
218.182 434.483 909.091
218.182 441.379 825.175
218.182 448.276 384.615
218.182 455.172 825.175
218.182 468.966 825.175
218.182 475.862 391.608
218.182 482.759 818.182
218.182 489.655 594.406
218.182 496.552 272.727
218.182 503.448 594.406
218.182 531.034 447.552
218.182 537.931 447.552
218.182 544.828 447.552
218.182 606.897 454.545
218.182 613.793 454.545
218.182 620.69 454.545
218.182 655.172 461.538
218.182 662.069 461.538
218.182 668.966 587.413
218.182 682.759 440.559
218.182 689.655 440.559
218.182 696.552 727.273
218.182 703.448 622.378
218.182 710.345 622.378
218.182 717.241 804.196
218.182 731.034 776.224
218.182 737.931 272.727
218.182 744.828 825.175
218.182 758.621 867.133
218.182 765.517 90.9091
218.182 772.414 867.133
218.182 786.207 881.119
218.182 793.103 0
218.182 800 874.126
218.182 813.793 839.161
218.182 820.69 286.713
218.182 827.586 839.161
218.182 841.379 748.252
218.182 848.276 447.552
218.182 855.172 748.252
218.182 868.966 685.315
218.182 875.862 559.441
218.182 882.759 685.315
218.182 896.552 370.629
218.182 903.448 370.629
218.182 910.345 370.629
222.727 137.931 517.483
222.727 213.793 517.483
222.727 220.69 517.483
222.727 227.586 510.49
222.727 234.483 720.28
222.727 241.379 720.28
222.727 248.276 720.28
222.727 255.172 531.469
222.727 262.069 531.469
222.727 268.966 713.287
222.727 275.862 552.448
222.727 282.759 552.448
222.727 289.655 552.448
222.727 296.552 573.427
222.727 303.448 573.427
222.727 310.345 573.427
222.727 317.241 622.378
222.727 324.138 622.378
222.727 331.034 622.378
222.727 337.931 594.406
222.727 344.828 594.406
222.727 351.724 776.224
222.727 358.621 720.28
222.727 365.517 720.28
222.727 372.414 804.196
222.727 379.31 832.168
222.727 386.207 832.168
222.727 393.103 881.119
222.727 400 937.063
222.727 406.897 503.497
222.727 413.793 951.049
222.727 420.69 923.077
222.727 427.586 209.79
222.727 434.483 923.077
222.727 441.379 874.126
222.727 448.276 433.566
222.727 455.172 874.126
222.727 468.966 832.168
222.727 475.862 307.692
222.727 482.759 825.175
222.727 489.655 755.245
222.727 496.552 356.643
222.727 503.448 748.252
222.727 510.345 615.385
222.727 517.241 615.385
222.727 524.138 615.385
222.727 531.034 615.385
222.727 537.931 615.385
222.727 544.828 615.385
222.727 558.621 608.392
222.727 565.517 608.392
222.727 572.414 608.392
222.727 606.897 454.545
222.727 613.793 454.545
222.727 620.69 454.545
222.727 627.586 454.545
222.727 634.483 454.545
222.727 641.379 454.545
222.727 655.172 454.545
222.727 662.069 454.545
222.727 668.966 454.545
222.727 682.759 713.287
222.727 689.655 454.545
222.727 696.552 713.287
222.727 703.448 664.336
222.727 710.345 664.336
222.727 717.241 692.308
222.727 731.034 720.28
222.727 737.931 531.469
222.727 744.828 797.203
222.727 758.621 881.119
222.727 765.517 160.839
222.727 772.414 881.119
222.727 786.207 895.105
222.727 800 888.112
222.727 813.793 846.154
222.727 820.69 167.832
222.727 827.586 839.161
222.727 841.379 783.217
222.727 848.276 461.538
222.727 855.172 776.224
222.727 868.966 748.252
222.727 875.862 496.503
222.727 882.759 748.252
222.727 896.552 587.413
222.727 903.448 510.49
222.727 910.345 587.413
227.273 200 524.476
227.273 206.897 524.476
227.273 213.793 517.483
227.273 220.69 510.49
227.273 227.586 517.483
227.273 234.483 720.28
227.273 241.379 720.28
227.273 248.276 720.28
227.273 255.172 706.294
227.273 262.069 706.294
227.273 268.966 706.294
227.273 275.862 559.441
227.273 282.759 559.441
227.273 289.655 685.315
227.273 296.552 573.427
227.273 303.448 573.427
227.273 310.345 573.427
227.273 317.241 622.378
227.273 324.138 622.378
227.273 331.034 622.378
227.273 337.931 601.399
227.273 344.828 601.399
227.273 351.724 594.406
227.273 358.621 594.406
227.273 365.517 594.406
227.273 372.414 720.28
227.273 379.31 853.147
227.273 386.207 706.294
227.273 393.103 860.14
227.273 400 916.084
227.273 406.897 594.406
227.273 413.793 937.063
227.273 420.69 923.077
227.273 427.586 370.629
227.273 434.483 923.077
227.273 441.379 923.077
227.273 448.276 370.629
227.273 455.172 923.077
227.273 468.966 860.14
227.273 475.862 412.587
227.273 482.759 860.14
227.273 489.655 846.154
227.273 496.552 398.601
227.273 503.448 839.161
227.273 510.345 776.224
227.273 517.241 566.434
227.273 524.138 776.224
227.273 531.034 713.287
227.273 537.931 713.287
227.273 544.828 713.287
227.273 558.621 615.385
227.273 565.517 615.385
227.273 572.414 615.385
227.273 579.31 433.566
227.273 586.207 433.566
227.273 593.103 433.566
227.273 606.897 454.545
227.273 613.793 454.545
227.273 620.69 454.545
227.273 627.586 454.545
227.273 634.483 454.545
227.273 641.379 454.545
227.273 655.172 643.357
227.273 662.069 643.357
227.273 668.966 643.357
227.273 682.759 811.189
227.273 689.655 461.538
227.273 696.552 811.189
227.273 703.448 720.28
227.273 710.345 720.28
227.273 717.241 734.266
227.273 731.034 860.14
227.273 737.931 860.14
227.273 744.828 860.14
227.273 758.621 916.084
227.273 765.517 293.706
227.273 772.414 895.105
227.273 786.207 916.084
227.273 800 902.098
227.273 813.793 853.147
227.273 820.69 209.79
227.273 827.586 846.154
227.273 841.379 797.203
227.273 848.276 279.72
227.273 855.172 790.21
227.273 868.966 755.245
227.273 875.862 272.727
227.273 882.759 755.245
227.273 896.552 587.413
227.273 903.448 223.776
227.273 910.345 587.413
231.818 200 524.476
231.818 206.897 524.476
231.818 213.793 510.49
231.818 220.69 503.497
231.818 227.586 517.483
231.818 234.483 692.308
231.818 241.379 692.308
231.818 248.276 699.301
231.818 255.172 706.294
231.818 262.069 706.294
231.818 268.966 706.294
231.818 275.862 699.301
231.818 282.759 699.301
231.818 289.655 699.301
231.818 296.552 783.217
231.818 303.448 783.217
231.818 310.345 783.217
231.818 317.241 622.378
231.818 324.138 622.378
231.818 331.034 622.378
231.818 337.931 601.399
231.818 344.828 601.399
231.818 351.724 601.399
231.818 358.621 601.399
231.818 365.517 601.399
231.818 372.414 594.406
231.818 379.31 804.196
231.818 386.207 482.517
231.818 393.103 874.126
231.818 400 881.119
231.818 406.897 713.287
231.818 413.793 909.091
231.818 420.69 944.056
231.818 427.586 531.469
231.818 434.483 951.049
231.818 441.379 916.084
231.818 448.276 370.629
231.818 455.172 916.084
231.818 468.966 909.091
231.818 475.862 454.545
231.818 482.759 909.091
231.818 489.655 853.147
231.818 496.552 251.748
231.818 503.448 846.154
231.818 510.345 811.189
231.818 517.241 468.531
231.818 524.138 804.196
231.818 531.034 713.287
231.818 537.931 209.79
231.818 544.828 713.287
231.818 558.621 440.559
231.818 565.517 440.559
231.818 572.414 615.385
231.818 579.31 713.287
231.818 586.207 713.287
231.818 593.103 713.287
231.818 606.897 454.545
231.818 613.793 454.545
231.818 620.69 454.545
231.818 627.586 447.552
231.818 634.483 447.552
231.818 641.379 622.378
231.818 655.172 643.357
231.818 662.069 643.357
231.818 668.966 643.357
231.818 682.759 867.133
231.818 689.655 608.392
231.818 696.552 867.133
231.818 703.448 804.196
231.818 710.345 804.196
231.818 717.241 804.196
231.818 731.034 874.126
231.818 737.931 398.601
231.818 744.828 874.126
231.818 758.621 923.077
231.818 765.517 55.9441
231.818 772.414 916.084
231.818 786.207 930.07
231.818 800 916.084
231.818 813.793 867.133
231.818 820.69 118.881
231.818 827.586 853.147
231.818 841.379 797.203
231.818 848.276 321.678
231.818 855.172 797.203
231.818 868.966 769.231
231.818 875.862 405.594
231.818 882.759 769.231
231.818 896.552 510.49
231.818 903.448 510.49
231.818 910.345 587.413
236.364 213.793 524.476
236.364 227.586 503.497
236.364 234.483 552.448
236.364 241.379 552.448
236.364 248.276 692.308
236.364 255.172 706.294
236.364 262.069 706.294
236.364 268.966 706.294
236.364 275.862 706.294
236.364 282.759 706.294
236.364 289.655 699.301
236.364 296.552 783.217
236.364 303.448 783.217
236.364 310.345 783.217
236.364 317.241 622.378
236.364 324.138 622.378
236.364 331.034 622.378
236.364 337.931 713.287
236.364 344.828 713.287
236.364 351.724 706.294
236.364 358.621 601.399
236.364 365.517 601.399
236.364 372.414 601.399
236.364 379.31 790.21
236.364 386.207 587.413
236.364 393.103 804.196
236.364 400 881.119
236.364 406.897 573.427
236.364 413.793 888.112
236.364 420.69 881.119
236.364 427.586 713.287
236.364 434.483 944.056
236.364 441.379 909.091
236.364 448.276 370.629
236.364 455.172 916.084
236.364 468.966 916.084
236.364 475.862 272.727
236.364 482.759 916.084
236.364 489.655 881.119
236.364 496.552 356.643
236.364 503.448 881.119
236.364 510.345 818.182
236.364 517.241 293.706
236.364 524.138 811.189
236.364 531.034 629.371
236.364 537.931 300.699
236.364 544.828 713.287
236.364 558.621 713.287
236.364 565.517 713.287
236.364 572.414 713.287
236.364 579.31 797.203
236.364 586.207 461.538
236.364 593.103 797.203
236.364 606.897 755.245
236.364 613.793 755.245
236.364 620.69 797.203
236.364 627.586 727.273
236.364 634.483 727.273
236.364 641.379 727.273
236.364 655.172 825.175
236.364 662.069 825.175
236.364 668.966 825.175
236.364 682.759 902.098
236.364 689.655 412.587
236.364 696.552 902.098
236.364 703.448 860.14
236.364 710.345 748.252
236.364 717.241 853.147
236.364 731.034 881.119
236.364 737.931 454.545
236.364 744.828 881.119
236.364 758.621 930.07
236.364 765.517 48.951
236.364 772.414 923.077
236.364 786.207 944.056
236.364 800 930.07
236.364 813.793 867.133
236.364 820.69 34.965
236.364 827.586 860.14
236.364 841.379 797.203
236.364 848.276 118.881
236.364 855.172 797.203
236.364 868.966 776.224
236.364 875.862 223.776
236.364 882.759 776.224
236.364 896.552 608.392
236.364 903.448 447.552
236.364 910.345 615.385
240.909 0 510.49
240.909 6.89655 510.49
240.909 13.7931 510.49
240.909 103.448 461.538
240.909 110.345 461.538
240.909 117.241 461.538
240.909 234.483 503.497
240.909 241.379 503.497
240.909 248.276 552.448
240.909 255.172 769.231
240.909 262.069 559.441
240.909 268.966 769.231
240.909 275.862 720.28
240.909 282.759 720.28
240.909 289.655 706.294
240.909 296.552 713.287
240.909 303.448 713.287
240.909 310.345 783.217
240.909 317.241 720.28
240.909 324.138 720.28
240.909 331.034 720.28
240.909 337.931 713.287
240.909 344.828 713.287
240.909 351.724 713.287
240.909 358.621 608.392
240.909 365.517 608.392
240.909 372.414 601.399
240.909 379.31 727.273
240.909 386.207 727.273
240.909 393.103 790.21
240.909 400 881.119
240.909 406.897 510.49
240.909 413.793 909.091
240.909 420.69 874.126
240.909 427.586 727.273
240.909 434.483 881.119
240.909 441.379 909.091
240.909 448.276 440.559
240.909 455.172 902.098
240.909 468.966 909.091
240.909 475.862 363.636
240.909 482.759 916.084
240.909 489.655 888.112
240.909 496.552 300.699
240.909 503.448 888.112
240.909 510.345 881.119
240.909 517.241 419.58
240.909 524.138 881.119
240.909 531.034 811.189
240.909 537.931 566.434
240.909 544.828 811.189
240.909 558.621 811.189
240.909 565.517 461.538
240.909 572.414 804.196
240.909 579.31 762.238
240.909 586.207 573.427
240.909 593.103 797.203
240.909 606.897 797.203
240.909 613.793 293.706
240.909 620.69 797.203
240.909 627.586 783.217
240.909 634.483 566.434
240.909 641.379 811.189
240.909 655.172 867.133
240.909 662.069 734.266
240.909 668.966 881.119
240.909 682.759 916.084
240.909 689.655 314.685
240.909 696.552 916.084
240.909 703.448 888.112
240.909 710.345 468.531
240.909 717.241 888.112
240.909 731.034 888.112
240.909 737.931 629.371
240.909 744.828 902.098
240.909 758.621 944.056
240.909 765.517 90.9091
240.909 772.414 930.07
240.909 786.207 951.049
240.909 800 944.056
240.909 813.793 846.154
240.909 820.69 0
240.909 827.586 860.14
240.909 841.379 790.21
240.909 855.172 797.203
240.909 868.966 776.224
240.909 875.862 41.958
240.909 882.759 776.224
240.909 896.552 671.329
240.909 903.448 300.699
240.909 910.345 671.329
245.455 0 510.49
245.455 6.89655 510.49
245.455 13.7931 510.49
245.455 20.6897 496.503
245.455 27.5862 496.503
245.455 34.4828 489.51
245.455 41.3793 489.51
245.455 48.2759 489.51
245.455 55.1724 482.517
245.455 62.069 482.517
245.455 68.9655 482.517
245.455 89.6552 657.343
245.455 96.5517 657.343
245.455 103.448 650.35
245.455 110.345 461.538
245.455 117.241 461.538
245.455 144.828 643.357
245.455 151.724 643.357
245.455 158.621 643.357
245.455 248.276 503.497
245.455 255.172 678.322
245.455 262.069 328.671
245.455 268.966 769.231
245.455 275.862 720.28
245.455 282.759 720.28
245.455 289.655 720.28
245.455 296.552 720.28
245.455 303.448 720.28
245.455 310.345 713.287
245.455 317.241 839.161
245.455 324.138 657.343
245.455 331.034 839.161
245.455 337.931 720.28
245.455 344.828 720.28
245.455 351.724 713.287
245.455 358.621 608.392
245.455 365.517 608.392
245.455 372.414 608.392
245.455 379.31 727.273
245.455 386.207 727.273
245.455 393.103 727.273
245.455 400 860.14
245.455 406.897 580.42
245.455 413.793 888.112
245.455 420.69 881.119
245.455 427.586 573.427
245.455 434.483 881.119
245.455 441.379 923.077
245.455 448.276 664.336
245.455 455.172 951.049
245.455 468.966 937.063
245.455 475.862 447.552
245.455 482.759 930.07
245.455 489.655 916.084
245.455 496.552 433.566
245.455 503.448 923.077
245.455 510.345 888.112
245.455 517.241 356.643
245.455 524.138 888.112
245.455 531.034 839.161
245.455 537.931 398.601
245.455 544.828 832.168
245.455 558.621 895.105
245.455 565.517 419.58
245.455 572.414 895.105
245.455 579.31 762.238
245.455 586.207 559.441
245.455 593.103 762.238
245.455 606.897 846.154
245.455 613.793 552.448
245.455 620.69 860.14
245.455 627.586 825.175
245.455 634.483 664.336
245.455 641.379 846.154
245.455 655.172 902.098
245.455 662.069 517.483
245.455 668.966 902.098
245.455 682.759 916.084
245.455 689.655 258.741
245.455 696.552 923.077
245.455 703.448 916.084
245.455 710.345 559.441
245.455 717.241 916.084
245.455 731.034 902.098
245.455 737.931 237.762
245.455 744.828 902.098
245.455 758.621 944.056
245.455 765.517 97.9021
245.455 772.414 944.056
245.455 786.207 951.049
245.455 800 951.049
245.455 813.793 818.182
245.455 827.586 839.161
245.455 841.379 783.217
245.455 848.276 27.972
245.455 855.172 790.21
245.455 868.966 769.231
245.455 882.759 776.224
245.455 896.552 692.308
245.455 903.448 356.643
245.455 910.345 692.308
250 0 517.483
250 6.89655 517.483
250 13.7931 510.49
250 20.6897 503.497
250 27.5862 503.497
250 34.4828 496.503
250 41.3793 489.51
250 48.2759 489.51
250 55.1724 489.51
250 62.069 489.51
250 68.9655 489.51
250 75.8621 489.51
250 82.7586 489.51
250 89.6552 657.343
250 96.5517 657.343
250 103.448 657.343
250 110.345 461.538
250 117.241 461.538
250 124.138 650.35
250 131.034 650.35
250 137.931 650.35
250 144.828 643.357
250 151.724 293.706
250 158.621 643.357
250 255.172 482.517
250 262.069 482.517
250 268.966 678.322
250 275.862 538.462
250 282.759 538.462
250 289.655 720.28
250 296.552 713.287
250 303.448 713.287
250 310.345 713.287
250 317.241 853.147
250 324.138 685.315
250 331.034 839.161
250 337.931 797.203
250 344.828 797.203
250 351.724 790.21
250 358.621 790.21
250 365.517 790.21
250 372.414 783.217
250 379.31 615.385
250 386.207 615.385
250 393.103 727.273
250 400 797.203
250 406.897 601.399
250 413.793 860.14
250 420.69 846.154
250 427.586 678.322
250 434.483 895.105
250 441.379 930.07
250 448.276 566.434
250 455.172 930.07
250 468.966 951.049
250 475.862 293.706
250 482.759 944.056
250 489.655 916.084
250 496.552 314.685
250 503.448 916.084
250 510.345 888.112
250 517.241 531.469
250 524.138 902.098
250 531.034 860.14
250 537.931 216.783
250 544.828 881.119
250 558.621 881.119
250 565.517 307.692
250 572.414 895.105
250 579.31 811.189
250 586.207 643.357
250 593.103 839.161
250 606.897 874.126
250 613.793 293.706
250 620.69 874.126
250 627.586 804.196
250 634.483 804.196
250 641.379 881.119
250 655.172 916.084
250 662.069 209.79
250 668.966 916.084
250 682.759 923.077
250 689.655 216.783
250 696.552 930.07
250 703.448 923.077
250 710.345 265.734
250 717.241 923.077
250 731.034 930.07
250 737.931 356.643
250 744.828 930.07
250 758.621 951.049
250 765.517 181.818
250 772.414 951.049
250 786.207 944.056
250 800 951.049
250 813.793 804.196
250 827.586 818.182
250 841.379 776.224
250 848.276 20.979
250 855.172 783.217
250 868.966 762.238
250 882.759 769.231
250 896.552 720.28
250 903.448 454.545
250 910.345 720.28
254.545 13.7931 517.483
254.545 20.6897 517.483
254.545 27.5862 517.483
254.545 34.4828 503.497
254.545 41.3793 496.503
254.545 48.2759 489.51
254.545 55.1724 496.503
254.545 62.069 496.503
254.545 68.9655 489.51
254.545 75.8621 489.51
254.545 82.7586 489.51
254.545 89.6552 664.336
254.545 96.5517 664.336
254.545 103.448 657.343
254.545 110.345 461.538
254.545 117.241 461.538
254.545 124.138 650.35
254.545 131.034 293.706
254.545 137.931 650.35
254.545 144.828 643.357
254.545 151.724 643.357
254.545 158.621 643.357
254.545 255.172 482.517
254.545 262.069 482.517
254.545 268.966 482.517
254.545 275.862 482.517
254.545 282.759 482.517
254.545 289.655 706.294
254.545 296.552 510.49
254.545 303.448 510.49
254.545 310.345 713.287
254.545 317.241 853.147
254.545 324.138 685.315
254.545 331.034 846.154
254.545 337.931 804.196
254.545 344.828 804.196
254.545 351.724 804.196
254.545 358.621 797.203
254.545 365.517 797.203
254.545 372.414 790.21
254.545 379.31 797.203
254.545 386.207 797.203
254.545 393.103 790.21
254.545 400 797.203
254.545 406.897 594.406
254.545 413.793 797.203
254.545 420.69 818.182
254.545 427.586 818.182
254.545 434.483 846.154
254.545 441.379 909.091
254.545 448.276 510.49
254.545 455.172 930.07
254.545 468.966 958.042
254.545 475.862 286.713
254.545 482.759 951.049
254.545 489.655 944.056
254.545 496.552 384.615
254.545 503.448 937.063
254.545 510.345 881.119
254.545 517.241 342.657
254.545 524.138 888.112
254.545 531.034 916.084
254.545 537.931 342.657
254.545 544.828 916.084
254.545 558.621 888.112
254.545 565.517 307.692
254.545 572.414 902.098
254.545 579.31 909.091
254.545 586.207 622.378
254.545 593.103 902.098
254.545 606.897 874.126
254.545 613.793 300.699
254.545 620.69 888.112
254.545 627.586 916.084
254.545 634.483 825.175
254.545 641.379 916.084
254.545 655.172 916.084
254.545 662.069 272.727
254.545 668.966 923.077
254.545 682.759 930.07
254.545 689.655 132.867
254.545 696.552 930.07
254.545 703.448 930.07
254.545 710.345 62.9371
254.545 717.241 930.07
254.545 731.034 930.07
254.545 737.931 83.9161
254.545 744.828 930.07
254.545 758.621 951.049
254.545 772.414 951.049
254.545 786.207 930.07
254.545 800 944.056
254.545 813.793 783.217
254.545 827.586 797.203
254.545 841.379 769.231
254.545 848.276 13.986
254.545 855.172 776.224
254.545 868.966 755.245
254.545 875.862 6.99301
254.545 882.759 762.238
254.545 896.552 713.287
254.545 903.448 349.65
254.545 910.345 727.273
259.091 20.6897 517.483
259.091 27.5862 517.483
259.091 34.4828 510.49
259.091 41.3793 496.503
259.091 48.2759 496.503
259.091 55.1724 496.503
259.091 62.069 496.503
259.091 68.9655 489.51
259.091 75.8621 489.51
259.091 82.7586 489.51
259.091 89.6552 769.231
259.091 96.5517 769.231
259.091 103.448 762.238
259.091 110.345 468.531
259.091 117.241 468.531
259.091 124.138 755.245
259.091 131.034 755.245
259.091 137.931 797.203
259.091 144.828 650.35
259.091 151.724 300.699
259.091 158.621 643.357
259.091 213.793 482.517
259.091 220.69 482.517
259.091 227.586 482.517
259.091 268.966 482.517
259.091 275.862 482.517
259.091 282.759 482.517
259.091 289.655 482.517
259.091 296.552 503.497
259.091 303.448 503.497
259.091 310.345 510.49
259.091 317.241 790.21
259.091 324.138 594.406
259.091 331.034 853.147
259.091 337.931 818.182
259.091 344.828 818.182
259.091 351.724 804.196
259.091 358.621 832.168
259.091 365.517 832.168
259.091 372.414 832.168
259.091 379.31 804.196
259.091 386.207 804.196
259.091 393.103 797.203
259.091 400 846.154
259.091 406.897 671.329
259.091 413.793 846.154
259.091 420.69 797.203
259.091 427.586 594.406
259.091 434.483 853.147
259.091 441.379 825.175
259.091 448.276 825.175
259.091 455.172 909.091
259.091 468.966 958.042
259.091 475.862 286.713
259.091 482.759 958.042
259.091 489.655 951.049
259.091 496.552 349.65
259.091 503.448 944.056
259.091 510.345 916.084
259.091 517.241 629.371
259.091 524.138 916.084
259.091 531.034 895.105
259.091 537.931 293.706
259.091 544.828 916.084
259.091 558.621 923.077
259.091 565.517 335.664
259.091 572.414 923.077
259.091 579.31 930.07
259.091 586.207 188.811
259.091 593.103 923.077
259.091 606.897 902.098
259.091 613.793 629.371
259.091 620.69 916.084
259.091 627.586 909.091
259.091 634.483 384.615
259.091 641.379 923.077
259.091 655.172 916.084
259.091 662.069 293.706
259.091 668.966 923.077
259.091 682.759 930.07
259.091 689.655 13.986
259.091 696.552 930.07
259.091 703.448 930.07
259.091 710.345 69.9301
259.091 717.241 930.07
259.091 731.034 930.07
259.091 737.931 181.818
259.091 744.828 930.07
259.091 758.621 951.049
259.091 772.414 951.049
259.091 786.207 909.091
259.091 800 930.07
259.091 813.793 776.224
259.091 827.586 783.217
259.091 841.379 762.238
259.091 848.276 20.979
259.091 855.172 769.231
259.091 868.966 748.252
259.091 875.862 34.965
259.091 882.759 755.245
259.091 896.552 713.287
259.091 903.448 125.874
259.091 910.345 720.28
259.091 924.138 587.413
259.091 931.034 587.413
259.091 937.931 587.413
263.636 20.6897 517.483
263.636 27.5862 517.483
263.636 34.4828 510.49
263.636 41.3793 496.503
263.636 48.2759 496.503
263.636 55.1724 489.51
263.636 62.069 489.51
263.636 68.9655 489.51
263.636 75.8621 489.51
263.636 82.7586 489.51
263.636 89.6552 678.322
263.636 96.5517 678.322
263.636 103.448 818.182
263.636 110.345 755.245
263.636 117.241 748.252
263.636 124.138 811.189
263.636 131.034 594.406
263.636 137.931 811.189
263.636 144.828 748.252
263.636 151.724 748.252
263.636 158.621 804.196
263.636 165.517 489.51
263.636 172.414 489.51
263.636 179.31 482.517
263.636 186.207 482.517
263.636 193.103 482.517
263.636 213.793 482.517
263.636 220.69 482.517
263.636 227.586 482.517
263.636 275.862 482.517
263.636 282.759 482.517
263.636 289.655 482.517
263.636 296.552 475.524
263.636 303.448 475.524
263.636 310.345 678.322
263.636 317.241 783.217
263.636 324.138 580.42
263.636 331.034 790.21
263.636 337.931 755.245
263.636 344.828 755.245
263.636 351.724 818.182
263.636 358.621 797.203
263.636 365.517 580.42
263.636 372.414 839.161
263.636 379.31 811.189
263.636 386.207 811.189
263.636 393.103 804.196
263.636 400 811.189
263.636 406.897 811.189
263.636 413.793 846.154
263.636 420.69 804.196
263.636 427.586 594.406
263.636 434.483 804.196
263.636 441.379 853.147
263.636 448.276 685.315
263.636 455.172 860.14
263.636 468.966 944.056
263.636 475.862 517.483
263.636 482.759 958.042
263.636 489.655 951.049
263.636 496.552 454.545
263.636 503.448 951.049
263.636 510.345 930.07
263.636 517.241 384.615
263.636 524.138 923.077
263.636 531.034 888.112
263.636 537.931 475.524
263.636 544.828 909.091
263.636 558.621 923.077
263.636 565.517 538.462
263.636 572.414 930.07
263.636 579.31 923.077
263.636 586.207 272.727
263.636 593.103 930.07
263.636 606.897 902.098
263.636 613.793 475.524
263.636 620.69 909.091
263.636 627.586 909.091
263.636 634.483 237.762
263.636 641.379 916.084
263.636 655.172 923.077
263.636 662.069 167.832
263.636 668.966 923.077
263.636 682.759 916.084
263.636 689.655 76.9231
263.636 696.552 930.07
263.636 703.448 923.077
263.636 710.345 69.9301
263.636 717.241 923.077
263.636 731.034 937.063
263.636 737.931 118.881
263.636 744.828 937.063
263.636 758.621 951.049
263.636 772.414 951.049
263.636 786.207 888.112
263.636 793.103 0
263.636 800 909.091
263.636 813.793 762.238
263.636 827.586 769.231
263.636 841.379 755.245
263.636 848.276 55.9441
263.636 855.172 762.238
263.636 868.966 741.259
263.636 875.862 13.986
263.636 882.759 748.252
263.636 896.552 713.287
263.636 903.448 83.9161
263.636 910.345 713.287
263.636 924.138 657.343
263.636 931.034 384.615
263.636 937.931 657.343
263.636 951.724 335.664
263.636 958.621 335.664
263.636 965.517 335.664
268.182 20.6897 517.483
268.182 27.5862 517.483
268.182 34.4828 510.49
268.182 41.3793 496.503
268.182 48.2759 496.503
268.182 55.1724 489.51
268.182 62.069 489.51
268.182 68.9655 489.51
268.182 75.8621 489.51
268.182 82.7586 489.51
268.182 89.6552 678.322
268.182 96.5517 678.322
268.182 103.448 853.147
268.182 110.345 489.51
268.182 117.241 853.147
268.182 124.138 818.182
268.182 131.034 377.622
268.182 137.931 811.189
268.182 144.828 755.245
268.182 151.724 496.503
268.182 158.621 811.189
268.182 165.517 489.51
268.182 172.414 489.51
268.182 179.31 482.517
268.182 186.207 482.517
268.182 193.103 482.517
268.182 227.586 482.517
268.182 255.172 482.517
268.182 262.069 482.517
268.182 268.966 482.517
268.182 275.862 482.517
268.182 282.759 482.517
268.182 289.655 482.517
268.182 296.552 657.343
268.182 303.448 475.524
268.182 310.345 657.343
268.182 317.241 580.42
268.182 324.138 580.42
268.182 331.034 790.21
268.182 337.931 804.196
268.182 344.828 559.441
268.182 351.724 804.196
268.182 358.621 804.196
268.182 365.517 608.392
268.182 372.414 790.21
268.182 379.31 825.175
268.182 386.207 825.175
268.182 393.103 818.182
268.182 400 846.154
268.182 406.897 664.336
268.182 413.793 839.161
268.182 420.69 650.35
268.182 427.586 650.35
268.182 434.483 804.196
268.182 441.379 797.203
268.182 448.276 594.406
268.182 455.172 853.147
268.182 468.966 944.056
268.182 475.862 580.42
268.182 482.759 951.049
268.182 489.655 951.049
268.182 496.552 356.643
268.182 503.448 951.049
268.182 510.345 930.07
268.182 517.241 608.392
268.182 524.138 937.063
268.182 531.034 916.084
268.182 537.931 671.329
268.182 544.828 916.084
268.182 558.621 923.077
268.182 565.517 433.566
268.182 572.414 916.084
268.182 579.31 937.063
268.182 586.207 272.727
268.182 593.103 937.063
268.182 606.897 916.084
268.182 613.793 335.664
268.182 620.69 916.084
268.182 627.586 909.091
268.182 634.483 377.622
268.182 641.379 909.091
268.182 655.172 930.07
268.182 662.069 76.9231
268.182 668.966 937.063
268.182 682.759 923.077
268.182 689.655 76.9231
268.182 696.552 916.084
268.182 703.448 930.07
268.182 710.345 321.678
268.182 717.241 937.063
268.182 731.034 944.056
268.182 737.931 20.979
268.182 744.828 944.056
268.182 758.621 951.049
268.182 772.414 951.049
268.182 786.207 867.133
268.182 800 888.112
268.182 813.793 762.238
268.182 827.586 769.231
268.182 841.379 748.252
268.182 848.276 111.888
268.182 855.172 755.245
268.182 868.966 734.266
268.182 875.862 0
268.182 882.759 741.259
268.182 896.552 713.287
268.182 903.448 41.958
268.182 910.345 713.287
268.182 924.138 664.336
268.182 931.034 139.86
268.182 937.931 657.343
268.182 951.724 335.664
268.182 958.621 335.664
268.182 965.517 335.664
272.727 20.6897 517.483
272.727 27.5862 517.483
272.727 34.4828 510.49
272.727 41.3793 496.503
272.727 48.2759 496.503
272.727 55.1724 489.51
272.727 62.069 489.51
272.727 68.9655 489.51
272.727 75.8621 489.51
272.727 82.7586 489.51
272.727 89.6552 671.329
272.727 96.5517 671.329
272.727 103.448 846.154
272.727 110.345 671.329
272.727 117.241 846.154
272.727 124.138 825.175
272.727 131.034 384.615
272.727 137.931 818.182
272.727 144.828 825.175
272.727 151.724 377.622
272.727 158.621 811.189
272.727 165.517 489.51
272.727 172.414 489.51
272.727 193.103 482.517
272.727 255.172 482.517
272.727 262.069 482.517
272.727 268.966 482.517
272.727 289.655 482.517
272.727 296.552 657.343
272.727 303.448 475.524
272.727 310.345 657.343
272.727 331.034 580.42
272.727 337.931 475.524
272.727 344.828 475.524
272.727 351.724 804.196
272.727 358.621 608.392
272.727 365.517 608.392
272.727 372.414 804.196
272.727 379.31 811.189
272.727 386.207 615.385
272.727 393.103 853.147
272.727 400 846.154
272.727 406.897 671.329
272.727 413.793 846.154
272.727 420.69 755.245
272.727 427.586 755.245
272.727 434.483 755.245
272.727 441.379 734.266
272.727 448.276 734.266
272.727 455.172 804.196
272.727 468.966 895.105
272.727 475.862 601.399
272.727 482.759 944.056
272.727 489.655 958.042
272.727 496.552 447.552
272.727 503.448 965.035
272.727 510.345 930.07
272.727 517.241 377.622
272.727 524.138 930.07
272.727 531.034 944.056
272.727 537.931 482.517
272.727 544.828 944.056
272.727 558.621 923.077
272.727 565.517 335.664
272.727 572.414 923.077
272.727 579.31 930.07
272.727 586.207 272.727
272.727 593.103 937.063
272.727 606.897 916.084
272.727 613.793 426.573
272.727 620.69 916.084
272.727 627.586 923.077
272.727 634.483 349.65
272.727 641.379 923.077
272.727 655.172 937.063
272.727 662.069 83.9161
272.727 668.966 937.063
272.727 682.759 923.077
272.727 689.655 118.881
272.727 696.552 923.077
272.727 703.448 923.077
272.727 710.345 251.748
272.727 717.241 923.077
272.727 731.034 951.049
272.727 737.931 13.986
272.727 744.828 944.056
272.727 758.621 951.049
272.727 772.414 951.049
272.727 786.207 860.14
272.727 800 867.133
272.727 813.793 769.231
272.727 820.69 20.979
272.727 827.586 762.238
272.727 841.379 741.259
272.727 855.172 748.252
272.727 868.966 727.273
272.727 875.862 6.99301
272.727 882.759 734.266
272.727 896.552 706.294
272.727 910.345 713.287
272.727 924.138 650.35
272.727 931.034 139.86
272.727 937.931 657.343
272.727 951.724 335.664
272.727 958.621 335.664
272.727 965.517 335.664
277.273 0 517.483
277.273 6.89655 517.483
277.273 13.7931 517.483
277.273 20.6897 517.483
277.273 27.5862 517.483
277.273 34.4828 510.49
277.273 41.3793 496.503
277.273 48.2759 496.503
277.273 55.1724 489.51
277.273 62.069 489.51
277.273 68.9655 489.51
277.273 75.8621 489.51
277.273 82.7586 489.51
277.273 89.6552 804.196
277.273 96.5517 601.399
277.273 103.448 874.126
277.273 110.345 615.385
277.273 117.241 874.126
277.273 124.138 825.175
277.273 131.034 391.608
277.273 137.931 825.175
277.273 144.828 825.175
277.273 151.724 377.622
277.273 158.621 825.175
277.273 165.517 769.231
277.273 172.414 769.231
277.273 179.31 678.322
277.273 186.207 678.322
277.273 193.103 678.322
277.273 255.172 482.517
277.273 262.069 482.517
277.273 268.966 482.517
277.273 275.862 664.336
277.273 282.759 664.336
277.273 289.655 664.336
277.273 296.552 657.343
277.273 303.448 475.524
277.273 310.345 657.343
277.273 317.241 475.524
277.273 324.138 475.524
277.273 331.034 475.524
277.273 337.931 475.524
277.273 344.828 475.524
277.273 351.724 475.524
277.273 358.621 503.497
277.273 365.517 503.497
277.273 372.414 608.392
277.273 379.31 804.196
277.273 386.207 608.392
277.273 393.103 811.189
277.273 400 839.161
277.273 406.897 671.329
277.273 413.793 874.126
277.273 420.69 818.182
277.273 427.586 818.182
277.273 434.483 825.175
277.273 441.379 748.252
277.273 448.276 748.252
277.273 455.172 734.266
277.273 468.966 867.133
277.273 475.862 699.301
277.273 482.759 895.105
277.273 489.655 951.049
277.273 496.552 398.601
277.273 503.448 958.042
277.273 510.345 937.063
277.273 517.241 552.448
277.273 524.138 930.07
277.273 531.034 944.056
277.273 537.931 342.657
277.273 544.828 944.056
277.273 558.621 923.077
277.273 565.517 433.566
277.273 572.414 923.077
277.273 579.31 923.077
277.273 586.207 272.727
277.273 593.103 930.07
277.273 606.897 923.077
277.273 613.793 188.811
277.273 620.69 923.077
277.273 627.586 930.07
277.273 634.483 342.657
277.273 641.379 930.07
277.273 655.172 937.063
277.273 662.069 62.9371
277.273 668.966 937.063
277.273 682.759 937.063
277.273 689.655 181.818
277.273 696.552 930.07
277.273 703.448 930.07
277.273 710.345 258.741
277.273 717.241 930.07
277.273 731.034 951.049
277.273 737.931 48.951
277.273 744.828 951.049
277.273 758.621 951.049
277.273 772.414 951.049
277.273 786.207 853.147
277.273 800 860.14
277.273 813.793 769.231
277.273 820.69 48.951
277.273 827.586 769.231
277.273 841.379 741.259
277.273 848.276 0
277.273 855.172 741.259
277.273 868.966 727.273
277.273 875.862 0
277.273 882.759 727.273
277.273 896.552 692.308
277.273 903.448 0
277.273 910.345 706.294
277.273 924.138 629.371
277.273 931.034 335.664
277.273 937.931 650.35
277.273 951.724 335.664
277.273 958.621 335.664
277.273 965.517 335.664
281.818 0 517.483
281.818 6.89655 517.483
281.818 13.7931 517.483
281.818 20.6897 510.49
281.818 27.5862 510.49
281.818 34.4828 510.49
281.818 41.3793 496.503
281.818 48.2759 496.503
281.818 55.1724 489.51
281.818 62.069 489.51
281.818 68.9655 489.51
281.818 75.8621 489.51
281.818 82.7586 489.51
281.818 89.6552 804.196
281.818 96.5517 167.832
281.818 103.448 874.126
281.818 110.345 321.678
281.818 117.241 874.126
281.818 124.138 818.182
281.818 131.034 384.615
281.818 137.931 825.175
281.818 144.828 860.14
281.818 151.724 489.51
281.818 158.621 860.14
281.818 165.517 216.783
281.818 172.414 769.231
281.818 179.31 671.329
281.818 186.207 671.329
281.818 193.103 671.329
281.818 213.793 489.51
281.818 220.69 489.51
281.818 227.586 489.51
281.818 234.483 503.497
281.818 241.379 503.497
281.818 248.276 503.497
281.818 255.172 496.503
281.818 262.069 496.503
281.818 268.966 671.329
281.818 275.862 769.231
281.818 282.759 489.51
281.818 289.655 769.231
281.818 296.552 664.336
281.818 303.448 664.336
281.818 310.345 657.343
281.818 317.241 657.343
281.818 324.138 293.706
281.818 331.034 657.343
281.818 337.931 475.524
281.818 344.828 475.524
281.818 351.724 475.524
281.818 372.414 503.497
281.818 379.31 797.203
281.818 386.207 552.448
281.818 393.103 811.189
281.818 400 846.154
281.818 406.897 503.497
281.818 413.793 839.161
281.818 420.69 755.245
281.818 427.586 755.245
281.818 434.483 818.182
281.818 441.379 832.168
281.818 448.276 832.168
281.818 455.172 832.168
281.818 468.966 881.119
281.818 475.862 727.273
281.818 482.759 916.084
281.818 489.655 944.056
281.818 496.552 573.427
281.818 503.448 951.049
281.818 510.345 944.056
281.818 517.241 377.622
281.818 524.138 944.056
281.818 531.034 937.063
281.818 537.931 335.664
281.818 544.828 951.049
281.818 558.621 937.063
281.818 565.517 482.517
281.818 572.414 937.063
281.818 579.31 923.077
281.818 586.207 300.699
281.818 593.103 930.07
281.818 606.897 923.077
281.818 613.793 594.406
281.818 620.69 930.07
281.818 627.586 937.063
281.818 634.483 195.804
281.818 641.379 937.063
281.818 655.172 937.063
281.818 662.069 69.9301
281.818 668.966 937.063
281.818 682.759 944.056
281.818 689.655 167.832
281.818 696.552 944.056
281.818 703.448 937.063
281.818 710.345 125.874
281.818 717.241 937.063
281.818 731.034 951.049
281.818 744.828 951.049
281.818 758.621 944.056
281.818 772.414 951.049
281.818 786.207 839.161
281.818 800 853.147
281.818 813.793 762.238
281.818 820.69 20.979
281.818 827.586 769.231
281.818 841.379 734.266
281.818 855.172 741.259
281.818 868.966 720.28
281.818 875.862 83.9161
281.818 882.759 727.273
281.818 896.552 692.308
281.818 910.345 692.308
281.818 924.138 538.462
281.818 931.034 335.664
281.818 937.931 629.371
281.818 965.517 335.664
286.364 0 517.483
286.364 6.89655 517.483
286.364 13.7931 517.483
286.364 20.6897 503.497
286.364 27.5862 503.497
286.364 34.4828 503.497
286.364 41.3793 496.503
286.364 48.2759 496.503
286.364 55.1724 489.51
286.364 62.069 489.51
286.364 68.9655 489.51
286.364 82.7586 489.51
286.364 89.6552 818.182
286.364 96.5517 391.608
286.364 103.448 874.126
286.364 110.345 321.678
286.364 117.241 881.119
286.364 124.138 853.147
286.364 131.034 307.692
286.364 137.931 860.14
286.364 144.828 825.175
286.364 151.724 160.839
286.364 158.621 853.147
286.364 165.517 594.406
286.364 172.414 811.189
286.364 179.31 678.322
286.364 186.207 307.692
286.364 193.103 769.231
286.364 200 503.497
286.364 206.897 503.497
286.364 213.793 678.322
286.364 220.69 307.692
286.364 227.586 678.322
286.364 234.483 489.51
286.364 241.379 489.51
286.364 248.276 489.51
286.364 255.172 678.322
286.364 262.069 678.322
286.364 268.966 678.322
286.364 275.862 769.231
286.364 282.759 678.322
286.364 289.655 762.238
286.364 296.552 762.238
286.364 303.448 489.51
286.364 310.345 762.238
286.364 317.241 762.238
286.364 324.138 496.503
286.364 331.034 762.238
286.364 337.931 475.524
286.364 344.828 475.524
286.364 351.724 475.524
286.364 358.621 475.524
286.364 365.517 475.524
286.364 372.414 475.524
286.364 379.31 650.35
286.364 386.207 293.706
286.364 393.103 839.161
286.364 400 839.161
286.364 406.897 552.448
286.364 413.793 846.154
286.364 420.69 804.196
