162.037 448.276 319.767
162.037 459.77 186.047
162.037 471.264 517.442
162.037 482.759 366.279
162.037 494.253 552.326
162.037 505.747 511.628
162.037 517.241 511.628
162.037 528.736 517.442
162.037 540.23 517.442
162.037 551.724 540.698
162.037 563.218 372.093
162.037 574.713 366.279
162.037 586.207 453.488
162.037 597.701 319.767
162.037 609.195 319.767
162.037 620.69 377.907
162.037 632.184 366.279
162.037 643.678 366.279
162.037 655.172 366.279
162.037 666.667 366.279
162.037 678.161 366.279
162.037 689.655 366.279
162.037 701.149 366.279
162.037 712.644 372.093
162.037 724.138 372.093
162.037 735.632 372.093
162.037 747.126 372.093
162.037 758.621 372.093
162.037 770.115 372.093
162.037 781.609 279.07
162.037 793.103 377.907
162.037 804.598 377.907
162.037 816.092 377.907
162.037 827.586 377.907
162.037 839.08 383.721
162.037 850.575 383.721
162.037 862.069 383.721
162.037 873.563 75.5814
162.037 885.057 331.395
162.037 896.552 383.721
162.037 908.046 383.721
162.037 919.54 383.721
162.037 931.034 279.07
162.037 942.529 377.907
166.667 206.897 372.093
166.667 218.391 372.093
166.667 229.885 372.093
166.667 241.379 372.093
166.667 252.874 372.093
166.667 264.368 372.093
166.667 275.862 273.256
166.667 287.356 523.256
166.667 298.851 279.07
166.667 310.345 488.372
166.667 321.839 418.605
166.667 333.333 465.116
166.667 344.828 360.465
166.667 356.322 488.372
166.667 367.816 308.14
166.667 379.31 308.14
166.667 390.805 552.326
166.667 402.299 494.186
166.667 413.793 558.14
166.667 425.287 418.605
166.667 436.782 302.326
166.667 448.276 401.163
166.667 459.77 238.372
166.667 471.264 75.5814
166.667 482.759 313.953
166.667 494.253 616.279
166.667 505.747 511.628
166.667 517.241 517.442
166.667 528.736 529.07
166.667 540.23 517.442
166.667 551.724 372.093
166.667 563.218 377.907
166.667 574.713 377.907
166.667 586.207 540.698
166.667 597.701 377.907
166.667 609.195 232.558
166.667 620.69 319.767
166.667 632.184 366.279
166.667 643.678 366.279
166.667 655.172 366.279
166.667 666.667 366.279
166.667 678.161 366.279
166.667 689.655 366.279
166.667 701.149 366.279
166.667 712.644 372.093
166.667 724.138 372.093
166.667 735.632 372.093
166.667 747.126 377.907
166.667 758.621 377.907
166.667 770.115 377.907
166.667 781.609 81.3953
166.667 793.103 331.395
166.667 804.598 377.907
166.667 816.092 377.907
166.667 827.586 377.907
166.667 839.08 383.721
166.667 850.575 383.721
166.667 862.069 383.721
166.667 873.563 383.721
166.667 885.057 284.884
166.667 896.552 383.721
166.667 908.046 383.721
166.667 919.54 395.349
166.667 931.034 180.233
166.667 942.529 383.721
171.296 218.391 372.093
171.296 229.885 372.093
171.296 241.379 372.093
171.296 252.874 372.093
171.296 264.368 372.093
171.296 275.862 319.767
171.296 287.356 581.395
171.296 298.851 343.023
171.296 310.345 459.302
171.296 321.839 500
171.296 333.333 500
171.296 344.828 424.419
171.296 356.322 308.14
171.296 367.816 366.279
171.296 379.31 395.349
171.296 390.805 459.302
171.296 402.299 436.047
171.296 413.793 523.256
171.296 425.287 459.302
171.296 436.782 302.326
171.296 448.276 459.302
171.296 459.77 284.884
171.296 471.264 110.465
171.296 482.759 389.535
171.296 494.253 598.837
171.296 505.747 517.442
171.296 517.241 517.442
171.296 528.736 558.14
171.296 540.23 534.884
171.296 551.724 523.256
171.296 563.218 406.977
171.296 574.713 401.163
171.296 586.207 389.535
171.296 597.701 354.651
171.296 609.195 366.279
171.296 620.69 226.744
171.296 632.184 319.767
171.296 643.678 372.093
171.296 655.172 372.093
171.296 666.667 366.279
171.296 678.161 366.279
171.296 689.655 372.093
171.296 701.149 372.093
171.296 712.644 372.093
171.296 724.138 372.093
171.296 735.632 377.907
171.296 747.126 377.907
171.296 758.621 377.907
171.296 770.115 377.907
171.296 781.609 377.907
171.296 793.103 279.07
171.296 804.598 377.907
171.296 816.092 377.907
171.296 827.586 377.907
171.296 839.08 383.721
171.296 850.575 383.721
171.296 862.069 383.721
171.296 873.563 389.535
171.296 885.057 180.233
171.296 896.552 383.721
171.296 908.046 383.721
171.296 919.54 127.907
171.296 931.034 226.744
171.296 942.529 383.721
175.926 229.885 372.093
175.926 241.379 372.093
175.926 252.874 372.093
175.926 264.368 372.093
175.926 275.862 372.093
175.926 287.356 273.256
175.926 298.851 412.791
175.926 310.345 424.419
175.926 321.839 540.698
175.926 333.333 494.186
175.926 344.828 424.419
175.926 356.322 308.14
175.926 367.816 453.488
175.926 379.31 250
175.926 390.805 459.302
175.926 402.299 436.047
175.926 413.793 563.953
175.926 425.287 482.558
175.926 436.782 250
175.926 448.276 418.605
175.926 459.77 284.884
175.926 471.264 156.977
175.926 482.759 424.419
175.926 494.253 377.907
175.926 505.747 482.558
175.926 517.241 517.442
175.926 528.736 523.256
175.926 540.23 558.14
175.926 551.724 523.256
175.926 563.218 401.163
175.926 574.713 436.047
175.926 586.207 389.535
175.926 597.701 354.651
175.926 609.195 377.907
175.926 620.69 354.651
175.926 632.184 226.744
175.926 643.678 319.767
175.926 655.172 372.093
175.926 666.667 372.093
175.926 678.161 372.093
175.926 689.655 372.093
175.926 701.149 372.093
175.926 712.644 372.093
175.926 724.138 372.093
175.926 735.632 377.907
175.926 747.126 377.907
175.926 758.621 377.907
175.926 770.115 377.907
175.926 781.609 383.721
175.926 793.103 180.233
175.926 804.598 377.907
175.926 816.092 377.907
175.926 827.586 383.721
175.926 839.08 383.721
175.926 850.575 383.721
175.926 862.069 383.721
175.926 873.563 127.907
175.926 885.057 232.558
175.926 896.552 383.721
175.926 908.046 383.721
175.926 919.54 127.907
175.926 931.034 383.721
175.926 942.529 383.721
180.556 229.885 372.093
180.556 241.379 372.093
180.556 252.874 372.093
180.556 264.368 372.093
180.556 275.862 372.093
180.556 287.356 319.767
180.556 298.851 581.395
180.556 310.345 273.256
180.556 321.839 308.14
180.556 333.333 383.721
180.556 344.828 424.419
180.556 356.322 308.14
180.556 367.816 366.279
180.556 379.31 366.279
180.556 390.805 465.116
180.556 402.299 401.163
180.556 413.793 523.256
180.556 425.287 406.977
180.556 436.782 366.279
180.556 448.276 389.535
180.556 459.77 308.14
180.556 471.264 116.279
180.556 482.759 500
180.556 494.253 505.814
180.556 505.747 430.233
180.556 517.241 488.372
180.556 528.736 523.256
180.556 540.23 523.256
180.556 551.724 523.256
180.556 563.218 558.14
180.556 574.713 389.535
180.556 586.207 354.651
180.556 597.701 354.651
180.556 609.195 354.651
180.556 620.69 354.651
180.556 632.184 354.651
180.556 643.678 226.744
180.556 655.172 319.767
180.556 666.667 372.093
180.556 678.161 372.093
180.556 689.655 372.093
180.556 701.149 372.093
180.556 712.644 372.093
180.556 724.138 372.093
180.556 735.632 377.907
180.556 747.126 377.907
180.556 758.621 377.907
180.556 770.115 377.907
180.556 781.609 127.907
180.556 793.103 226.744
180.556 804.598 377.907
180.556 816.092 383.721
180.556 827.586 383.721
180.556 839.08 383.721
180.556 850.575 383.721
180.556 862.069 383.721
180.556 873.563 127.907
180.556 885.057 383.721
180.556 896.552 383.721
180.556 908.046 383.721
180.556 919.54 127.907
180.556 931.034 383.721
180.556 942.529 383.721
185.185 241.379 372.093
185.185 252.874 372.093
185.185 264.368 372.093
185.185 275.862 377.907
185.185 287.356 377.907
185.185 298.851 273.256
185.185 310.345 372.093
185.185 321.839 424.419
185.185 333.333 505.814
185.185 344.828 459.302
185.185 356.322 255.814
185.185 367.816 290.698
185.185 379.31 290.698
185.185 390.805 389.535
185.185 402.299 424.419
185.185 413.793 459.302
185.185 425.287 313.953
185.185 436.782 290.698
185.185 448.276 290.698
185.185 459.77 383.721
185.185 471.264 87.2093
185.185 482.759 465.116
185.185 494.253 511.628
185.185 505.747 500
185.185 517.241 436.047
185.185 528.736 482.558
185.185 540.23 523.256
185.185 551.724 529.07
185.185 563.218 645.349
185.185 574.713 529.07
185.185 586.207 354.651
185.185 597.701 354.651
185.185 609.195 354.651
185.185 620.69 354.651
185.185 632.184 354.651
185.185 643.678 354.651
185.185 655.172 180.233
185.185 666.667 273.256
185.185 678.161 319.767
185.185 689.655 372.093
185.185 701.149 372.093
185.185 712.644 372.093
185.185 724.138 372.093
185.185 735.632 377.907
185.185 747.126 377.907
185.185 758.621 377.907
185.185 770.115 377.907
185.185 781.609 127.907
185.185 793.103 377.907
185.185 804.598 383.721
185.185 816.092 383.721
185.185 827.586 383.721
185.185 839.08 383.721
185.185 850.575 383.721
185.185 862.069 389.535
185.185 873.563 180.233
185.185 885.057 383.721
185.185 896.552 383.721
185.185 908.046 389.535
185.185 919.54 180.233
185.185 931.034 383.721
185.185 942.529 383.721
189.815 241.379 372.093
189.815 252.874 372.093
189.815 264.368 377.907
189.815 275.862 377.907
189.815 287.356 377.907
189.815 298.851 325.581
189.815 310.345 465.116
189.815 321.839 348.837
189.815 333.333 505.814
189.815 344.828 453.488
189.815 356.322 325.581
189.815 367.816 377.907
189.815 379.31 482.558
189.815 390.805 337.209
189.815 402.299 500
189.815 413.793 383.721
189.815 425.287 348.837
189.815 436.782 360.465
189.815 448.276 203.488
189.815 459.77 313.953
189.815 471.264 5.81395
189.815 482.759 308.14
189.815 494.253 500
189.815 505.747 610.465
189.815 517.241 505.814
189.815 528.736 418.605
189.815 540.23 453.488
189.815 551.724 494.186
189.815 563.218 639.535
189.815 574.713 511.628
189.815 586.207 354.651
189.815 597.701 354.651
189.815 609.195 354.651
189.815 620.69 354.651
189.815 632.184 354.651
189.815 643.678 360.465
189.815 655.172 360.465
189.815 666.667 383.721
189.815 678.161 226.744
189.815 689.655 319.767
189.815 701.149 372.093
189.815 712.644 372.093
189.815 724.138 372.093
189.815 735.632 377.907
189.815 747.126 377.907
189.815 758.621 377.907
189.815 770.115 383.721
189.815 781.609 180.233
189.815 793.103 383.721
189.815 804.598 383.721
189.815 816.092 383.721
189.815 827.586 383.721
189.815 839.08 383.721
189.815 850.575 383.721
189.815 862.069 127.907
189.815 873.563 226.744
189.815 885.057 383.721
189.815 896.552 383.721
189.815 908.046 127.907
189.815 919.54 226.744
189.815 931.034 383.721
189.815 942.529 383.721
194.444 252.874 372.093
194.444 264.368 377.907
194.444 275.862 377.907
194.444 287.356 377.907
194.444 298.851 377.907
194.444 310.345 418.605
194.444 321.839 395.349
194.444 333.333 505.814
194.444 344.828 418.605
194.444 356.322 436.047
194.444 367.816 319.767
194.444 379.31 406.977
194.444 390.805 401.163
194.444 402.299 436.047
194.444 413.793 430.233
194.444 425.287 372.093
194.444 436.782 232.558
194.444 448.276 87.2093
194.444 459.77 93.0233
194.444 471.264 372.093
194.444 482.759 244.186
194.444 494.253 558.14
194.444 505.747 558.14
194.444 517.241 505.814
194.444 528.736 505.814
194.444 540.23 529.07
194.444 551.724 430.233
194.444 563.218 593.023
194.444 574.713 511.628
194.444 586.207 511.628
194.444 597.701 360.465
194.444 609.195 354.651
194.444 620.69 360.465
194.444 632.184 360.465
194.444 643.678 360.465
194.444 655.172 360.465
194.444 666.667 360.465
194.444 678.161 360.465
194.444 689.655 226.744
194.444 701.149 325.581
194.444 712.644 372.093
194.444 724.138 372.093
194.444 735.632 377.907
194.444 747.126 377.907
194.444 758.621 377.907
194.444 770.115 133.721
194.444 781.609 232.558
194.444 793.103 383.721
194.444 804.598 383.721
194.444 816.092 383.721
194.444 827.586 383.721
194.444 839.08 383.721
194.444 850.575 383.721
194.444 862.069 127.907
194.444 873.563 383.721
194.444 885.057 383.721
194.444 896.552 383.721
194.444 908.046 127.907
194.444 919.54 383.721
194.444 931.034 383.721
194.444 942.529 383.721
199.074 57.4713 366.279
199.074 68.9655 366.279
199.074 80.4598 366.279
199.074 264.368 377.907
199.074 275.862 377.907
199.074 287.356 377.907
199.074 298.851 325.581
199.074 310.345 348.837
199.074 321.839 331.395
199.074 333.333 470.93
199.074 344.828 488.372
199.074 356.322 337.209
199.074 367.816 436.047
199.074 379.31 418.605
199.074 390.805 430.233
199.074 402.299 436.047
199.074 413.793 279.07
199.074 425.287 255.814
199.074 436.782 133.721
199.074 471.264 209.302
199.074 482.759 34.8837
199.074 494.253 424.419
199.074 505.747 558.14
199.074 517.241 558.14
199.074 528.736 511.628
199.074 540.23 511.628
199.074 551.724 511.628
199.074 563.218 500
199.074 574.713 453.488
199.074 586.207 482.558
199.074 597.701 511.628
199.074 609.195 360.465
199.074 620.69 360.465
199.074 632.184 360.465
199.074 643.678 360.465
199.074 655.172 360.465
199.074 666.667 366.279
199.074 678.161 366.279
199.074 689.655 366.279
199.074 701.149 226.744
199.074 712.644 325.581
199.074 724.138 377.907
199.074 735.632 377.907
199.074 747.126 377.907
199.074 758.621 383.721
199.074 770.115 180.233
199.074 781.609 383.721
199.074 793.103 383.721
199.074 804.598 383.721
199.074 816.092 383.721
199.074 827.586 383.721
199.074 839.08 383.721
199.074 850.575 389.535
199.074 862.069 180.233
199.074 873.563 383.721
199.074 885.057 383.721
199.074 896.552 383.721
199.074 908.046 127.907
199.074 919.54 383.721
199.074 931.034 383.721
199.074 942.529 383.721
199.074 954.023 58.1395
203.704 22.9885 360.465
203.704 34.4828 366.279
203.704 45.977 366.279
203.704 57.4713 366.279
203.704 68.9655 366.279
203.704 80.4598 366.279
203.704 91.954 366.279
203.704 103.448 366.279
203.704 114.943 366.279
203.704 264.368 377.907
203.704 275.862 377.907
203.704 287.356 325.581
203.704 298.851 215.116
203.704 310.345 360.465
203.704 321.839 418.605
203.704 333.333 430.233
203.704 344.828 325.581
203.704 356.322 412.791
203.704 367.816 401.163
203.704 379.31 412.791
203.704 390.805 395.349
203.704 402.299 226.744
203.704 413.793 255.814
203.704 425.287 162.791
203.704 482.759 302.326
203.704 494.253 232.558
203.704 505.747 389.535
203.704 517.241 505.814
203.704 528.736 511.628
203.704 540.23 517.442
203.704 551.724 593.023
203.704 563.218 569.767
203.704 574.713 627.907
203.704 586.207 424.419
203.704 597.701 482.558
203.704 609.195 372.093
203.704 620.69 360.465
203.704 632.184 360.465
203.704 643.678 360.465
203.704 655.172 366.279
203.704 666.667 366.279
203.704 678.161 372.093
203.704 689.655 372.093
203.704 701.149 372.093
203.704 712.644 273.256
203.704 724.138 377.907
203.704 735.632 377.907
203.704 747.126 377.907
203.704 758.621 133.721
203.704 770.115 232.558
203.704 781.609 383.721
203.704 793.103 383.721
203.704 804.598 383.721
203.704 816.092 383.721
203.704 827.586 383.721
203.704 839.08 383.721
203.704 850.575 127.907
203.704 862.069 232.558
203.704 873.563 383.721
203.704 885.057 383.721
203.704 896.552 383.721
203.704 908.046 127.907
203.704 919.54 383.721
203.704 931.034 389.535
203.704 942.529 389.535
203.704 954.023 383.721
208.333 11.4943 366.279
208.333 22.9885 366.279
208.333 34.4828 366.279
208.333 45.977 366.279
208.333 57.4713 366.279
208.333 68.9655 366.279
208.333 80.4598 366.279
208.333 91.954 366.279
208.333 103.448 366.279
208.333 114.943 366.279
208.333 126.437 366.279
208.333 137.931 366.279
208.333 149.425 372.093
208.333 160.92 372.093
208.333 172.414 372.093
208.333 183.908 372.093
208.333 195.402 372.093
208.333 206.897 372.093
208.333 218.391 372.093
208.333 229.885 372.093
208.333 275.862 377.907
208.333 287.356 267.442
208.333 298.851 343.023
208.333 310.345 395.349
208.333 321.839 395.349
208.333 333.333 430.233
208.333 344.828 348.837
208.333 356.322 401.163
208.333 367.816 418.605
208.333 379.31 308.14
208.333 390.805 273.256
208.333 402.299 162.791
208.333 413.793 162.791
208.333 494.253 209.302
208.333 505.747 313.953
208.333 517.241 383.721
208.333 528.736 447.674
208.333 540.23 418.605
208.333 551.724 424.419
208.333 563.218 552.326
208.333 574.713 517.442
208.333 586.207 517.442
208.333 597.701 366.279
208.333 609.195 244.186
208.333 620.69 302.326
208.333 632.184 360.465
208.333 643.678 360.465
208.333 655.172 366.279
208.333 666.667 372.093
208.333 678.161 372.093
208.333 689.655 372.093
208.333 701.149 372.093
208.333 712.644 127.907
208.333 724.138 377.907
208.333 735.632 377.907
208.333 747.126 377.907
208.333 758.621 133.721
208.333 770.115 383.721
208.333 781.609 383.721
208.333 793.103 383.721
208.333 804.598 383.721
208.333 816.092 383.721
208.333 827.586 383.721
208.333 839.08 383.721
208.333 850.575 133.721
208.333 862.069 389.535
208.333 873.563 389.535
208.333 885.057 389.535
208.333 896.552 383.721
208.333 908.046 127.907
208.333 919.54 389.535
208.333 931.034 389.535
208.333 942.529 389.535
208.333 954.023 389.535
208.333 965.517 116.279
212.963 0 360.465
212.963 11.4943 366.279
212.963 22.9885 366.279
212.963 34.4828 366.279
212.963 45.977 366.279
212.963 57.4713 366.279
212.963 68.9655 366.279
212.963 80.4598 366.279
212.963 91.954 366.279
212.963 103.448 366.279
212.963 114.943 366.279
212.963 126.437 372.093
212.963 137.931 372.093
212.963 149.425 372.093
212.963 160.92 372.093
212.963 172.414 372.093
212.963 183.908 372.093
212.963 195.402 372.093
212.963 206.897 372.093
212.963 218.391 372.093
212.963 229.885 372.093
212.963 241.379 372.093
212.963 252.874 372.093
212.963 264.368 273.256
212.963 275.862 360.465
212.963 287.356 337.209
212.963 298.851 354.651
212.963 310.345 436.047
212.963 321.839 406.977
212.963 333.333 406.977
212.963 344.828 354.651
212.963 356.322 284.884
212.963 367.816 261.628
212.963 379.31 162.791
212.963 390.805 162.791
212.963 505.747 93.0233
212.963 517.241 122.093
212.963 528.736 197.674
212.963 540.23 238.372
212.963 551.724 348.837
212.963 563.218 354.651
212.963 574.713 482.558
212.963 586.207 505.814
212.963 597.701 383.721
212.963 609.195 534.884
212.963 620.69 220.93
212.963 632.184 406.977
212.963 643.678 360.465
212.963 655.172 366.279
212.963 666.667 372.093
212.963 678.161 372.093
212.963 689.655 372.093
212.963 701.149 372.093
212.963 712.644 127.907
212.963 724.138 377.907
212.963 735.632 377.907
212.963 747.126 377.907
212.963 758.621 133.721
212.963 770.115 383.721
212.963 781.609 383.721
212.963 793.103 383.721
212.963 804.598 383.721
212.963 816.092 383.721
212.963 827.586 383.721
212.963 839.08 395.349
212.963 850.575 186.047
212.963 862.069 389.535
212.963 873.563 389.535
212.963 885.057 389.535
212.963 896.552 395.349
212.963 908.046 180.233
212.963 919.54 389.535
212.963 931.034 389.535
212.963 942.529 389.535
212.963 954.023 395.349
212.963 965.517 168.605
212.963 977.011 372.093
217.593 0 366.279
217.593 11.4943 366.279
217.593 22.9885 366.279
217.593 34.4828 366.279
217.593 45.977 366.279
217.593 57.4713 366.279
217.593 68.9655 366.279
217.593 80.4598 366.279
217.593 91.954 366.279
217.593 103.448 366.279
217.593 114.943 372.093
217.593 126.437 372.093
217.593 137.931 372.093
217.593 149.425 372.093
217.593 160.92 372.093
217.593 172.414 372.093
217.593 183.908 372.093
217.593 195.402 372.093
217.593 206.897 372.093
217.593 218.391 372.093
217.593 229.885 372.093
217.593 241.379 372.093
217.593 252.874 372.093
217.593 264.368 273.256
217.593 275.862 273.256
217.593 287.356 517.442
217.593 298.851 325.581
217.593 310.345 232.558
217.593 321.839 244.186
217.593 333.333 267.442
217.593 344.828 244.186
217.593 356.322 93.0233
217.593 540.23 203.488
217.593 551.724 319.767
217.593 563.218 395.349
217.593 574.713 313.953
217.593 586.207 325.581
217.593 597.701 401.163
217.593 609.195 476.744
217.593 620.69 581.395
217.593 632.184 319.767
217.593 643.678 482.558
217.593 655.172 366.279
217.593 666.667 372.093
217.593 678.161 372.093
217.593 689.655 372.093
217.593 701.149 372.093
217.593 712.644 133.721
217.593 724.138 377.907
217.593 735.632 377.907
217.593 747.126 389.535
217.593 758.621 180.233
217.593 770.115 383.721
217.593 781.609 383.721
217.593 793.103 383.721
217.593 804.598 383.721
217.593 816.092 383.721
217.593 827.586 389.535
217.593 839.08 133.721
217.593 850.575 232.558
217.593 862.069 389.535
217.593 873.563 389.535
217.593 885.057 389.535
217.593 896.552 127.907
217.593 908.046 232.558
217.593 919.54 389.535
217.593 931.034 389.535
217.593 942.529 389.535
217.593 954.023 116.279
217.593 965.517 220.93
217.593 977.011 377.907
222.222 0 366.279
222.222 11.4943 366.279
222.222 22.9885 366.279
222.222 34.4828 366.279
222.222 45.977 366.279
222.222 57.4713 366.279
222.222 68.9655 366.279
222.222 80.4598 366.279
222.222 91.954 366.279
222.222 103.448 366.279
222.222 114.943 372.093
222.222 126.437 372.093
222.222 137.931 372.093
222.222 149.425 372.093
222.222 160.92 372.093
222.222 172.414 372.093
222.222 183.908 372.093
222.222 195.402 372.093
222.222 206.897 372.093
222.222 218.391 372.093
222.222 229.885 372.093
222.222 241.379 372.093
222.222 252.874 319.767
222.222 264.368 476.744
222.222 275.862 372.093
222.222 287.356 250
222.222 298.851 250
222.222 310.345 255.814
222.222 321.839 87.2093
222.222 551.724 145.349
222.222 563.218 203.488
222.222 574.713 261.628
222.222 586.207 348.837
222.222 597.701 430.233
222.222 609.195 517.442
222.222 620.69 500
222.222 632.184 569.767
222.222 643.678 383.721
222.222 655.172 470.93
222.222 666.667 482.558
222.222 678.161 453.488
222.222 689.655 453.488
222.222 701.149 372.093
222.222 712.644 133.721
222.222 724.138 377.907
222.222 735.632 383.721
222.222 747.126 133.721
222.222 758.621 232.558
222.222 770.115 383.721
222.222 781.609 383.721
222.222 793.103 383.721
222.222 804.598 383.721
222.222 816.092 383.721
222.222 827.586 389.535
222.222 839.08 133.721
222.222 850.575 389.535
222.222 862.069 389.535
222.222 873.563 389.535
222.222 885.057 395.349
222.222 896.552 186.047
222.222 908.046 389.535
222.222 919.54 389.535
222.222 931.034 389.535
222.222 942.529 389.535
222.222 954.023 116.279
222.222 965.517 377.907
222.222 977.011 377.907
222.222 988.506 377.907
226.852 0 366.279
226.852 11.4943 366.279
226.852 22.9885 366.279
226.852 34.4828 366.279
226.852 45.977 366.279
226.852 57.4713 366.279
226.852 68.9655 366.279
226.852 80.4598 366.279
226.852 91.954 366.279
226.852 103.448 366.279
226.852 114.943 372.093
226.852 126.437 372.093
226.852 137.931 372.093
226.852 149.425 372.093
226.852 160.92 372.093
226.852 172.414 372.093
226.852 183.908 372.093
226.852 195.402 372.093
226.852 206.897 372.093
226.852 218.391 372.093
226.852 229.885 523.256
226.852 241.379 534.884
226.852 252.874 418.605
226.852 264.368 273.256
226.852 275.862 308.14
226.852 287.356 319.767
226.852 298.851 226.744
226.852 574.713 133.721
226.852 586.207 209.302
226.852 597.701 197.674
226.852 609.195 273.256
226.852 620.69 412.791
226.852 632.184 529.07
226.852 643.678 98.8372
226.852 655.172 389.535
226.852 666.667 500
226.852 678.161 465.116
226.852 689.655 395.349
226.852 701.149 389.535
226.852 712.644 191.86
226.852 724.138 406.977
226.852 735.632 383.721
226.852 747.126 133.721
226.852 758.621 389.535
226.852 770.115 383.721
226.852 781.609 383.721
226.852 793.103 383.721
226.852 804.598 383.721
226.852 816.092 383.721
226.852 827.586 389.535
226.852 839.08 133.721
226.852 850.575 389.535
226.852 862.069 389.535
226.852 873.563 395.349
226.852 885.057 127.907
226.852 896.552 238.372
226.852 908.046 389.535
226.852 919.54 389.535
226.852 931.034 389.535
226.852 942.529 389.535
226.852 954.023 116.279
226.852 965.517 377.907
226.852 977.011 377.907
226.852 988.506 377.907
231.481 0 366.279
231.481 11.4943 366.279
231.481 22.9885 366.279
231.481 34.4828 366.279
231.481 45.977 366.279
231.481 57.4713 366.279
231.481 68.9655 366.279
231.481 80.4598 366.279
231.481 91.954 366.279
231.481 103.448 366.279
231.481 114.943 372.093
231.481 126.437 372.093
231.481 137.931 372.093
231.481 149.425 372.093
231.481 160.92 372.093
231.481 172.414 372.093
231.481 183.908 372.093
231.481 195.402 372.093
231.481 206.897 436.047
231.481 218.391 441.86
231.481 229.885 540.698
231.481 241.379 395.349
231.481 252.874 354.651
231.481 264.368 331.395
231.481 275.862 337.209
231.481 287.356 168.605
231.481 609.195 133.721
231.481 620.69 191.86
231.481 632.184 377.907
231.481 643.678 540.698
231.481 655.172 331.395
231.481 666.667 372.093
231.481 678.161 453.488
231.481 689.655 494.186
231.481 701.149 383.721
231.481 712.644 180.233
231.481 724.138 377.907
231.481 735.632 383.721
231.481 747.126 133.721
231.481 758.621 389.535
231.481 770.115 389.535
231.481 781.609 389.535
231.481 793.103 389.535
231.481 804.598 389.535
231.481 816.092 383.721
231.481 827.586 395.349
231.481 839.08 186.047
231.481 850.575 389.535
231.481 862.069 389.535
231.481 873.563 401.163
231.481 885.057 180.233
231.481 896.552 389.535
231.481 908.046 389.535
231.481 919.54 389.535
231.481 931.034 389.535
231.481 942.529 395.349
231.481 954.023 174.419
231.481 965.517 377.907
231.481 977.011 377.907
231.481 988.506 377.907
236.111 11.4943 366.279
236.111 22.9885 366.279
236.111 34.4828 366.279
236.111 45.977 366.279
236.111 57.4713 366.279
236.111 68.9655 366.279
236.111 80.4598 366.279
236.111 91.954 366.279
236.111 103.448 366.279
236.111 114.943 366.279
236.111 126.437 372.093
236.111 137.931 372.093
236.111 149.425 372.093
236.111 160.92 372.093
236.111 172.414 372.093
236.111 183.908 372.093
236.111 195.402 494.186
236.111 206.897 529.07
236.111 218.391 505.814
236.111 229.885 418.605
236.111 241.379 389.535
236.111 252.874 476.744
236.111 264.368 325.581
236.111 275.862 209.302
236.111 620.69 81.3953
236.111 632.184 87.2093
236.111 643.678 401.163
236.111 655.172 34.8837
236.111 666.667 360.465
236.111 678.161 447.674
236.111 689.655 546.512
236.111 701.149 331.395
236.111 712.644 232.558
236.111 724.138 383.721
236.111 735.632 383.721
236.111 747.126 145.349
236.111 758.621 389.535
236.111 770.115 389.535
236.111 781.609 389.535
236.111 793.103 389.535
236.111 804.598 389.535
236.111 816.092 389.535
236.111 827.586 133.721
236.111 839.08 238.372
236.111 850.575 389.535
236.111 862.069 395.349
236.111 873.563 127.907
236.111 885.057 232.558
236.111 896.552 389.535
236.111 908.046 389.535
236.111 919.54 389.535
236.111 931.034 389.535
236.111 942.529 116.279
236.111 954.023 226.744
236.111 965.517 377.907
236.111 977.011 377.907
236.111 988.506 377.907
240.741 11.4943 366.279
240.741 22.9885 366.279
240.741 34.4828 366.279
240.741 45.977 366.279
240.741 57.4713 366.279
240.741 68.9655 366.279
240.741 80.4598 366.279
240.741 91.954 366.279
240.741 137.931 372.093
240.741 149.425 372.093
240.741 160.92 372.093
240.741 172.414 372.093
240.741 183.908 313.953
240.741 195.402 523.256
240.741 206.897 552.326
240.741 218.391 505.814
240.741 229.885 540.698
240.741 241.379 529.07
240.741 252.874 325.581
240.741 264.368 186.047
240.741 275.862 93.0233
240.741 620.69 63.9535
240.741 632.184 98.8372
240.741 643.678 313.953
240.741 655.172 418.605
240.741 666.667 261.628
240.741 678.161 372.093
240.741 689.655 401.163
240.741 701.149 354.651
240.741 712.644 465.116
240.741 724.138 383.721
240.741 735.632 395.349
240.741 747.126 186.047
240.741 758.621 389.535
240.741 770.115 389.535
240.741 781.609 389.535
240.741 793.103 389.535
240.741 804.598 389.535
240.741 816.092 389.535
240.741 827.586 133.721
240.741 839.08 389.535
240.741 850.575 389.535
240.741 862.069 401.163
240.741 873.563 180.233
240.741 885.057 389.535
240.741 896.552 389.535
240.741 908.046 389.535
240.741 919.54 389.535
240.741 931.034 395.349
240.741 942.529 168.605
240.741 954.023 377.907
240.741 965.517 377.907
240.741 977.011 377.907
240.741 988.506 377.907
245.37 22.9885 360.465
245.37 34.4828 366.279
245.37 45.977 366.279
245.37 57.4713 366.279
245.37 68.9655 366.279
245.37 80.4598 366.279
245.37 149.425 372.093
245.37 160.92 372.093
245.37 172.414 308.14
245.37 183.908 569.767
245.37 195.402 529.07
245.37 206.897 563.953
245.37 218.391 593.023
245.37 229.885 482.558
245.37 241.379 389.535
245.37 252.874 186.047
245.37 264.368 93.0233
245.37 620.69 104.651
245.37 632.184 151.163
245.37 643.678 151.163
245.37 655.172 412.791
245.37 666.667 139.535
245.37 678.161 372.093
245.37 689.655 372.093
245.37 701.149 133.721
245.37 712.644 482.558
245.37 724.138 383.721
245.37 735.632 139.535
245.37 747.126 238.372
245.37 758.621 395.349
245.37 770.115 389.535
245.37 781.609 389.535
245.37 793.103 389.535
245.37 804.598 389.535
245.37 816.092 395.349
245.37 827.586 186.047
245.37 839.08 389.535
245.37 850.575 395.349
245.37 862.069 133.721
245.37 873.563 238.372
245.37 885.057 395.349
245.37 896.552 395.349
245.37 908.046 395.349
245.37 919.54 395.349
245.37 931.034 168.605
245.37 942.529 220.93
245.37 954.023 377.907
245.37 965.517 383.721
245.37 977.011 383.721
245.37 988.506 377.907
250 45.977 360.465
250 57.4713 366.279
250 68.9655 366.279
250 160.92 372.093
250 172.414 250
250 183.908 529.07
250 195.402 563.953
250 206.897 662.791
250 218.391 529.07
250 229.885 430.233
250 241.379 296.512
250 252.874 93.0233
250 609.195 34.8837
250 620.69 145.349
250 632.184 174.419
250 643.678 93.0233
250 655.172 348.837
250 666.667 116.279
250 678.161 377.907
250 689.655 372.093
250 701.149 133.721
250 712.644 383.721
250 724.138 459.302
250 735.632 139.535
250 747.126 395.349
250 758.621 395.349
250 770.115 406.977
250 781.609 389.535
250 793.103 389.535
250 804.598 395.349
250 816.092 133.721
250 827.586 238.372
250 839.08 389.535
250 850.575 401.163
250 862.069 186.047
250 873.563 395.349
250 885.057 395.349
250 896.552 395.349
250 908.046 395.349
250 919.54 116.279
250 931.034 220.93
250 942.529 383.721
250 954.023 383.721
250 965.517 383.721
250 977.011 383.721
250 988.506 383.721
254.63 160.92 372.093
254.63 172.414 691.86
254.63 183.908 511.628
254.63 195.402 616.279
254.63 206.897 587.209
254.63 218.391 465.116
254.63 229.885 395.349
254.63 241.379 226.744
254.63 609.195 23.2558
254.63 620.69 156.977
254.63 632.184 209.302
254.63 643.678 156.977
254.63 655.172 284.884
254.63 666.667 110.465
254.63 678.161 389.535
254.63 689.655 377.907
254.63 701.149 133.721
254.63 712.644 383.721
254.63 724.138 395.349
254.63 735.632 215.116
254.63 747.126 395.349
254.63 758.621 395.349
254.63 770.115 395.349
254.63 781.609 395.349
254.63 793.103 389.535
254.63 804.598 401.163
254.63 816.092 186.047
254.63 827.586 395.349
254.63 839.08 401.163
254.63 850.575 186.047
254.63 862.069 238.372
254.63 873.563 395.349
254.63 885.057 395.349
254.63 896.552 395.349
254.63 908.046 401.163
254.63 919.54 174.419
254.63 931.034 383.721
254.63 942.529 383.721
254.63 954.023 383.721
254.63 965.517 383.721
254.63 977.011 383.721
254.63 988.506 383.721
259.259 172.414 639.535
259.259 183.908 610.465
259.259 195.402 645.349
259.259 206.897 546.512
259.259 218.391 412.791
259.259 229.885 383.721
259.259 241.379 209.302
259.259 609.195 52.3256
259.259 620.69 145.349
259.259 632.184 261.628
259.259 643.678 145.349
259.259 655.172 122.093
259.259 666.667 116.279
259.259 678.161 383.721
259.259 689.655 377.907
259.259 701.149 133.721
259.259 712.644 383.721
259.259 724.138 145.349
259.259 735.632 261.628
259.259 747.126 406.977
259.259 758.621 395.349
259.259 770.115 395.349
259.259 781.609 395.349
259.259 793.103 401.163
259.259 804.598 186.047
259.259 816.092 238.372
259.259 827.586 395.349
259.259 839.08 133.721
259.259 850.575 238.372
259.259 862.069 395.349
259.259 873.563 395.349
259.259 885.057 395.349
259.259 896.552 401.163
259.259 908.046 174.419
259.259 919.54 226.744
259.259 931.034 383.721
259.259 942.529 383.721
259.259 954.023 383.721
259.259 965.517 383.721
259.259 977.011 383.721
259.259 988.506 383.721
263.889 160.92 377.907
263.889 172.414 581.395
263.889 183.908 622.093
263.889 195.402 633.721
263.889 206.897 534.884
263.889 218.391 337.209
263.889 229.885 354.651
263.889 241.379 209.302
263.889 609.195 52.3256
263.889 620.69 151.163
263.889 632.184 418.605
263.889 643.678 145.349
263.889 655.172 122.093
263.889 666.667 116.279
263.889 678.161 377.907
263.889 689.655 383.721
263.889 701.149 133.721
263.889 712.644 389.535
263.889 724.138 145.349
263.889 735.632 401.163
263.889 747.126 476.744
263.889 758.621 395.349
263.889 770.115 395.349
263.889 781.609 395.349
263.889 793.103 168.605
263.889 804.598 244.186
263.889 816.092 395.349
263.889 827.586 401.163
263.889 839.08 186.047
263.889 850.575 395.349
263.889 862.069 395.349
263.889 873.563 395.349
263.889 885.057 401.163
263.889 896.552 180.233
263.889 908.046 226.744
263.889 919.54 383.721
263.889 931.034 383.721
263.889 942.529 383.721
263.889 954.023 383.721
263.889 965.517 383.721
263.889 977.011 383.721
268.519 160.92 598.837
268.519 172.414 523.256
268.519 183.908 593.023
268.519 195.402 691.86
268.519 206.897 511.628
268.519 218.391 470.93
268.519 229.885 279.07
268.519 241.379 151.163
268.519 425.287 0
268.519 436.782 0
268.519 609.195 52.3256
268.519 620.69 156.977
268.519 632.184 418.605
268.519 643.678 145.349
268.519 655.172 116.279
268.519 666.667 63.9535
268.519 678.161 331.395
268.519 689.655 389.535
268.519 701.149 186.047
268.519 712.644 389.535
268.519 724.138 145.349
268.519 735.632 406.977
268.519 747.126 406.977
268.519 758.621 412.791
268.519 770.115 395.349
268.519 781.609 401.163
268.519 793.103 203.488
268.519 804.598 401.163
268.519 816.092 406.977
268.519 827.586 186.047
268.519 839.08 244.186
268.519 850.575 395.349
268.519 862.069 395.349
268.519 873.563 395.349
268.519 885.057 127.907
268.519 896.552 232.558
268.519 908.046 389.535
268.519 919.54 389.535
268.519 931.034 389.535
268.519 942.529 389.535
268.519 954.023 389.535
268.519 965.517 389.535
268.519 977.011 383.721
273.148 160.92 587.209
273.148 172.414 546.512
273.148 183.908 645.349
273.148 195.402 651.163
273.148 206.897 476.744
273.148 218.391 401.163
273.148 229.885 255.814
273.148 241.379 93.0233
273.148 379.31 5.81395
273.148 390.805 5.81395
273.148 402.299 5.81395
273.148 413.793 5.81395
273.148 425.287 0
273.148 436.782 0
273.148 609.195 5.81395
273.148 620.69 104.651
273.148 632.184 366.279
273.148 643.678 145.349
273.148 655.172 116.279
273.148 666.667 395.349
273.148 678.161 279.07
273.148 689.655 139.535
273.148 701.149 238.372
273.148 712.644 401.163
273.148 724.138 197.674
273.148 735.632 406.977
273.148 747.126 401.163
273.148 758.621 412.791
273.148 770.115 406.977
273.148 781.609 191.86
273.148 793.103 250
273.148 804.598 418.605
273.148 816.092 191.86
273.148 827.586 244.186
273.148 839.08 401.163
273.148 850.575 401.163
273.148 862.069 395.349
273.148 873.563 401.163
273.148 885.057 180.233
273.148 896.552 389.535
273.148 908.046 389.535
273.148 919.54 389.535
273.148 931.034 389.535
273.148 942.529 389.535
273.148 954.023 389.535
273.148 965.517 389.535
273.148 977.011 389.535
277.778 149.425 325.581
277.778 160.92 494.186
277.778 172.414 441.86
277.778 183.908 552.326
277.778 195.402 581.395
277.778 206.897 470.93
277.778 218.391 389.535
277.778 229.885 226.744
277.778 356.322 11.6279
277.778 367.816 5.81395
277.778 379.31 5.81395
277.778 390.805 5.81395
277.778 402.299 5.81395
277.778 413.793 5.81395
277.778 425.287 0
277.778 436.782 0
277.778 448.276 0
277.778 609.195 5.81395
277.778 620.69 139.535
277.778 632.184 308.14
277.778 643.678 145.349
277.778 655.172 116.279
277.778 666.667 395.349
277.778 678.161 133.721
277.778 689.655 139.535
277.778 701.149 395.349
277.778 712.644 151.163
277.778 724.138 255.814
277.778 735.632 406.977
277.778 747.126 406.977
277.778 758.621 412.791
277.778 770.115 220.93
277.778 781.609 284.884
277.778 793.103 191.86
277.778 804.598 250
277.778 816.092 244.186
277.778 827.586 401.163
277.778 839.08 401.163
277.778 850.575 401.163
277.778 862.069 401.163
277.778 873.563 180.233
277.778 885.057 232.558
277.778 896.552 389.535
277.778 908.046 389.535
277.778 919.54 389.535
277.778 931.034 389.535
277.778 942.529 395.349
277.778 954.023 395.349
277.778 965.517 389.535
277.778 977.011 389.535
277.778 988.506 104.651
282.407 149.425 645.349
282.407 160.92 540.698
282.407 172.414 627.907
282.407 183.908 529.07
282.407 195.402 552.326
282.407 206.897 418.605
282.407 218.391 331.395
282.407 229.885 145.349
282.407 333.333 11.6279
282.407 344.828 11.6279
282.407 356.322 5.81395
282.407 367.816 5.81395
282.407 379.31 5.81395
282.407 390.805 5.81395
282.407 402.299 5.81395
282.407 413.793 5.81395
282.407 425.287 0
282.407 436.782 0
282.407 620.69 81.3953
282.407 632.184 98.8372
282.407 643.678 145.349
282.407 655.172 116.279
282.407 666.667 389.535
282.407 678.161 133.721
282.407 689.655 139.535
282.407 701.149 406.977
282.407 712.644 203.488
282.407 724.138 412.791
282.407 735.632 406.977
282.407 747.126 412.791
282.407 758.621 215.116
282.407 770.115 220.93
282.407 781.609 244.186
282.407 793.103 244.186
282.407 804.598 406.977
282.407 816.092 401.163
282.407 827.586 401.163
282.407 839.08 401.163
282.407 850.575 418.605
282.407 862.069 180.233
282.407 873.563 238.372
282.407 885.057 395.349
282.407 896.552 395.349
282.407 908.046 395.349
282.407 919.54 395.349
282.407 931.034 395.349
282.407 942.529 395.349
282.407 954.023 395.349
282.407 965.517 395.349
282.407 977.011 389.535
282.407 988.506 116.279
287.037 126.437 366.279
287.037 137.931 372.093
287.037 149.425 598.837
287.037 160.92 517.442
287.037 172.414 598.837
287.037 183.908 540.698
287.037 195.402 529.07
287.037 206.897 383.721
287.037 218.391 348.837
287.037 229.885 87.2093
287.037 321.839 11.6279
287.037 333.333 17.4419
287.037 344.828 11.6279
287.037 356.322 11.6279
287.037 367.816 5.81395
287.037 379.31 5.81395
287.037 390.805 5.81395
287.037 402.299 5.81395
287.037 413.793 5.81395
287.037 425.287 0
287.037 620.69 63.9535
287.037 632.184 296.512
287.037 643.678 145.349
287.037 655.172 63.9535
287.037 666.667 337.209
287.037 678.161 162.791
287.037 689.655 220.93
287.037 701.149 203.488
287.037 712.644 255.814
287.037 724.138 412.791
287.037 735.632 430.233
287.037 747.126 215.116
287.037 758.621 191.86
287.037 770.115 255.814
287.037 781.609 406.977
287.037 793.103 406.977
287.037 804.598 406.977
287.037 816.092 412.791
287.037 827.586 424.419
287.037 839.08 180.233
287.037 850.575 232.558
287.037 862.069 238.372
287.037 873.563 395.349
287.037 885.057 395.349
287.037 896.552 395.349
287.037 908.046 395.349
287.037 919.54 395.349
287.037 931.034 395.349
287.037 942.529 395.349
287.037 954.023 395.349
287.037 965.517 395.349
287.037 977.011 395.349
287.037 988.506 174.419
291.667 114.943 366.279
291.667 126.437 366.279
291.667 137.931 552.326
291.667 149.425 604.651
291.667 160.92 482.558
291.667 172.414 633.721
291.667 183.908 575.581
291.667 195.402 470.93
291.667 206.897 377.907
291.667 218.391 348.837
291.667 321.839 17.4419
291.667 333.333 17.4419
291.667 344.828 11.6279
291.667 356.322 11.6279
291.667 367.816 11.6279
291.667 379.31 5.81395
291.667 390.805 5.81395
291.667 402.299 5.81395
291.667 413.793 5.81395
291.667 425.287 0
291.667 620.69 81.3953
291.667 632.184 156.977
291.667 643.678 139.535
291.667 655.172 406.977
291.667 666.667 284.884
291.667 678.161 180.233
291.667 689.655 203.488
291.667 701.149 255.814
291.667 712.644 424.419
291.667 724.138 191.86
291.667 735.632 261.628
291.667 747.126 197.674
291.667 758.621 250
291.667 770.115 406.977
291.667 781.609 412.791
291.667 793.103 424.419
291.667 804.598 191.86
291.667 816.092 238.372
291.667 827.586 238.372
291.667 839.08 238.372
291.667 850.575 395.349
291.667 862.069 395.349
291.667 873.563 395.349
291.667 885.057 395.349
291.667 896.552 395.349
291.667 908.046 395.349
291.667 919.54 395.349
291.667 931.034 395.349
291.667 942.529 395.349
291.667 954.023 395.349
291.667 965.517 395.349
291.667 977.011 122.093
291.667 988.506 226.744
291.667 1000 377.907
296.296 103.448 366.279
296.296 114.943 366.279
296.296 126.437 366.279
296.296 137.931 529.07
296.296 149.425 511.628
296.296 160.92 412.791
296.296 172.414 627.907
296.296 183.908 598.837
296.296 195.402 383.721
296.296 206.897 302.326
296.296 218.391 290.698
296.296 310.345 17.4419
296.296 321.839 17.4419
296.296 333.333 11.6279
296.296 344.828 11.6279
296.296 356.322 11.6279
296.296 367.816 11.6279
296.296 379.31 11.6279
296.296 390.805 5.81395
296.296 402.299 5.81395
296.296 413.793 5.81395
296.296 620.69 139.535
296.296 632.184 151.163
296.296 643.678 139.535
296.296 655.172 412.791
296.296 666.667 209.302
296.296 678.161 151.163
296.296 689.655 255.814
296.296 701.149 418.605
296.296 712.644 145.349
296.296 724.138 255.814
296.296 735.632 139.535
296.296 747.126 250
296.296 758.621 412.791
296.296 770.115 209.302
296.296 781.609 244.186
296.296 793.103 244.186
296.296 804.598 244.186
296.296 816.092 401.163
296.296 827.586 401.163
296.296 839.08 401.163
296.296 850.575 401.163
296.296 862.069 401.163
296.296 873.563 395.349
296.296 885.057 395.349
296.296 896.552 395.349
296.296 908.046 401.163
296.296 919.54 401.163
296.296 931.034 395.349
296.296 942.529 395.349
296.296 954.023 395.349
296.296 965.517 395.349
296.296 977.011 174.419
296.296 988.506 383.721
296.296 1000 383.721
300.926 80.4598 366.279
300.926 91.954 366.279
300.926 103.448 366.279
300.926 114.943 366.279
300.926 126.437 366.279
300.926 137.931 633.721
300.926 149.425 482.558
300.926 160.92 511.628
300.926 172.414 587.209
300.926 183.908 546.512
300.926 195.402 412.791
300.926 206.897 383.721
300.926 218.391 244.186
300.926 298.851 11.6279
300.926 310.345 17.4419
300.926 321.839 11.6279
300.926 333.333 11.6279
300.926 344.828 11.6279
300.926 356.322 11.6279
300.926 367.816 11.6279
300.926 379.31 11.6279
300.926 390.805 5.81395
300.926 402.299 5.81395
300.926 413.793 0
300.926 609.195 52.3256
300.926 620.69 151.163
300.926 632.184 145.349
300.926 643.678 87.2093
300.926 655.172 127.907
300.926 666.667 284.884
300.926 678.161 203.488
300.926 689.655 418.605
300.926 701.149 424.419
300.926 712.644 197.674
300.926 724.138 418.605
300.926 735.632 197.674
300.926 747.126 418.605
300.926 758.621 203.488
300.926 770.115 255.814
300.926 781.609 406.977
300.926 793.103 406.977
300.926 804.598 406.977
300.926 816.092 401.163
300.926 827.586 401.163
300.926 839.08 401.163
300.926 850.575 401.163
300.926 862.069 401.163
300.926 873.563 401.163
300.926 885.057 401.163
300.926 896.552 401.163
300.926 908.046 401.163
300.926 919.54 401.163
300.926 931.034 401.163
300.926 942.529 395.349
300.926 954.023 406.977
300.926 965.517 174.419
300.926 977.011 226.744
300.926 988.506 383.721
305.556 68.9655 366.279
305.556 80.4598 372.093
305.556 91.954 366.279
305.556 103.448 366.279
305.556 114.943 366.279
305.556 126.437 366.279
305.556 137.931 639.535
305.556 149.425 453.488
305.556 160.92 651.163
305.556 172.414 633.721
305.556 183.908 540.698
305.556 195.402 389.535
305.556 206.897 377.907
305.556 218.391 203.488
305.556 298.851 17.4419
305.556 310.345 11.6279
305.556 321.839 11.6279
305.556 333.333 11.6279
305.556 344.828 11.6279
305.556 356.322 11.6279
305.556 367.816 11.6279
305.556 379.31 11.6279
305.556 390.805 5.81395
305.556 402.299 0
305.556 609.195 52.3256
305.556 620.69 151.163
305.556 632.184 151.163
305.556 643.678 127.907
305.556 655.172 145.349
305.556 666.667 145.349
305.556 678.161 261.628
305.556 689.655 418.605
305.556 701.149 145.349
305.556 712.644 255.814
305.556 724.138 139.535
305.556 735.632 267.442
305.556 747.126 197.674
305.556 758.621 267.442
305.556 770.115 412.791
305.556 781.609 436.047
305.556 793.103 406.977
305.556 804.598 406.977
305.556 816.092 406.977
305.556 827.586 401.163
305.556 839.08 401.163
305.556 850.575 401.163
305.556 862.069 401.163
305.556 873.563 401.163
305.556 885.057 401.163
305.556 896.552 401.163
305.556 908.046 401.163
305.556 919.54 401.163
305.556 931.034 406.977
305.556 942.529 168.605
305.556 954.023 226.744
305.556 965.517 226.744
305.556 977.011 383.721
305.556 988.506 383.721
310.185 57.4713 372.093
310.185 68.9655 372.093
310.185 80.4598 372.093
310.185 91.954 372.093
310.185 103.448 366.279
310.185 114.943 366.279
310.185 126.437 366.279
310.185 137.931 616.279
310.185 149.425 558.14
310.185 160.92 662.791
310.185 172.414 616.279
310.185 183.908 500
310.185 195.402 348.837
310.185 206.897 377.907
310.185 218.391 203.488
310.185 298.851 11.6279
310.185 310.345 11.6279
310.185 321.839 11.6279
310.185 333.333 11.6279
310.185 344.828 11.6279
310.185 356.322 11.6279
310.185 367.816 11.6279
310.185 379.31 11.6279
310.185 390.805 5.81395
310.185 609.195 52.3256
310.185 620.69 151.163
310.185 632.184 151.163
310.185 643.678 87.2093
310.185 655.172 139.535
310.185 666.667 87.2093
310.185 678.161 366.279
310.185 689.655 430.233
310.185 701.149 203.488
310.185 712.644 430.233
310.185 724.138 203.488
310.185 735.632 145.349
310.185 747.126 255.814
310.185 758.621 418.605
310.185 770.115 412.791
310.185 781.609 436.047
310.185 793.103 406.977
310.185 804.598 406.977
310.185 816.092 406.977
310.185 827.586 406.977
310.185 839.08 401.163
310.185 850.575 401.163
310.185 862.069 401.163
310.185 873.563 401.163
310.185 885.057 401.163
310.185 896.552 401.163
310.185 908.046 401.163
310.185 919.54 418.605
310.185 931.034 168.605
310.185 942.529 220.93
310.185 954.023 383.721
310.185 965.517 383.721
310.185 977.011 383.721
310.185 988.506 383.721
314.815 57.4713 372.093
314.815 68.9655 372.093
314.815 80.4598 372.093
314.815 91.954 372.093
314.815 103.448 372.093
314.815 114.943 366.279
314.815 126.437 366.279
314.815 137.931 645.349
314.815 149.425 534.884
314.815 160.92 668.605
314.815 172.414 593.023
314.815 183.908 604.651
314.815 195.402 331.395
314.815 206.897 331.395
314.815 218.391 145.349
314.815 298.851 11.6279
314.815 310.345 11.6279
314.815 321.839 11.6279
314.815 333.333 11.6279
314.815 344.828 11.6279
314.815 356.322 11.6279
314.815 367.816 11.6279
314.815 379.31 5.81395
314.815 609.195 52.3256
314.815 620.69 151.163
314.815 632.184 139.535
314.815 643.678 430.233
314.815 655.172 139.535
314.815 666.667 104.651
314.815 678.161 313.953
314.815 689.655 145.349
314.815 701.149 267.442
314.815 712.644 145.349
314.815 724.138 273.256
314.815 735.632 203.488
314.815 747.126 424.419
314.815 758.621 418.605
314.815 770.115 418.605
314.815 781.609 424.419
314.815 793.103 406.977
314.815 804.598 406.977
314.815 816.092 406.977
314.815 827.586 406.977
314.815 839.08 406.977
314.815 850.575 401.163
314.815 862.069 401.163
314.815 873.563 401.163
314.815 885.057 401.163
314.815 896.552 418.605
314.815 908.046 168.605
314.815 919.54 220.93
314.815 931.034 220.93
314.815 942.529 383.721
314.815 954.023 383.721
314.815 965.517 383.721
314.815 977.011 383.721
319.444 45.977 372.093
319.444 57.4713 372.093
319.444 68.9655 372.093
319.444 80.4598 372.093
319.444 91.954 372.093
319.444 103.448 372.093
319.444 114.943 366.279
319.444 126.437 366.279
319.444 137.931 627.907
319.444 149.425 581.395
319.444 160.92 616.279
319.444 172.414 511.628
319.444 183.908 517.442
319.444 195.402 261.628
319.444 206.897 319.767
319.444 218.391 87.2093
319.444 298.851 11.6279
319.444 310.345 11.6279
319.444 321.839 11.6279
319.444 333.333 11.6279
319.444 344.828 11.6279
319.444 356.322 11.6279
319.444 367.816 5.81395
319.444 620.69 98.8372
319.444 632.184 145.349
319.444 643.678 436.047
319.444 655.172 191.86
319.444 666.667 168.605
319.444 678.161 151.163
319.444 689.655 145.349
319.444 701.149 436.047
319.444 712.644 203.488
319.444 724.138 145.349
319.444 735.632 255.814
319.444 747.126 424.419
319.444 758.621 418.605
319.444 770.115 418.605
319.444 781.609 412.791
319.444 793.103 406.977
319.444 804.598 406.977
319.444 816.092 406.977
319.444 827.586 406.977
319.444 839.08 406.977
319.444 850.575 401.163
319.444 862.069 401.163
319.444 873.563 418.605
319.444 885.057 174.419
319.444 896.552 226.744
319.444 908.046 226.744
319.444 919.54 383.721
319.444 931.034 389.535
319.444 942.529 389.535
319.444 954.023 389.535
319.444 965.517 389.535
319.444 977.011 383.721
324.074 45.977 372.093
324.074 57.4713 372.093
324.074 68.9655 372.093
324.074 80.4598 372.093
324.074 91.954 372.093
324.074 103.448 372.093
324.074 114.943 372.093
324.074 126.437 366.279
324.074 137.931 581.395
324.074 149.425 604.651
324.074 160.92 593.023
324.074 172.414 540.698
324.074 183.908 424.419
324.074 195.402 377.907
324.074 206.897 267.442
324.074 298.851 11.6279
324.074 310.345 11.6279
324.074 321.839 11.6279
324.074 333.333 11.6279
324.074 344.828 11.6279
324.074 356.322 5.81395
324.074 620.69 52.3256
324.074 632.184 93.0233
324.074 643.678 395.349
324.074 655.172 238.372
324.074 666.667 180.233
324.074 678.161 151.163
324.074 689.655 151.163
324.074 701.149 145.349
324.074 712.644 279.07
324.074 724.138 203.488
324.074 735.632 430.233
324.074 747.126 424.419
