313.636 500 496.183
313.636 506.944 755.725
313.636 513.889 450.382
313.636 520.833 450.382
313.636 527.778 633.588
313.636 534.722 633.588
313.636 541.667 297.71
313.636 548.611 641.221
313.636 555.556 748.092
313.636 562.5 511.45
313.636 569.444 755.725
313.636 576.389 862.595
313.636 583.333 625.954
313.636 590.278 946.565
313.636 597.222 954.198
313.636 604.167 267.176
313.636 611.111 961.832
313.636 618.056 908.397
313.636 625 91.6031
313.636 631.944 900.763
313.636 638.889 885.496
313.636 645.833 251.908
313.636 652.778 893.13
313.636 659.722 893.13
313.636 666.667 297.71
313.636 673.611 854.962
313.636 680.556 885.496
313.636 687.5 183.206
313.636 694.444 885.496
313.636 701.389 870.229
313.636 708.333 305.344
313.636 715.278 877.863
313.636 722.222 900.763
313.636 729.167 45.8015
313.636 736.111 893.13
313.636 750 908.397
313.636 756.944 45.8015
313.636 763.889 908.397
313.636 770.833 793.893
313.636 777.778 61.0687
313.636 784.722 809.16
313.636 791.667 725.191
313.636 798.611 0
313.636 805.556 755.725
313.636 812.5 664.122
313.636 819.444 7.63359
313.636 826.389 671.756
313.636 840.278 641.221
313.636 847.222 45.8015
313.636 854.167 641.221
318.182 125 427.481
318.182 138.889 427.481
318.182 229.167 435.115
318.182 243.056 442.748
318.182 263.889 450.382
318.182 270.833 458.015
318.182 277.778 458.015
318.182 284.722 465.649
318.182 291.667 473.282
318.182 298.611 480.916
318.182 305.556 480.916
318.182 312.5 480.916
318.182 368.056 404.58
318.182 375 404.58
318.182 381.944 404.58
318.182 388.889 412.214
318.182 395.833 618.321
318.182 402.778 419.847
318.182 409.722 419.847
318.182 416.667 625.954
318.182 423.611 740.458
318.182 430.556 549.618
318.182 437.5 740.458
318.182 444.444 549.618
318.182 451.389 763.359
318.182 458.333 786.26
318.182 465.278 595.42
318.182 472.222 786.26
318.182 479.167 755.725
318.182 486.111 511.45
318.182 493.056 755.725
318.182 500 496.183
318.182 506.944 740.458
318.182 513.889 450.382
318.182 520.833 450.382
318.182 527.778 450.382
318.182 548.611 633.588
318.182 555.556 748.092
318.182 562.5 496.183
318.182 569.444 755.725
318.182 576.389 877.863
318.182 583.333 511.45
318.182 590.278 877.863
318.182 597.222 938.931
318.182 604.167 427.481
318.182 611.111 954.198
318.182 618.056 908.397
318.182 625 229.008
318.182 631.944 908.397
318.182 638.889 893.13
318.182 645.833 305.344
318.182 652.778 893.13
318.182 659.722 893.13
318.182 666.667 221.374
318.182 673.611 893.13
318.182 680.556 893.13
318.182 687.5 83.9695
318.182 694.444 885.496
318.182 701.389 885.496
318.182 708.333 91.6031
318.182 715.278 885.496
318.182 722.222 900.763
318.182 729.167 0
318.182 736.111 900.763
318.182 750 893.13
318.182 756.944 53.4351
318.182 763.889 900.763
318.182 770.833 786.26
318.182 777.778 53.4351
318.182 784.722 786.26
318.182 791.667 679.389
318.182 798.611 61.0687
318.182 805.556 725.191
318.182 812.5 656.489
318.182 819.444 7.63359
318.182 826.389 664.122
318.182 840.278 618.321
318.182 847.222 68.7023
318.182 854.167 641.221
322.727 277.778 458.015
322.727 284.722 465.649
322.727 291.667 465.649
322.727 298.611 488.55
322.727 305.556 488.55
322.727 312.5 488.55
322.727 319.444 488.55
322.727 326.389 488.55
322.727 333.333 496.183
322.727 340.278 496.183
322.727 347.222 496.183
322.727 368.056 404.58
322.727 375 404.58
322.727 381.944 404.58
322.727 388.889 412.214
322.727 395.833 412.214
322.727 402.778 419.847
322.727 409.722 419.847
322.727 416.667 419.847
322.727 423.611 656.489
322.727 430.556 419.847
322.727 437.5 740.458
322.727 444.444 549.618
322.727 451.389 740.458
322.727 458.333 786.26
322.727 465.278 595.42
322.727 472.222 786.26
322.727 479.167 748.092
322.727 486.111 519.084
322.727 493.056 748.092
322.727 500 488.55
322.727 506.944 748.092
322.727 513.889 450.382
322.727 520.833 450.382
322.727 527.778 450.382
322.727 534.722 450.382
322.727 541.667 450.382
322.727 548.611 450.382
322.727 569.444 748.092
322.727 576.389 839.695
322.727 583.333 396.947
322.727 590.278 877.863
322.727 597.222 900.763
322.727 604.167 328.244
322.727 611.111 938.931
322.727 618.056 893.13
322.727 625 267.176
322.727 631.944 908.397
322.727 638.889 870.229
322.727 645.833 183.206
322.727 652.778 877.863
322.727 659.722 908.397
322.727 666.667 267.176
322.727 673.611 908.397
322.727 680.556 900.763
322.727 687.5 152.672
322.727 694.444 893.13
322.727 701.389 885.496
322.727 708.333 145.038
322.727 715.278 885.496
322.727 722.222 908.397
322.727 729.167 0
322.727 736.111 900.763
322.727 750 877.863
322.727 756.944 53.4351
322.727 763.889 893.13
322.727 770.833 793.893
322.727 777.778 122.137
322.727 784.722 793.893
322.727 791.667 664.122
322.727 798.611 76.3359
322.727 805.556 679.389
322.727 812.5 648.855
322.727 819.444 91.6031
322.727 826.389 656.489
322.727 840.278 610.687
322.727 847.222 45.8015
322.727 854.167 618.321
327.273 277.778 458.015
327.273 284.722 458.015
327.273 291.667 465.649
327.273 298.611 480.916
327.273 305.556 480.916
327.273 312.5 480.916
327.273 319.444 488.55
327.273 326.389 488.55
327.273 333.333 496.183
327.273 340.278 496.183
327.273 347.222 496.183
327.273 354.167 496.183
327.273 361.111 496.183
327.273 368.056 625.954
327.273 375 625.954
327.273 381.944 625.954
327.273 388.889 412.214
327.273 395.833 412.214
327.273 402.778 641.221
327.273 409.722 641.221
327.273 416.667 641.221
327.273 423.611 709.924
327.273 430.556 709.924
327.273 437.5 748.092
327.273 444.444 427.481
327.273 451.389 740.458
327.273 458.333 786.26
327.273 465.278 587.786
327.273 472.222 786.26
327.273 479.167 778.626
327.273 486.111 595.42
327.273 493.056 778.626
327.273 500 496.183
327.273 506.944 740.458
327.273 513.889 450.382
327.273 520.833 450.382
327.273 527.778 450.382
327.273 534.722 450.382
327.273 541.667 450.382
327.273 548.611 450.382
327.273 555.556 450.382
327.273 562.5 450.382
327.273 569.444 450.382
327.273 576.389 801.527
327.273 583.333 496.183
327.273 590.278 839.695
327.273 597.222 824.427
327.273 604.167 633.588
327.273 611.111 908.397
327.273 618.056 885.496
327.273 625 328.244
327.273 631.944 893.13
327.273 638.889 854.962
327.273 645.833 290.076
327.273 652.778 885.496
327.273 659.722 916.031
327.273 666.667 106.87
327.273 673.611 916.031
327.273 680.556 923.664
327.273 687.5 175.573
327.273 694.444 916.031
327.273 701.389 885.496
327.273 708.333 122.137
327.273 715.278 885.496
327.273 722.222 900.763
327.273 729.167 45.8015
327.273 736.111 900.763
327.273 750 870.229
327.273 756.944 68.7023
327.273 763.889 877.863
327.273 770.833 770.992
327.273 777.778 45.8015
327.273 784.722 793.893
327.273 791.667 671.756
327.273 798.611 83.9695
327.273 805.556 671.756
327.273 812.5 641.221
327.273 819.444 38.1679
327.273 826.389 648.855
327.273 840.278 610.687
327.273 847.222 45.8015
327.273 854.167 610.687
331.818 277.778 458.015
331.818 284.722 458.015
331.818 291.667 458.015
331.818 298.611 473.282
331.818 305.556 473.282
331.818 312.5 480.916
331.818 319.444 480.916
331.818 326.389 480.916
331.818 333.333 488.55
331.818 340.278 488.55
331.818 347.222 625.954
331.818 354.167 625.954
331.818 361.111 625.954
331.818 368.056 625.954
331.818 375 625.954
331.818 381.944 694.656
331.818 388.889 572.519
331.818 395.833 572.519
331.818 402.778 625.954
331.818 409.722 625.954
331.818 416.667 694.656
331.818 423.611 709.924
331.818 430.556 709.924
331.818 437.5 816.794
331.818 444.444 664.122
331.818 451.389 824.427
331.818 458.333 717.557
331.818 465.278 473.282
331.818 472.222 778.626
331.818 479.167 778.626
331.818 486.111 587.786
331.818 493.056 778.626
331.818 500 503.817
331.818 506.944 740.458
331.818 513.889 458.015
331.818 520.833 458.015
331.818 527.778 450.382
331.818 548.611 450.382
331.818 555.556 450.382
331.818 562.5 450.382
331.818 569.444 450.382
331.818 576.389 748.092
331.818 583.333 343.511
331.818 590.278 801.527
331.818 597.222 763.359
331.818 604.167 763.359
331.818 611.111 824.427
331.818 618.056 854.962
331.818 625 396.947
331.818 631.944 885.496
331.818 638.889 877.863
331.818 645.833 206.107
331.818 652.778 854.962
331.818 659.722 916.031
331.818 666.667 99.2366
331.818 673.611 916.031
331.818 680.556 923.664
331.818 687.5 99.2366
331.818 694.444 916.031
331.818 701.389 908.397
331.818 708.333 83.9695
331.818 715.278 893.13
331.818 722.222 885.496
331.818 729.167 45.8015
331.818 736.111 893.13
331.818 750 862.595
331.818 756.944 83.9695
331.818 763.889 870.229
331.818 770.833 770.992
331.818 777.778 61.0687
331.818 784.722 770.992
331.818 791.667 679.389
331.818 798.611 106.87
331.818 805.556 671.756
331.818 812.5 610.687
331.818 819.444 221.374
331.818 826.389 641.221
331.818 840.278 580.153
331.818 847.222 83.9695
331.818 854.167 610.687
336.364 291.667 458.015
336.364 298.611 465.649
336.364 305.556 465.649
336.364 312.5 473.282
336.364 319.444 473.282
336.364 326.389 480.916
336.364 333.333 480.916
336.364 340.278 480.916
336.364 347.222 618.321
336.364 354.167 618.321
336.364 361.111 618.321
336.364 368.056 717.557
336.364 375 526.718
336.364 381.944 725.191
336.364 388.889 687.023
336.364 395.833 687.023
336.364 402.778 694.656
336.364 409.722 694.656
336.364 416.667 694.656
336.364 423.611 709.924
336.364 430.556 709.924
336.364 437.5 816.794
336.364 444.444 656.489
336.364 451.389 816.794
336.364 458.333 709.924
336.364 465.278 465.649
336.364 472.222 709.924
336.364 479.167 778.626
336.364 486.111 587.786
336.364 493.056 778.626
336.364 500 587.786
336.364 506.944 786.26
336.364 513.889 587.786
336.364 520.833 587.786
336.364 527.778 580.153
336.364 534.722 458.015
336.364 541.667 458.015
336.364 548.611 458.015
336.364 555.556 450.382
336.364 562.5 450.382
336.364 569.444 450.382
336.364 576.389 809.16
336.364 583.333 503.817
336.364 590.278 809.16
336.364 597.222 778.626
336.364 604.167 778.626
336.364 611.111 832.061
336.364 618.056 740.458
336.364 625 679.389
336.364 631.944 885.496
336.364 638.889 870.229
336.364 645.833 320.611
336.364 652.778 885.496
336.364 659.722 908.397
336.364 666.667 114.504
336.364 673.611 908.397
336.364 680.556 931.298
336.364 687.5 91.6031
336.364 694.444 931.298
336.364 701.389 916.031
336.364 708.333 76.3359
336.364 715.278 908.397
336.364 722.222 885.496
336.364 729.167 61.0687
336.364 736.111 885.496
336.364 750 862.595
336.364 756.944 61.0687
336.364 763.889 862.595
336.364 770.833 748.092
336.364 784.722 770.992
336.364 791.667 709.924
336.364 798.611 145.038
336.364 805.556 709.924
336.364 812.5 610.687
336.364 819.444 259.542
336.364 826.389 625.954
336.364 840.278 511.45
336.364 847.222 122.137
336.364 854.167 580.153
340.909 298.611 465.649
340.909 305.556 465.649
340.909 312.5 465.649
340.909 319.444 473.282
340.909 326.389 473.282
340.909 333.333 473.282
340.909 340.278 473.282
340.909 347.222 610.687
340.909 354.167 618.321
340.909 361.111 618.321
340.909 368.056 717.557
340.909 375 526.718
340.909 381.944 725.191
340.909 388.889 679.389
340.909 395.833 687.023
340.909 402.778 702.29
340.909 409.722 702.29
340.909 416.667 694.656
340.909 423.611 709.924
340.909 430.556 709.924
340.909 437.5 816.794
340.909 444.444 572.519
340.909 451.389 816.794
340.909 458.333 748.092
340.909 465.278 557.252
340.909 472.222 755.725
340.909 479.167 702.29
340.909 486.111 465.649
340.909 493.056 778.626
340.909 500 580.153
340.909 506.944 778.626
340.909 513.889 687.023
340.909 520.833 687.023
340.909 527.778 679.389
340.909 534.722 671.756
340.909 541.667 671.756
340.909 548.611 671.756
340.909 555.556 610.687
340.909 562.5 610.687
340.909 569.444 610.687
340.909 576.389 832.061
340.909 583.333 625.954
340.909 590.278 832.061
340.909 597.222 809.16
340.909 604.167 580.153
340.909 611.111 839.695
340.909 618.056 770.992
340.909 625 725.191
340.909 631.944 770.992
340.909 638.889 809.16
340.909 645.833 625.954
340.909 652.778 870.229
340.909 659.722 908.397
340.909 666.667 122.137
340.909 673.611 908.397
340.909 680.556 931.298
340.909 687.5 83.9695
340.909 694.444 923.664
340.909 701.389 916.031
340.909 708.333 83.9695
340.909 715.278 916.031
340.909 722.222 885.496
340.909 729.167 83.9695
340.909 736.111 877.863
340.909 750 862.595
340.909 756.944 83.9695
340.909 763.889 870.229
340.909 770.833 763.359
340.909 777.778 53.4351
340.909 784.722 755.725
340.909 791.667 702.29
340.909 798.611 175.573
340.909 805.556 709.924
340.909 812.5 572.519
340.909 819.444 83.9695
340.909 826.389 610.687
340.909 840.278 442.748
340.909 847.222 183.206
340.909 854.167 511.45
345.455 298.611 465.649
345.455 305.556 465.649
345.455 312.5 465.649
345.455 319.444 465.649
345.455 326.389 473.282
345.455 333.333 473.282
345.455 340.278 473.282
345.455 347.222 610.687
345.455 354.167 618.321
345.455 361.111 618.321
345.455 368.056 717.557
345.455 375 526.718
345.455 381.944 725.191
345.455 388.889 679.389
345.455 395.833 679.389
345.455 402.778 694.656
345.455 409.722 694.656
345.455 416.667 694.656
345.455 423.611 748.092
345.455 430.556 748.092
345.455 437.5 816.794
345.455 444.444 732.824
345.455 451.389 763.359
345.455 458.333 709.924
345.455 465.278 709.924
345.455 472.222 748.092
345.455 479.167 694.656
345.455 486.111 458.015
345.455 493.056 778.626
345.455 500 580.153
345.455 506.944 778.626
345.455 513.889 770.992
345.455 520.833 564.885
345.455 527.778 755.725
345.455 534.722 748.092
345.455 541.667 541.985
345.455 548.611 740.458
345.455 555.556 687.023
345.455 562.5 687.023
345.455 569.444 687.023
345.455 576.389 870.229
345.455 583.333 694.656
345.455 590.278 862.595
345.455 597.222 839.695
345.455 604.167 572.519
345.455 611.111 839.695
345.455 618.056 832.061
345.455 625 786.26
345.455 631.944 832.061
345.455 638.889 832.061
345.455 645.833 511.45
345.455 652.778 847.328
345.455 659.722 908.397
345.455 666.667 236.641
345.455 673.611 900.763
345.455 680.556 938.931
345.455 687.5 7.63359
345.455 694.444 931.298
345.455 701.389 931.298
345.455 708.333 7.63359
345.455 715.278 923.664
345.455 722.222 893.13
345.455 729.167 53.4351
345.455 736.111 885.496
345.455 750 893.13
345.455 756.944 99.2366
345.455 763.889 862.595
345.455 770.833 801.527
345.455 777.778 53.4351
345.455 784.722 778.626
345.455 791.667 702.29
345.455 798.611 91.6031
345.455 805.556 702.29
345.455 812.5 541.985
345.455 819.444 236.641
345.455 826.389 572.519
345.455 840.278 305.344
345.455 847.222 305.344
345.455 854.167 442.748
350 312.5 465.649
350 319.444 465.649
350 326.389 465.649
350 333.333 473.282
350 340.278 473.282
350 347.222 610.687
350 354.167 610.687
350 361.111 618.321
350 368.056 694.656
350 375 450.382
350 381.944 725.191
350 388.889 687.023
350 395.833 679.389
350 402.778 694.656
350 409.722 694.656
350 416.667 694.656
350 423.611 755.725
350 430.556 557.252
350 437.5 816.794
350 444.444 732.824
350 451.389 732.824
350 458.333 709.924
350 465.278 709.924
350 472.222 709.924
350 479.167 633.588
350 486.111 633.588
350 493.056 763.359
350 500 564.885
350 506.944 809.16
350 513.889 763.359
350 520.833 564.885
350 527.778 763.359
350 534.722 748.092
350 541.667 549.618
350 548.611 740.458
350 555.556 748.092
350 562.5 541.985
350 569.444 748.092
350 576.389 847.328
350 583.333 671.756
350 590.278 839.695
350 597.222 824.427
350 604.167 656.489
350 611.111 839.695
350 618.056 809.16
350 625 442.748
350 631.944 816.794
350 638.889 847.328
350 645.833 236.641
350 652.778 839.695
350 659.722 908.397
350 666.667 129.771
350 673.611 908.397
350 680.556 931.298
350 687.5 38.1679
350 694.444 931.298
350 701.389 931.298
350 708.333 61.0687
350 715.278 923.664
350 722.222 916.031
350 729.167 122.137
350 736.111 893.13
350 750 900.763
350 756.944 122.137
350 763.889 893.13
350 770.833 809.16
350 777.778 38.1679
350 784.722 801.527
350 791.667 702.29
350 798.611 83.9695
350 805.556 702.29
350 812.5 541.985
350 819.444 76.3359
350 826.389 541.985
350 840.278 305.344
350 847.222 305.344
350 854.167 305.344
354.545 326.389 465.649
354.545 347.222 603.053
354.545 354.167 610.687
354.545 361.111 610.687
354.545 368.056 725.191
354.545 375 534.351
354.545 381.944 732.824
354.545 388.889 687.023
354.545 395.833 687.023
354.545 402.778 694.656
354.545 409.722 694.656
354.545 416.667 687.023
354.545 423.611 755.725
354.545 430.556 557.252
354.545 437.5 816.794
354.545 444.444 664.122
354.545 451.389 732.824
354.545 458.333 618.321
354.545 465.278 618.321
354.545 472.222 770.992
354.545 479.167 519.084
354.545 486.111 519.084
354.545 493.056 725.191
354.545 500 725.191
354.545 506.944 763.359
354.545 513.889 687.023
354.545 520.833 450.382
354.545 527.778 763.359
354.545 534.722 679.389
354.545 541.667 679.389
354.545 548.611 748.092
354.545 555.556 725.191
354.545 562.5 549.618
354.545 569.444 725.191
354.545 576.389 862.595
354.545 583.333 595.42
354.545 590.278 862.595
354.545 597.222 816.794
354.545 604.167 709.924
354.545 611.111 809.16
354.545 618.056 809.16
354.545 625 427.481
354.545 631.944 809.16
354.545 638.889 870.229
354.545 645.833 221.374
354.545 652.778 847.328
354.545 659.722 908.397
354.545 666.667 183.206
354.545 673.611 908.397
354.545 680.556 931.298
354.545 694.444 931.298
354.545 701.389 923.664
354.545 708.333 76.3359
354.545 715.278 931.298
354.545 722.222 916.031
354.545 729.167 152.672
354.545 736.111 916.031
354.545 750 923.664
354.545 756.944 183.206
354.545 763.889 916.031
354.545 770.833 809.16
354.545 777.778 0
354.545 784.722 801.527
354.545 791.667 702.29
354.545 798.611 30.5344
354.545 805.556 702.29
354.545 812.5 557.252
354.545 819.444 312.977
354.545 826.389 564.885
354.545 840.278 305.344
354.545 847.222 305.344
354.545 854.167 305.344
359.091 347.222 396.947
359.091 354.167 396.947
359.091 361.111 610.687
359.091 368.056 725.191
359.091 375 534.351
359.091 381.944 725.191
359.091 388.889 687.023
359.091 395.833 687.023
359.091 402.778 679.389
359.091 409.722 679.389
359.091 416.667 694.656
359.091 423.611 755.725
359.091 430.556 564.885
359.091 437.5 816.794
359.091 444.444 664.122
359.091 451.389 656.489
359.091 458.333 618.321
359.091 465.278 618.321
359.091 472.222 625.954
359.091 479.167 519.084
359.091 486.111 519.084
359.091 493.056 519.084
359.091 500 519.084
359.091 506.944 725.191
359.091 513.889 717.557
359.091 520.833 717.557
359.091 527.778 748.092
359.091 534.722 717.557
359.091 541.667 580.153
359.091 548.611 717.557
359.091 555.556 740.458
359.091 562.5 740.458
359.091 569.444 778.626
359.091 576.389 839.695
359.091 583.333 419.847
359.091 590.278 839.695
359.091 597.222 839.695
359.091 604.167 519.084
359.091 611.111 832.061
359.091 618.056 824.427
359.091 625 465.649
359.091 631.944 824.427
359.091 638.889 870.229
359.091 645.833 213.74
359.091 652.778 862.595
359.091 659.722 916.031
359.091 666.667 114.504
359.091 673.611 916.031
359.091 680.556 931.298
359.091 687.5 0
359.091 694.444 931.298
359.091 701.389 923.664
359.091 708.333 91.6031
359.091 715.278 923.664
359.091 722.222 908.397
359.091 729.167 114.504
359.091 736.111 916.031
359.091 750 916.031
359.091 756.944 99.2366
359.091 763.889 908.397
359.091 770.833 832.061
359.091 777.778 114.504
359.091 784.722 824.427
359.091 791.667 725.191
359.091 798.611 68.7023
359.091 805.556 725.191
359.091 812.5 641.221
359.091 819.444 114.504
359.091 826.389 641.221
359.091 840.278 305.344
359.091 847.222 305.344
359.091 854.167 305.344
363.636 347.222 389.313
363.636 354.167 389.313
363.636 361.111 396.947
363.636 368.056 648.855
363.636 375 412.214
363.636 381.944 725.191
363.636 388.889 679.389
363.636 395.833 687.023
363.636 402.778 694.656
363.636 409.722 694.656
363.636 416.667 687.023
363.636 423.611 748.092
363.636 430.556 564.885
363.636 437.5 816.794
363.636 444.444 763.359
363.636 451.389 763.359
363.636 458.333 465.649
363.636 465.278 465.649
363.636 472.222 618.321
363.636 479.167 687.023
363.636 486.111 687.023
363.636 493.056 687.023
363.636 500 679.389
363.636 506.944 679.389
363.636 513.889 656.489
363.636 520.833 656.489
363.636 527.778 694.656
363.636 534.722 679.389
363.636 541.667 564.885
363.636 548.611 748.092
363.636 555.556 694.656
363.636 562.5 664.122
363.636 569.444 725.191
363.636 576.389 839.695
363.636 583.333 587.786
363.636 590.278 839.695
363.636 597.222 839.695
363.636 604.167 519.084
363.636 611.111 839.695
363.636 618.056 832.061
363.636 625 633.588
363.636 631.944 832.061
363.636 638.889 854.962
363.636 645.833 213.74
363.636 652.778 854.962
363.636 659.722 916.031
363.636 666.667 167.939
363.636 673.611 916.031
363.636 680.556 946.565
363.636 687.5 0
363.636 694.444 938.931
363.636 701.389 916.031
363.636 708.333 99.2366
363.636 715.278 916.031
363.636 722.222 916.031
363.636 729.167 122.137
363.636 736.111 908.397
363.636 750 923.664
363.636 756.944 53.4351
363.636 763.889 923.664
363.636 770.833 832.061
363.636 777.778 61.0687
363.636 784.722 824.427
363.636 791.667 748.092
363.636 805.556 748.092
363.636 812.5 641.221
363.636 819.444 91.6031
363.636 826.389 641.221
363.636 840.278 572.519
363.636 847.222 465.649
363.636 854.167 572.519
368.182 347.222 389.313
368.182 354.167 389.313
368.182 361.111 389.313
368.182 368.056 648.855
368.182 375 412.214
368.182 381.944 648.855
368.182 388.889 564.885
368.182 395.833 679.389
368.182 402.778 572.519
368.182 409.722 572.519
368.182 416.667 687.023
368.182 423.611 702.29
368.182 430.556 702.29
368.182 437.5 809.16
368.182 444.444 763.359
368.182 451.389 763.359
368.182 458.333 480.916
368.182 465.278 480.916
368.182 472.222 473.282
368.182 479.167 473.282
368.182 486.111 473.282
368.182 493.056 687.023
368.182 500 687.023
368.182 506.944 687.023
368.182 513.889 656.489
368.182 520.833 656.489
368.182 527.778 656.489
368.182 534.722 534.351
368.182 541.667 366.412
368.182 548.611 679.389
368.182 555.556 656.489
368.182 562.5 396.947
368.182 569.444 679.389
368.182 576.389 786.26
368.182 583.333 480.916
368.182 590.278 832.061
368.182 597.222 839.695
368.182 604.167 633.588
368.182 611.111 839.695
368.182 618.056 847.328
368.182 625 503.817
368.182 631.944 847.328
368.182 638.889 862.595
368.182 645.833 167.939
368.182 652.778 854.962
368.182 659.722 916.031
368.182 666.667 83.9695
368.182 673.611 916.031
368.182 680.556 946.565
368.182 687.5 0
368.182 694.444 946.565
368.182 701.389 916.031
368.182 708.333 213.74
368.182 715.278 923.664
368.182 722.222 908.397
368.182 729.167 53.4351
368.182 736.111 916.031
368.182 750 938.931
368.182 756.944 45.8015
368.182 763.889 923.664
368.182 770.833 816.794
368.182 777.778 61.0687
368.182 784.722 832.061
368.182 791.667 748.092
368.182 805.556 748.092
368.182 812.5 725.191
368.182 819.444 251.908
368.182 826.389 725.191
368.182 840.278 572.519
368.182 847.222 30.5344
368.182 854.167 572.519
368.182 861.111 297.71
368.182 868.056 297.71
368.182 875 297.71
372.727 347.222 389.313
372.727 354.167 389.313
372.727 361.111 389.313
372.727 368.056 648.855
372.727 375 412.214
372.727 381.944 648.855
372.727 388.889 564.885
372.727 395.833 564.885
372.727 402.778 572.519
372.727 409.722 572.519
372.727 416.667 580.153
372.727 423.611 702.29
372.727 430.556 702.29
372.727 437.5 702.29
372.727 444.444 641.221
372.727 451.389 763.359
372.727 458.333 488.55
372.727 465.278 488.55
372.727 472.222 488.55
372.727 479.167 480.916
372.727 486.111 480.916
372.727 493.056 664.122
372.727 500 664.122
372.727 506.944 664.122
372.727 513.889 664.122
372.727 520.833 664.122
372.727 527.778 656.489
372.727 534.722 389.313
372.727 541.667 160.305
372.727 548.611 534.351
372.727 555.556 664.122
372.727 562.5 396.947
372.727 569.444 656.489
372.727 576.389 732.824
372.727 583.333 511.45
372.727 590.278 793.893
372.727 597.222 809.16
372.727 604.167 450.382
372.727 611.111 839.695
372.727 618.056 832.061
372.727 625 465.649
372.727 631.944 847.328
372.727 638.889 885.496
372.727 645.833 221.374
372.727 652.778 862.595
372.727 659.722 908.397
372.727 666.667 145.038
372.727 673.611 908.397
372.727 680.556 946.565
372.727 687.5 0
372.727 694.444 946.565
372.727 701.389 923.664
372.727 708.333 190.84
372.727 715.278 916.031
372.727 722.222 916.031
372.727 729.167 76.3359
372.727 736.111 908.397
372.727 750 938.931
372.727 756.944 38.1679
372.727 763.889 938.931
372.727 770.833 801.527
372.727 777.778 0
372.727 784.722 816.794
372.727 791.667 755.725
372.727 798.611 99.2366
372.727 805.556 748.092
372.727 812.5 740.458
372.727 819.444 145.038
372.727 826.389 725.191
372.727 840.278 572.519
372.727 847.222 114.504
372.727 854.167 572.519
372.727 861.111 297.71
372.727 868.056 297.71
372.727 875 297.71
377.273 347.222 396.947
377.273 354.167 396.947
377.273 361.111 389.313
377.273 368.056 580.153
377.273 375 580.153
377.273 381.944 648.855
377.273 388.889 564.885
377.273 395.833 564.885
377.273 402.778 572.519
377.273 409.722 572.519
377.273 416.667 564.885
377.273 423.611 664.122
377.273 430.556 664.122
377.273 437.5 748.092
377.273 444.444 641.221
377.273 451.389 641.221
377.273 458.333 496.183
377.273 465.278 496.183
377.273 472.222 488.55
377.273 479.167 488.55
377.273 486.111 488.55
377.273 493.056 519.084
377.273 500 519.084
377.273 506.944 664.122
377.273 513.889 671.756
377.273 520.833 671.756
377.273 527.778 664.122
377.273 534.722 396.947
377.273 541.667 167.939
377.273 548.611 389.313
377.273 555.556 725.191
377.273 562.5 335.878
377.273 569.444 717.557
377.273 576.389 694.656
377.273 583.333 389.313
377.273 590.278 732.824
377.273 597.222 770.992
377.273 604.167 404.58
377.273 611.111 786.26
377.273 618.056 832.061
377.273 625 473.282
377.273 631.944 839.695
377.273 638.889 877.863
377.273 645.833 175.573
377.273 652.778 877.863
377.273 659.722 908.397
377.273 666.667 45.8015
377.273 673.611 908.397
377.273 680.556 946.565
377.273 694.444 946.565
377.273 701.389 931.298
377.273 708.333 167.939
377.273 715.278 923.664
377.273 722.222 923.664
377.273 729.167 68.7023
377.273 736.111 916.031
377.273 750 946.565
377.273 756.944 76.3359
377.273 763.889 938.931
377.273 770.833 801.527
377.273 777.778 15.2672
377.273 784.722 801.527
377.273 791.667 763.359
377.273 798.611 221.374
377.273 805.556 755.725
377.273 812.5 732.824
377.273 819.444 213.74
377.273 826.389 732.824
377.273 840.278 572.519
377.273 847.222 53.4351
377.273 854.167 572.519
377.273 875 297.71
381.818 312.5 458.015
381.818 319.444 458.015
381.818 326.389 458.015
381.818 333.333 465.649
381.818 340.278 465.649
381.818 347.222 595.42
381.818 354.167 603.053
381.818 361.111 603.053
381.818 368.056 694.656
381.818 375 694.656
381.818 381.944 725.191
381.818 388.889 564.885
381.818 395.833 564.885
381.818 402.778 572.519
381.818 409.722 572.519
381.818 416.667 572.519
381.818 423.611 740.458
381.818 430.556 557.252
381.818 437.5 793.893
381.818 444.444 557.252
381.818 451.389 778.626
381.818 458.333 496.183
381.818 465.278 496.183
381.818 472.222 496.183
381.818 479.167 496.183
381.818 486.111 496.183
381.818 493.056 679.389
381.818 500 488.55
381.818 506.944 656.489
381.818 513.889 725.191
381.818 520.833 435.115
381.818 527.778 717.557
381.818 534.722 572.519
381.818 541.667 396.947
381.818 548.611 564.885
381.818 555.556 679.389
381.818 562.5 412.214
381.818 569.444 725.191
381.818 576.389 694.656
381.818 583.333 389.313
381.818 590.278 694.656
381.818 597.222 748.092
381.818 604.167 389.313
381.818 611.111 778.626
381.818 618.056 847.328
381.818 625 480.916
381.818 631.944 847.328
381.818 638.889 854.962
381.818 645.833 183.206
381.818 652.778 877.863
381.818 659.722 916.031
381.818 666.667 7.63359
381.818 673.611 908.397
381.818 680.556 946.565
381.818 694.444 946.565
381.818 701.389 931.298
381.818 708.333 152.672
381.818 715.278 931.298
381.818 722.222 916.031
381.818 729.167 38.1679
381.818 736.111 916.031
381.818 750 938.931
381.818 756.944 68.7023
381.818 763.889 946.565
381.818 770.833 793.893
381.818 777.778 22.9008
381.818 784.722 801.527
381.818 791.667 809.16
381.818 798.611 312.977
381.818 805.556 763.359
381.818 812.5 748.092
381.818 819.444 183.206
381.818 826.389 732.824
381.818 840.278 549.618
381.818 847.222 114.504
381.818 854.167 572.519
386.364 166.667 435.115
386.364 173.611 435.115
386.364 180.556 435.115
386.364 277.778 442.748
386.364 284.722 442.748
386.364 291.667 442.748
386.364 298.611 458.015
386.364 305.556 458.015
386.364 312.5 458.015
386.364 319.444 458.015
386.364 326.389 458.015
386.364 333.333 465.649
386.364 340.278 465.649
386.364 347.222 664.122
386.364 354.167 435.115
386.364 361.111 664.122
386.364 368.056 694.656
386.364 375 694.656
386.364 381.944 694.656
386.364 388.889 702.29
386.364 395.833 732.824
386.364 402.778 572.519
386.364 409.722 572.519
386.364 416.667 572.519
386.364 423.611 740.458
386.364 430.556 557.252
386.364 437.5 740.458
386.364 444.444 702.29
386.364 451.389 778.626
386.364 458.333 702.29
386.364 465.278 702.29
386.364 472.222 702.29
386.364 493.056 694.656
386.364 500 618.321
386.364 506.944 694.656
386.364 513.889 732.824
386.364 520.833 435.115
386.364 527.778 725.191
386.364 534.722 580.153
386.364 541.667 312.977
386.364 548.611 572.519
386.364 555.556 687.023
386.364 562.5 412.214
386.364 569.444 679.389
386.364 576.389 702.29
386.364 583.333 396.947
386.364 590.278 694.656
386.364 597.222 748.092
386.364 604.167 419.847
386.364 611.111 770.992
386.364 618.056 824.427
386.364 625 358.779
386.364 631.944 832.061
386.364 638.889 847.328
386.364 645.833 145.038
386.364 652.778 854.962
386.364 659.722 908.397
386.364 666.667 0
386.364 673.611 908.397
386.364 680.556 946.565
386.364 687.5 7.63359
386.364 694.444 946.565
386.364 701.389 931.298
386.364 708.333 152.672
386.364 715.278 931.298
386.364 722.222 916.031
386.364 729.167 83.9695
386.364 736.111 923.664
386.364 750 931.298
386.364 756.944 91.6031
386.364 763.889 938.931
386.364 770.833 801.527
386.364 777.778 22.9008
386.364 784.722 793.893
386.364 791.667 786.26
386.364 798.611 312.977
386.364 805.556 786.26
386.364 812.5 770.992
386.364 819.444 358.779
386.364 826.389 763.359
386.364 840.278 687.023
386.364 847.222 442.748
386.364 854.167 687.023
390.909 111.111 412.214
390.909 118.056 412.214
390.909 125 412.214
390.909 131.944 412.214
390.909 138.889 412.214
390.909 145.833 419.847
390.909 152.778 419.847
390.909 159.722 427.481
390.909 166.667 435.115
390.909 173.611 435.115
390.909 180.556 435.115
390.909 277.778 442.748
390.909 284.722 442.748
390.909 291.667 442.748
390.909 298.611 458.015
390.909 305.556 458.015
390.909 312.5 458.015
390.909 319.444 465.649
390.909 326.389 458.015
390.909 333.333 465.649
390.909 340.278 465.649
390.909 347.222 664.122
390.909 354.167 435.115
390.909 361.111 664.122
390.909 368.056 694.656
390.909 375 694.656
390.909 381.944 694.656
390.909 388.889 702.29
390.909 395.833 702.29
390.909 402.778 687.023
390.909 409.722 687.023
390.909 416.667 687.023
390.909 423.611 732.824
390.909 430.556 564.885
390.909 437.5 709.924
390.909 444.444 671.756
390.909 451.389 671.756
390.909 458.333 778.626
390.909 465.278 702.29
390.909 472.222 778.626
390.909 479.167 641.221
390.909 486.111 641.221
390.909 493.056 717.557
390.909 500 450.382
390.909 506.944 709.924
390.909 513.889 740.458
390.909 520.833 435.115
390.909 527.778 740.458
390.909 534.722 664.122
390.909 541.667 442.748
390.909 548.611 664.122
390.909 555.556 648.855
390.909 562.5 374.046
390.909 569.444 671.756
390.909 576.389 740.458
390.909 583.333 480.916
390.909 590.278 732.824
390.909 597.222 732.824
390.909 604.167 366.412
390.909 611.111 778.626
390.909 618.056 824.427
390.909 625 267.176
390.909 631.944 824.427
390.909 638.889 847.328
390.909 645.833 190.84
390.909 652.778 847.328
390.909 659.722 908.397
390.909 666.667 38.1679
390.909 673.611 908.397
390.909 680.556 938.931
390.909 687.5 53.4351
390.909 694.444 938.931
390.909 701.389 938.931
390.909 708.333 190.84
390.909 715.278 938.931
390.909 722.222 938.931
390.909 729.167 160.305
390.909 736.111 923.664
390.909 750 931.298
390.909 756.944 145.038
390.909 763.889 931.298
390.909 770.833 793.893
390.909 777.778 68.7023
390.909 784.722 793.893
390.909 791.667 748.092
390.909 798.611 381.679
390.909 805.556 770.992
390.909 812.5 763.359
390.909 819.444 122.137
390.909 826.389 763.359
390.909 840.278 732.824
390.909 847.222 244.275
390.909 854.167 732.824
395.455 111.111 412.214
395.455 118.056 412.214
395.455 125 412.214
395.455 131.944 412.214
395.455 138.889 412.214
395.455 145.833 419.847
395.455 152.778 427.481
395.455 159.722 427.481
395.455 166.667 435.115
395.455 173.611 442.748
395.455 180.556 435.115
395.455 201.389 442.748
395.455 208.333 442.748
395.455 215.278 442.748
395.455 277.778 442.748
395.455 284.722 442.748
395.455 291.667 442.748
395.455 298.611 458.015
395.455 305.556 458.015
395.455 312.5 458.015
395.455 319.444 465.649
395.455 326.389 465.649
395.455 333.333 610.687
395.455 340.278 610.687
395.455 347.222 709.924
395.455 354.167 519.084
395.455 361.111 709.924
395.455 368.056 687.023
395.455 375 687.023
395.455 381.944 694.656
395.455 388.889 702.29
395.455 395.833 702.29
395.455 402.778 625.954
395.455 409.722 625.954
395.455 416.667 687.023
395.455 423.611 732.824
395.455 430.556 564.885
395.455 437.5 709.924
395.455 444.444 671.756
395.455 451.389 671.756
395.455 458.333 694.656
395.455 465.278 694.656
395.455 472.222 770.992
395.455 479.167 618.321
395.455 486.111 618.321
395.455 493.056 702.29
395.455 500 396.947
395.455 506.944 702.29
395.455 513.889 763.359
395.455 520.833 496.183
395.455 527.778 763.359
395.455 534.722 687.023
395.455 541.667 549.618
395.455 548.611 671.756
395.455 555.556 641.221
395.455 562.5 335.878
395.455 569.444 679.389
395.455 576.389 671.756
395.455 583.333 374.046
395.455 590.278 740.458
395.455 597.222 748.092
395.455 604.167 389.313
395.455 611.111 748.092
395.455 618.056 832.061
395.455 625 183.206
395.455 631.944 824.427
395.455 638.889 847.328
395.455 645.833 145.038
395.455 652.778 854.962
395.455 659.722 908.397
395.455 666.667 38.1679
395.455 673.611 908.397
395.455 680.556 938.931
395.455 687.5 22.9008
395.455 694.444 938.931
395.455 701.389 923.664
395.455 708.333 83.9695
395.455 715.278 938.931
395.455 722.222 938.931
395.455 729.167 145.038
395.455 736.111 931.298
395.455 750 931.298
395.455 756.944 122.137
395.455 763.889 931.298
395.455 770.833 801.527
395.455 777.778 30.5344
395.455 784.722 809.16
395.455 791.667 755.725
395.455 798.611 259.542
395.455 805.556 778.626
395.455 812.5 755.725
395.455 819.444 7.63359
395.455 826.389 755.725
395.455 840.278 725.191
395.455 847.222 30.5344
395.455 854.167 725.191
395.455 861.111 717.557
395.455 868.056 717.557
395.455 875 717.557
400 111.111 412.214
400 118.056 412.214
400 125 412.214
400 131.944 419.847
400 138.889 412.214
400 152.778 419.847
400 159.722 435.115
400 166.667 435.115
400 173.611 442.748
400 180.556 442.748
400 201.389 442.748
400 208.333 442.748
400 215.278 442.748
400 277.778 450.382
400 284.722 450.382
400 291.667 442.748
400 298.611 458.015
400 305.556 458.015
400 312.5 458.015
400 319.444 458.015
400 326.389 458.015
400 333.333 603.053
400 340.278 603.053
400 347.222 717.557
400 354.167 526.718
400 361.111 709.924
400 368.056 687.023
400 375 687.023
400 381.944 687.023
400 388.889 694.656
400 395.833 702.29
400 402.778 587.786
400 409.722 587.786
400 416.667 702.29
400 423.611 694.656
400 430.556 694.656
400 437.5 709.924
400 444.444 664.122
400 451.389 671.756
400 458.333 687.023
400 465.278 687.023
400 472.222 694.656
400 479.167 618.321
400 486.111 618.321
400 493.056 656.489
400 500 473.282
400 506.944 702.29
400 513.889 763.359
400 520.833 496.183
400 527.778 763.359
400 534.722 702.29
400 541.667 503.817
400 548.611 694.656
400 555.556 572.519
400 562.5 213.74
400 569.444 648.855
400 576.389 694.656
400 583.333 396.947
400 590.278 694.656
400 597.222 748.092
400 604.167 267.176
400 611.111 748.092
400 618.056 832.061
400 625 152.672
400 631.944 824.427
400 638.889 877.863
400 645.833 175.573
400 652.778 862.595
400 659.722 916.031
400 666.667 38.1679
400 673.611 908.397
400 680.556 931.298
400 687.5 83.9695
400 694.444 931.298
400 701.389 931.298
400 708.333 129.771
400 715.278 931.298
400 722.222 931.298
400 729.167 99.2366
400 736.111 931.298
400 750 931.298
400 756.944 137.405
400 763.889 931.298
400 770.833 801.527
400 777.778 15.2672
400 784.722 801.527
400 791.667 763.359
400 798.611 145.038
400 805.556 755.725
400 812.5 748.092
400 819.444 412.214
400 826.389 748.092
400 840.278 732.824
400 847.222 7.63359
400 854.167 725.191
400 861.111 709.924
400 868.056 320.611
400 875 709.924
404.545 111.111 412.214
404.545 118.056 412.214
404.545 125 412.214
404.545 131.944 412.214
404.545 138.889 412.214
404.545 145.833 419.847
404.545 152.778 427.481
404.545 159.722 435.115
404.545 166.667 435.115
404.545 173.611 442.748
404.545 180.556 442.748
404.545 201.389 442.748
404.545 208.333 442.748
404.545 215.278 442.748
404.545 222.222 442.748
404.545 229.167 442.748
404.545 277.778 450.382
404.545 284.722 450.382
404.545 291.667 450.382
404.545 298.611 450.382
404.545 305.556 450.382
404.545 312.5 587.786
404.545 319.444 587.786
404.545 326.389 595.42
404.545 333.333 595.42
404.545 340.278 595.42
404.545 347.222 717.557
404.545 354.167 534.351
404.545 361.111 717.557
404.545 368.056 679.389
404.545 375 679.389
404.545 381.944 687.023
404.545 388.889 694.656
404.545 395.833 694.656
404.545 402.778 702.29
404.545 409.722 702.29
404.545 416.667 702.29
404.545 423.611 694.656
404.545 430.556 694.656
404.545 437.5 709.924
404.545 444.444 664.122
404.545 451.389 664.122
404.545 458.333 656.489
404.545 465.278 656.489
404.545 472.222 656.489
404.545 479.167 618.321
404.545 486.111 488.55
404.545 493.056 656.489
404.545 500 465.649
404.545 506.944 664.122
404.545 513.889 763.359
404.545 520.833 488.55
404.545 527.778 763.359
404.545 534.722 664.122
404.545 541.667 465.649
404.545 548.611 717.557
404.545 555.556 625.954
404.545 562.5 389.313
404.545 569.444 610.687
404.545 576.389 694.656
404.545 583.333 396.947
404.545 590.278 694.656
404.545 597.222 770.992
404.545 604.167 351.145
404.545 611.111 763.359
404.545 618.056 839.695
404.545 625 213.74
404.545 631.944 839.695
404.545 638.889 893.13
404.545 645.833 175.573
404.545 652.778 877.863
404.545 659.722 916.031
404.545 666.667 0
404.545 673.611 908.397
404.545 680.556 931.298
404.545 687.5 91.6031
404.545 694.444 931.298
404.545 701.389 916.031
404.545 708.333 145.038
404.545 715.278 923.664
404.545 722.222 923.664
404.545 729.167 99.2366
404.545 736.111 931.298
404.545 750 900.763
404.545 756.944 61.0687
404.545 763.889 923.664
404.545 770.833 809.16
404.545 777.778 15.2672
404.545 784.722 801.527
404.545 791.667 763.359
404.545 798.611 114.504
404.545 805.556 763.359
404.545 812.5 755.725
404.545 819.444 22.9008
404.545 826.389 748.092
404.545 840.278 725.191
404.545 847.222 137.405
404.545 854.167 725.191
404.545 861.111 564.885
404.545 868.056 564.885
404.545 875 702.29
409.091 111.111 412.214
409.091 118.056 412.214
409.091 125 412.214
409.091 131.944 412.214
409.091 138.889 412.214
409.091 145.833 419.847
409.091 152.778 427.481
409.091 159.722 435.115
409.091 166.667 435.115
409.091 173.611 442.748
409.091 180.556 442.748
409.091 215.278 442.748
409.091 222.222 442.748
409.091 229.167 442.748
409.091 263.889 442.748
409.091 270.833 442.748
409.091 277.778 442.748
409.091 284.722 450.382
409.091 291.667 450.382
409.091 298.611 595.42
409.091 305.556 595.42
409.091 312.5 587.786
409.091 319.444 580.153
409.091 326.389 587.786
409.091 333.333 664.122
409.091 340.278 427.481
409.091 347.222 748.092
409.091 354.167 534.351
409.091 361.111 725.191
409.091 368.056 679.389
409.091 375 679.389
409.091 381.944 687.023
409.091 388.889 694.656
409.091 395.833 694.656
409.091 402.778 702.29
409.091 409.722 702.29
409.091 416.667 702.29
409.091 423.611 641.221
409.091 430.556 641.221
409.091 437.5 664.122
409.091 444.444 610.687
409.091 451.389 648.855
409.091 458.333 618.321
409.091 465.278 480.916
409.091 472.222 664.122
409.091 479.167 610.687
409.091 486.111 389.313
409.091 493.056 656.489
409.091 500 473.282
409.091 506.944 656.489
409.091 513.889 725.191
409.091 520.833 557.252
409.091 527.778 763.359
409.091 534.722 641.221
409.091 541.667 343.511
409.091 548.611 656.489
409.091 555.556 572.519
409.091 562.5 282.443
409.091 569.444 625.954
409.091 576.389 687.023
409.091 583.333 389.313
409.091 590.278 694.656
409.091 597.222 793.893
409.091 604.167 282.443
409.091 611.111 770.992
409.091 618.056 847.328
409.091 625 251.908
409.091 631.944 839.695
409.091 638.889 900.763
409.091 645.833 122.137
409.091 652.778 893.13
409.091 659.722 916.031
409.091 666.667 45.8015
409.091 673.611 916.031
409.091 680.556 931.298
409.091 687.5 22.9008
409.091 694.444 931.298
409.091 701.389 931.298
409.091 708.333 167.939
409.091 715.278 923.664
409.091 722.222 923.664
409.091 729.167 91.6031
409.091 736.111 916.031
409.091 750 893.13
409.091 756.944 152.672
409.091 763.889 908.397
409.091 770.833 809.16
409.091 777.778 15.2672
409.091 784.722 801.527
409.091 791.667 755.725
409.091 798.611 160.305
409.091 805.556 755.725
409.091 812.5 755.725
409.091 819.444 99.2366
409.091 826.389 755.725
409.091 840.278 687.023
409.091 847.222 76.3359
409.091 854.167 725.191
409.091 861.111 480.916
409.091 868.056 480.916
409.091 875 603.053
413.636 125 412.214
413.636 131.944 412.214
413.636 138.889 412.214
413.636 145.833 419.847
413.636 152.778 419.847
413.636 159.722 435.115
413.636 166.667 435.115
413.636 173.611 435.115
413.636 180.556 435.115
413.636 215.278 442.748
413.636 222.222 442.748
413.636 229.167 442.748
413.636 263.889 442.748
413.636 270.833 442.748
413.636 277.778 442.748
413.636 291.667 450.382
413.636 298.611 595.42
413.636 305.556 595.42
413.636 312.5 587.786
413.636 319.444 580.153
413.636 326.389 587.786
413.636 333.333 664.122
413.636 340.278 427.481
413.636 347.222 748.092
413.636 354.167 541.985
413.636 361.111 725.191
413.636 368.056 732.824
413.636 375 534.351
413.636 381.944 732.824
413.636 388.889 694.656
413.636 395.833 694.656
413.636 402.778 702.29
413.636 409.722 702.29
413.636 416.667 702.29
413.636 423.611 625.954
413.636 430.556 625.954
413.636 437.5 618.321
413.636 444.444 374.046
413.636 451.389 610.687
413.636 458.333 381.679
413.636 465.278 152.672
413.636 472.222 618.321
413.636 479.167 564.885
413.636 486.111 297.71
413.636 493.056 656.489
413.636 500 511.45
413.636 506.944 656.489
413.636 513.889 648.855
413.636 520.833 427.481
413.636 527.778 694.656
413.636 534.722 633.588
413.636 541.667 259.542
413.636 548.611 641.221
413.636 555.556 687.023
413.636 562.5 488.55
413.636 569.444 679.389
413.636 576.389 679.389
413.636 583.333 412.214
413.636 590.278 679.389
413.636 597.222 801.527
413.636 604.167 282.443
413.636 611.111 801.527
413.636 618.056 847.328
413.636 625 152.672
413.636 631.944 847.328
413.636 638.889 900.763
413.636 645.833 129.771
413.636 652.778 908.397
413.636 659.722 923.664
413.636 666.667 22.9008
413.636 673.611 916.031
413.636 680.556 931.298
413.636 687.5 15.2672
413.636 694.444 931.298
413.636 701.389 931.298
413.636 708.333 160.305
413.636 715.278 931.298
413.636 722.222 900.763
413.636 729.167 114.504
413.636 736.111 908.397
413.636 750 877.863
413.636 756.944 190.84
413.636 763.889 877.863
413.636 770.833 786.26
413.636 777.778 38.1679
413.636 784.722 801.527
413.636 791.667 725.191
413.636 798.611 15.2672
413.636 805.556 755.725
413.636 812.5 725.191
413.636 819.444 145.038
413.636 826.389 755.725
413.636 840.278 694.656
413.636 847.222 15.2672
413.636 854.167 694.656
413.636 861.111 549.618
413.636 868.056 374.046
413.636 875 549.618
418.182 125 412.214
418.182 131.944 412.214
418.182 138.889 412.214
418.182 145.833 412.214
418.182 152.778 419.847
418.182 159.722 435.115
418.182 166.667 435.115
418.182 173.611 435.115
418.182 180.556 435.115
418.182 187.5 435.115
418.182 194.444 435.115
418.182 201.389 435.115
418.182 215.278 442.748
418.182 222.222 442.748
418.182 229.167 442.748
418.182 277.778 442.748
418.182 312.5 595.42
418.182 326.389 580.153
418.182 333.333 664.122
418.182 340.278 427.481
418.182 347.222 748.092
418.182 354.167 435.115
418.182 361.111 755.725
418.182 368.056 763.359
418.182 375 603.053
418.182 381.944 740.458
418.182 388.889 671.756
418.182 395.833 664.122
418.182 402.778 702.29
418.182 409.722 702.29
418.182 416.667 702.29
418.182 423.611 618.321
418.182 430.556 618.321
418.182 437.5 618.321
418.182 444.444 381.679
418.182 451.389 541.985
418.182 458.333 564.885
418.182 465.278 297.71
418.182 472.222 557.252
418.182 479.167 557.252
418.182 486.111 557.252
418.182 493.056 572.519
418.182 500 358.779
418.182 506.944 618.321
418.182 513.889 648.855
418.182 520.833 351.145
418.182 527.778 648.855
418.182 534.722 664.122
418.182 541.667 389.313
418.182 548.611 664.122
418.182 555.556 679.389
418.182 562.5 465.649
418.182 569.444 679.389
418.182 576.389 709.924
418.182 583.333 412.214
418.182 590.278 709.924
418.182 597.222 816.794
418.182 604.167 351.145
418.182 611.111 801.527
418.182 618.056 854.962
418.182 625 259.542
418.182 631.944 854.962
418.182 638.889 900.763
418.182 645.833 106.87
418.182 652.778 900.763
418.182 659.722 923.664
418.182 666.667 22.9008
418.182 673.611 923.664
418.182 680.556 923.664
418.182 687.5 15.2672
418.182 694.444 923.664
418.182 701.389 900.763
418.182 708.333 137.405
418.182 715.278 916.031
418.182 722.222 900.763
418.182 729.167 68.7023
418.182 736.111 908.397
418.182 750 870.229
418.182 756.944 183.206
418.182 763.889 870.229
418.182 770.833 770.992
418.182 777.778 53.4351
418.182 784.722 793.893
418.182 791.667 725.191
418.182 798.611 30.5344
418.182 805.556 725.191
418.182 812.5 694.656
418.182 819.444 206.107
418.182 826.389 725.191
418.182 840.278 694.656
418.182 847.222 30.5344
418.182 854.167 694.656
418.182 861.111 526.718
418.182 868.056 76.3359
418.182 875 549.618
422.727 138.889 412.214
422.727 145.833 412.214
422.727 152.778 419.847
422.727 159.722 427.481
422.727 166.667 427.481
422.727 180.556 435.115
422.727 187.5 435.115
422.727 194.444 435.115
422.727 201.389 435.115
422.727 229.167 442.748
422.727 312.5 366.412
422.727 319.444 366.412
422.727 326.389 366.412
422.727 333.333 641.221
422.727 340.278 167.939
422.727 347.222 740.458
422.727 354.167 122.137
422.727 361.111 755.725
422.727 368.056 763.359
422.727 375 450.382
422.727 381.944 740.458
422.727 388.889 664.122
422.727 395.833 671.756
422.727 402.778 671.756
422.727 409.722 671.756
422.727 416.667 679.389
422.727 423.611 618.321
422.727 430.556 625.954
422.727 437.5 618.321
422.727 444.444 381.679
422.727 451.389 549.618
422.727 458.333 572.519
422.727 465.278 396.947
422.727 472.222 564.885
422.727 479.167 557.252
422.727 486.111 557.252
422.727 493.056 580.153
422.727 500 198.473
422.727 506.944 580.153
422.727 513.889 595.42
422.727 520.833 206.107
422.727 527.778 656.489
422.727 534.722 664.122
422.727 541.667 396.947
422.727 548.611 664.122
422.727 555.556 671.756
422.727 562.5 526.718
422.727 569.444 671.756
422.727 576.389 732.824
422.727 583.333 335.878
422.727 590.278 702.29
422.727 597.222 832.061
422.727 604.167 366.412
422.727 611.111 824.427
422.727 618.056 862.595
422.727 625 206.107
422.727 631.944 854.962
422.727 638.889 893.13
422.727 645.833 190.84
422.727 652.778 893.13
422.727 659.722 923.664
422.727 666.667 15.2672
422.727 673.611 923.664
422.727 680.556 931.298
422.727 687.5 7.63359
422.727 694.444 931.298
422.727 701.389 885.496
422.727 708.333 229.008
422.727 715.278 900.763
422.727 722.222 900.763
422.727 729.167 259.542
422.727 736.111 893.13
422.727 750 877.863
422.727 756.944 145.038
422.727 763.889 870.229
422.727 770.833 770.992
422.727 777.778 61.0687
422.727 784.722 770.992
422.727 791.667 732.824
422.727 798.611 106.87
422.727 805.556 725.191
422.727 812.5 694.656
422.727 819.444 259.542
422.727 826.389 694.656
422.727 840.278 694.656
422.727 847.222 30.5344
422.727 854.167 694.656
422.727 861.111 534.351
422.727 868.056 305.344
422.727 875 526.718
427.273 138.889 412.214
427.273 145.833 412.214
427.273 152.778 412.214
427.273 159.722 419.847
427.273 166.667 427.481
427.273 201.389 435.115
427.273 312.5 366.412
427.273 319.444 366.412
427.273 326.389 366.412
427.273 333.333 641.221
427.273 340.278 167.939
427.273 347.222 694.656
427.273 354.167 122.137
427.273 361.111 709.924
427.273 368.056 740.458
