110.553 938.931 459.459
110.553 946.565 459.459
110.553 954.198 466.216
110.553 961.832 466.216
110.553 969.466 466.216
110.553 977.099 459.459
110.553 984.733 459.459
110.553 992.366 459.459
110.553 1000 459.459
115.578 198.473 398.649
115.578 206.107 283.784
115.578 213.74 324.324
115.578 221.374 493.243
115.578 229.008 493.243
115.578 236.641 432.432
115.578 244.275 554.054
115.578 251.908 540.541
115.578 259.542 459.459
115.578 267.176 425.676
115.578 274.809 358.108
115.578 282.443 324.324
115.578 290.076 270.27
115.578 297.71 128.378
115.578 328.244 114.865
115.578 335.878 270.27
115.578 343.511 378.378
115.578 351.145 533.784
115.578 358.779 391.892
115.578 366.412 270.27
115.578 374.046 466.216
115.578 381.679 202.703
115.578 389.313 263.514
115.578 396.947 452.703
115.578 404.58 202.703
115.578 412.214 263.514
115.578 419.847 445.946
115.578 427.481 141.892
115.578 435.115 270.27
115.578 442.748 141.892
115.578 450.382 277.027
115.578 618.321 486.486
115.578 625.954 486.486
115.578 633.588 675.676
115.578 641.221 675.676
115.578 648.855 587.838
115.578 656.489 452.703
115.578 664.122 398.649
115.578 671.756 520.27
115.578 679.389 486.486
115.578 687.023 486.486
115.578 694.656 405.405
115.578 702.29 344.595
115.578 709.924 283.784
115.578 717.557 216.216
115.578 725.191 493.243
115.578 732.824 472.973
115.578 740.458 466.216
115.578 748.092 466.216
115.578 755.725 466.216
115.578 763.359 466.216
115.578 770.992 466.216
115.578 778.626 466.216
115.578 786.26 466.216
115.578 793.893 466.216
115.578 801.527 466.216
115.578 809.16 466.216
115.578 816.794 405.405
115.578 824.427 344.595
115.578 832.061 277.027
115.578 839.695 216.216
115.578 847.328 493.243
115.578 854.962 472.973
115.578 862.595 472.973
115.578 870.229 472.973
115.578 877.863 472.973
115.578 885.496 479.73
115.578 893.13 472.973
115.578 900.763 466.216
115.578 908.397 405.405
115.578 916.031 344.595
115.578 923.664 277.027
115.578 931.298 277.027
115.578 938.931 277.027
115.578 946.565 277.027
115.578 954.198 337.838
115.578 961.832 405.405
115.578 969.466 466.216
115.578 977.099 459.459
115.578 984.733 459.459
115.578 992.366 459.459
115.578 1000 459.459
120.603 175.573 256.757
120.603 183.206 263.514
120.603 190.84 405.405
120.603 198.473 337.838
120.603 206.107 229.73
120.603 213.74 425.676
120.603 221.374 547.297
120.603 229.008 371.622
120.603 236.641 412.162
120.603 244.275 459.459
120.603 251.908 493.243
120.603 259.542 358.108
120.603 267.176 385.135
120.603 274.809 317.568
120.603 282.443 216.216
120.603 290.076 128.378
120.603 320.611 20.2703
120.603 328.244 189.189
120.603 335.878 243.243
120.603 343.511 547.297
120.603 351.145 344.595
120.603 358.779 378.378
120.603 366.412 202.703
120.603 374.046 263.514
120.603 381.679 263.514
120.603 389.313 452.703
120.603 396.947 202.703
120.603 404.58 263.514
120.603 412.214 445.946
120.603 419.847 452.703
120.603 427.481 216.216
120.603 435.115 466.216
120.603 442.748 209.459
120.603 610.687 675.676
120.603 618.321 675.676
120.603 625.954 675.676
120.603 633.588 635.135
120.603 641.221 540.541
120.603 648.855 371.622
120.603 656.489 560.811
120.603 664.122 513.514
120.603 671.756 432.432
120.603 679.389 344.595
120.603 687.023 283.784
120.603 694.656 222.973
120.603 702.29 493.243
120.603 709.924 472.973
120.603 717.557 472.973
120.603 725.191 412.162
120.603 732.824 344.595
120.603 740.458 277.027
120.603 748.092 277.027
120.603 755.725 277.027
120.603 763.359 277.027
120.603 770.992 277.027
120.603 778.626 277.027
120.603 786.26 277.027
120.603 793.893 277.027
120.603 801.527 277.027
120.603 809.16 277.027
120.603 816.794 216.216
120.603 824.427 493.243
120.603 832.061 472.973
120.603 839.695 472.973
120.603 847.328 472.973
120.603 854.962 466.216
120.603 862.595 405.405
120.603 870.229 344.595
120.603 877.863 277.027
120.603 885.496 277.027
120.603 893.13 277.027
120.603 900.763 277.027
120.603 908.397 216.216
120.603 916.031 493.243
120.603 923.664 472.973
120.603 931.298 479.73
120.603 938.931 479.73
120.603 946.565 479.73
120.603 954.198 493.243
120.603 961.832 216.216
120.603 969.466 337.838
120.603 977.099 398.649
120.603 984.733 459.459
120.603 992.366 459.459
125.628 145.038 195.946
125.628 152.672 283.784
125.628 160.305 324.324
125.628 167.939 310.811
125.628 175.573 324.324
125.628 183.206 277.027
125.628 190.84 337.838
125.628 198.473 418.919
125.628 206.107 398.649
125.628 213.74 486.486
125.628 221.374 405.405
125.628 229.008 412.162
125.628 236.641 398.649
125.628 244.275 472.973
125.628 251.908 351.351
125.628 259.542 256.757
125.628 267.176 270.27
125.628 274.809 162.162
125.628 320.611 81.0811
125.628 328.244 270.27
125.628 335.878 270.27
125.628 343.511 250
125.628 351.145 452.703
125.628 358.779 439.189
125.628 366.412 432.432
125.628 374.046 445.946
125.628 381.679 452.703
125.628 389.313 209.459
125.628 396.947 270.27
125.628 404.58 445.946
125.628 412.214 472.973
125.628 419.847 202.703
125.628 427.481 297.297
125.628 435.115 236.486
125.628 442.748 486.486
125.628 450.382 459.459
125.628 572.519 466.216
125.628 580.153 466.216
125.628 587.786 466.216
125.628 595.42 466.216
125.628 603.053 675.676
125.628 610.687 635.135
125.628 618.321 594.595
125.628 625.954 560.811
125.628 633.588 472.973
125.628 641.221 574.324
125.628 648.855 479.73
125.628 656.489 385.135
125.628 664.122 304.054
125.628 671.756 216.216
125.628 679.389 493.243
125.628 687.023 472.973
125.628 694.656 472.973
125.628 702.29 472.973
125.628 709.924 398.649
125.628 717.557 337.838
125.628 725.191 209.459
125.628 732.824 486.486
125.628 740.458 472.973
125.628 748.092 472.973
125.628 755.725 472.973
125.628 763.359 472.973
125.628 770.992 472.973
125.628 778.626 472.973
125.628 786.26 472.973
125.628 793.893 472.973
125.628 801.527 472.973
125.628 809.16 412.162
125.628 816.794 351.351
125.628 824.427 297.297
125.628 832.061 277.027
125.628 839.695 277.027
125.628 847.328 277.027
125.628 854.962 277.027
125.628 862.595 216.216
125.628 870.229 486.486
125.628 877.863 472.973
125.628 885.496 472.973
125.628 893.13 472.973
125.628 900.763 472.973
125.628 908.397 472.973
125.628 916.031 472.973
125.628 923.664 466.216
125.628 931.298 472.973
125.628 938.931 472.973
125.628 946.565 472.973
125.628 954.198 472.973
125.628 961.832 472.973
125.628 969.466 493.243
125.628 977.099 270.27
125.628 984.733 398.649
130.653 129.771 250
130.653 137.405 310.811
130.653 145.038 304.054
130.653 152.672 385.135
130.653 160.305 391.892
130.653 167.939 358.108
130.653 175.573 378.378
130.653 183.206 385.135
130.653 190.84 398.649
130.653 198.473 493.243
130.653 206.107 472.973
130.653 213.74 412.162
130.653 221.374 425.676
130.653 229.008 445.946
130.653 236.641 378.378
130.653 244.275 331.081
130.653 251.908 189.189
130.653 259.542 148.649
130.653 267.176 87.8378
130.653 312.977 20.2703
130.653 320.611 189.189
130.653 328.244 168.919
130.653 335.878 358.108
130.653 343.511 297.297
130.653 351.145 533.784
130.653 358.779 405.405
130.653 366.412 466.216
130.653 374.046 594.595
130.653 381.679 209.459
130.653 389.313 270.27
130.653 396.947 459.459
130.653 404.58 202.703
130.653 412.214 263.514
130.653 419.847 297.297
130.653 427.481 202.703
130.653 435.115 263.514
130.653 442.748 243.243
130.653 450.382 277.027
130.653 458.015 277.027
130.653 465.649 277.027
130.653 473.282 277.027
130.653 480.916 277.027
130.653 549.618 567.568
130.653 557.252 567.568
130.653 564.885 337.838
130.653 572.519 405.405
130.653 580.153 466.216
130.653 587.786 466.216
130.653 595.42 405.405
130.653 603.053 594.595
130.653 610.687 533.784
130.653 618.321 682.432
130.653 625.954 587.838
130.653 633.588 466.216
130.653 641.221 378.378
130.653 648.855 270.27
130.653 656.489 493.243
130.653 664.122 472.973
130.653 671.756 479.73
130.653 679.389 479.73
130.653 687.023 405.405
130.653 694.656 337.838
130.653 702.29 277.027
130.653 709.924 209.459
130.653 717.557 486.486
130.653 725.191 472.973
130.653 732.824 472.973
130.653 740.458 398.649
130.653 748.092 337.838
130.653 755.725 277.027
130.653 763.359 277.027
130.653 770.992 277.027
130.653 778.626 277.027
130.653 786.26 277.027
130.653 793.893 277.027
130.653 801.527 277.027
130.653 809.16 209.459
130.653 816.794 493.243
130.653 824.427 472.973
130.653 832.061 472.973
130.653 839.695 472.973
130.653 847.328 472.973
130.653 854.962 472.973
130.653 862.595 472.973
130.653 870.229 472.973
130.653 877.863 459.459
130.653 885.496 459.459
130.653 893.13 459.459
130.653 900.763 459.459
130.653 908.397 459.459
130.653 916.031 459.459
130.653 923.664 466.216
130.653 931.298 472.973
130.653 938.931 472.973
130.653 946.565 472.973
130.653 954.198 472.973
130.653 961.832 472.973
130.653 969.466 472.973
130.653 977.099 466.216
135.678 114.504 337.838
135.678 122.137 358.108
135.678 129.771 351.351
135.678 137.405 452.703
135.678 145.038 310.811
135.678 152.672 493.243
135.678 160.305 358.108
135.678 167.939 425.676
135.678 175.573 479.73
135.678 183.206 445.946
135.678 190.84 445.946
135.678 198.473 331.081
135.678 206.107 344.595
135.678 213.74 364.865
135.678 221.374 385.135
135.678 229.008 378.378
135.678 236.641 250
135.678 244.275 168.919
135.678 251.908 182.432
135.678 259.542 87.8378
135.678 312.977 141.892
135.678 320.611 168.919
135.678 328.244 243.243
135.678 335.878 459.459
135.678 343.511 182.432
135.678 351.145 567.568
135.678 358.779 216.216
135.678 366.412 709.459
135.678 374.046 317.568
135.678 381.679 270.27
135.678 389.313 452.703
135.678 396.947 141.892
135.678 404.58 263.514
135.678 412.214 445.946
135.678 419.847 148.649
135.678 427.481 263.514
135.678 435.115 445.946
135.678 442.748 445.946
135.678 450.382 412.162
135.678 458.015 425.676
135.678 465.649 479.73
135.678 473.282 486.486
135.678 480.916 425.676
135.678 488.55 391.892
135.678 496.183 270.27
135.678 503.817 216.216
135.678 511.45 277.027
135.678 519.084 277.027
135.678 526.718 277.027
135.678 534.351 533.784
135.678 541.985 614.865
135.678 549.618 641.892
135.678 557.252 682.432
135.678 564.885 689.189
135.678 572.519 216.216
135.678 580.153 277.027
135.678 587.786 277.027
135.678 595.42 533.784
135.678 603.053 648.649
135.678 610.687 601.351
135.678 618.321 520.27
135.678 625.954 371.622
135.678 633.588 540.541
135.678 641.221 493.243
135.678 648.855 472.973
135.678 656.489 472.973
135.678 664.122 405.405
135.678 671.756 337.838
135.678 679.389 277.027
135.678 687.023 216.216
135.678 694.656 486.486
135.678 702.29 472.973
135.678 709.924 472.973
135.678 717.557 472.973
135.678 725.191 398.649
135.678 732.824 337.838
135.678 740.458 209.459
135.678 748.092 493.243
135.678 755.725 472.973
135.678 763.359 479.73
135.678 770.992 479.73
135.678 778.626 479.73
135.678 786.26 479.73
135.678 793.893 479.73
135.678 801.527 472.973
135.678 809.16 472.973
135.678 816.794 472.973
135.678 824.427 466.216
135.678 832.061 466.216
135.678 839.695 466.216
135.678 847.328 466.216
135.678 854.962 466.216
135.678 862.595 466.216
135.678 870.229 466.216
135.678 877.863 466.216
135.678 885.496 466.216
135.678 893.13 466.216
135.678 900.763 459.459
135.678 908.397 466.216
135.678 916.031 466.216
135.678 923.664 466.216
135.678 931.298 472.973
135.678 938.931 472.973
135.678 946.565 472.973
135.678 954.198 472.973
135.678 961.832 472.973
135.678 969.466 472.973
135.678 977.099 466.216
135.678 984.733 459.459
140.704 99.2366 297.297
140.704 106.87 331.081
140.704 114.504 371.622
140.704 122.137 290.541
140.704 129.771 493.243
140.704 137.405 479.73
140.704 145.038 310.811
140.704 152.672 574.324
140.704 160.305 445.946
140.704 167.939 432.432
140.704 175.573 466.216
140.704 183.206 425.676
140.704 190.84 324.324
140.704 198.473 337.838
140.704 206.107 398.649
140.704 213.74 351.351
140.704 221.374 283.784
140.704 229.008 236.486
140.704 236.641 87.8378
140.704 244.275 135.135
140.704 251.908 94.5946
140.704 305.344 108.108
140.704 312.977 148.649
140.704 320.611 209.459
140.704 328.244 155.405
140.704 335.878 452.703
140.704 343.511 290.541
140.704 351.145 371.622
140.704 358.779 472.973
140.704 366.412 581.081
140.704 374.046 418.919
140.704 381.679 479.73
140.704 389.313 452.703
140.704 396.947 148.649
140.704 404.58 452.703
140.704 412.214 445.946
140.704 419.847 148.649
140.704 427.481 452.703
140.704 435.115 459.459
140.704 442.748 452.703
140.704 450.382 445.946
140.704 458.015 297.297
140.704 465.649 277.027
140.704 473.282 277.027
140.704 480.916 216.216
140.704 488.55 317.568
140.704 496.183 351.351
140.704 503.817 425.676
140.704 511.45 506.757
140.704 519.084 263.514
140.704 526.718 581.081
140.704 534.351 608.108
140.704 541.985 655.405
140.704 549.618 540.541
140.704 557.252 567.568
140.704 564.885 567.568
140.704 572.519 513.514
140.704 580.153 290.541
140.704 587.786 567.568
140.704 595.42 567.568
140.704 603.053 547.297
140.704 610.687 641.892
140.704 618.321 554.054
140.704 625.954 513.514
140.704 633.588 439.189
140.704 641.221 337.838
140.704 648.855 277.027
140.704 656.489 277.027
140.704 664.122 209.459
140.704 671.756 493.243
140.704 679.389 418.919
140.704 687.023 358.108
140.704 694.656 297.297
140.704 702.29 277.027
140.704 709.924 277.027
140.704 717.557 277.027
140.704 725.191 209.459
140.704 732.824 493.243
140.704 740.458 472.973
140.704 748.092 472.973
140.704 755.725 466.216
140.704 763.359 466.216
140.704 770.992 479.73
140.704 778.626 466.216
140.704 786.26 466.216
140.704 793.893 466.216
140.704 801.527 466.216
140.704 809.16 466.216
140.704 816.794 466.216
140.704 824.427 466.216
140.704 832.061 466.216
140.704 839.695 466.216
140.704 847.328 405.405
140.704 854.962 337.838
140.704 862.595 277.027
140.704 870.229 277.027
140.704 877.863 277.027
140.704 885.496 277.027
140.704 893.13 277.027
140.704 900.763 277.027
140.704 908.397 277.027
140.704 916.031 277.027
140.704 923.664 277.027
140.704 931.298 283.784
140.704 938.931 283.784
140.704 946.565 283.784
140.704 954.198 283.784
140.704 961.832 283.784
140.704 969.466 344.595
140.704 977.099 405.405
145.729 91.6031 337.838
145.729 99.2366 337.838
145.729 106.87 378.378
145.729 114.504 391.892
145.729 122.137 412.162
145.729 129.771 378.378
145.729 137.405 608.108
145.729 145.038 479.73
145.729 152.672 459.459
145.729 160.305 412.162
145.729 167.939 527.027
145.729 175.573 351.351
145.729 183.206 344.595
145.729 190.84 398.649
145.729 198.473 297.297
145.729 206.107 283.784
145.729 213.74 195.946
145.729 221.374 87.8378
145.729 229.008 87.8378
145.729 236.641 87.8378
145.729 297.71 27.027
145.729 305.344 155.405
145.729 312.977 162.162
145.729 320.611 155.405
145.729 328.244 87.8378
145.729 335.878 398.649
145.729 343.511 452.703
145.729 351.145 141.892
145.729 358.779 405.405
145.729 366.412 385.135
145.729 374.046 635.135
145.729 381.679 472.973
145.729 389.313 527.027
145.729 396.947 155.405
145.729 404.58 459.459
145.729 412.214 452.703
145.729 419.847 33.7838
145.729 427.481 337.838
145.729 435.115 405.405
145.729 442.748 472.973
145.729 450.382 472.973
145.729 458.015 472.973
145.729 465.649 486.486
145.729 473.282 500
145.729 480.916 500
145.729 488.55 500
145.729 496.183 506.757
145.729 503.817 520.27
145.729 511.45 277.027
145.729 519.084 567.568
145.729 526.718 608.108
145.729 534.351 655.405
145.729 541.985 540.541
145.729 549.618 567.568
145.729 557.252 574.324
145.729 564.885 520.27
145.729 572.519 418.919
145.729 580.153 574.324
145.729 587.786 574.324
145.729 595.42 520.27
145.729 603.053 466.216
145.729 610.687 371.622
145.729 618.321 344.595
145.729 625.954 297.297
145.729 633.588 209.459
145.729 641.221 486.486
145.729 648.855 472.973
145.729 656.489 412.162
145.729 664.122 351.351
145.729 671.756 297.297
145.729 679.389 216.216
145.729 687.023 493.243
145.729 694.656 479.73
145.729 702.29 479.73
145.729 709.924 472.973
145.729 717.557 472.973
145.729 725.191 472.973
145.729 732.824 472.973
145.729 740.458 405.405
145.729 748.092 344.595
145.729 755.725 385.135
145.729 763.359 466.216
145.729 770.992 466.216
145.729 778.626 466.216
145.729 786.26 466.216
145.729 793.893 466.216
145.729 801.527 405.405
145.729 809.16 337.838
145.729 816.794 277.027
145.729 824.427 277.027
145.729 832.061 277.027
145.729 839.695 277.027
145.729 847.328 216.216
145.729 854.962 486.486
145.729 862.595 479.73
145.729 870.229 479.73
145.729 877.863 479.73
145.729 885.496 479.73
145.729 893.13 479.73
145.729 900.763 479.73
145.729 908.397 479.73
145.729 916.031 479.73
145.729 923.664 479.73
145.729 931.298 479.73
145.729 938.931 479.73
145.729 946.565 472.973
145.729 954.198 472.973
145.729 961.832 472.973
145.729 969.466 493.243
150.754 76.3359 425.676
150.754 83.9695 290.541
150.754 91.6031 337.838
150.754 99.2366 310.811
150.754 106.87 364.865
150.754 114.504 500
150.754 122.137 540.541
150.754 129.771 554.054
150.754 137.405 452.703
150.754 145.038 385.135
150.754 152.672 445.946
150.754 160.305 493.243
150.754 167.939 364.865
150.754 175.573 290.541
150.754 183.206 297.297
150.754 190.84 283.784
150.754 198.473 87.8378
150.754 221.374 87.8378
150.754 297.71 27.027
150.754 305.344 101.351
150.754 312.977 162.162
150.754 320.611 148.649
150.754 328.244 101.351
150.754 335.878 344.595
150.754 343.511 466.216
150.754 351.145 162.162
150.754 358.779 358.108
150.754 366.412 351.351
150.754 374.046 493.243
150.754 381.679 277.027
150.754 389.313 520.27
150.754 396.947 290.541
150.754 404.58 398.649
150.754 412.214 459.459
150.754 419.847 574.324
150.754 427.481 479.73
150.754 435.115 216.216
150.754 442.748 277.027
150.754 450.382 277.027
150.754 458.015 277.027
150.754 465.649 344.595
150.754 473.282 412.162
150.754 480.916 472.973
150.754 488.55 472.973
150.754 496.183 472.973
150.754 503.817 472.973
150.754 511.45 689.189
150.754 519.084 702.703
150.754 526.718 560.811
150.754 534.351 540.541
150.754 541.985 567.568
150.754 549.618 574.324
150.754 557.252 520.27
150.754 564.885 418.919
150.754 572.519 587.838
150.754 580.153 574.324
150.754 587.786 554.054
150.754 595.42 506.757
150.754 603.053 506.757
150.754 610.687 486.486
150.754 618.321 425.676
150.754 625.954 358.108
150.754 633.588 297.297
150.754 641.221 297.297
150.754 648.855 277.027
150.754 656.489 209.459
150.754 664.122 500
150.754 671.756 479.73
150.754 679.389 479.73
150.754 687.023 479.73
150.754 694.656 472.973
150.754 702.29 466.216
150.754 709.924 466.216
150.754 717.557 405.405
150.754 725.191 337.838
150.754 732.824 283.784
150.754 740.458 277.027
150.754 748.092 547.297
150.754 755.725 493.243
150.754 763.359 209.459
150.754 770.992 277.027
150.754 778.626 277.027
150.754 786.26 277.027
150.754 793.893 277.027
150.754 801.527 216.216
150.754 809.16 493.243
150.754 816.794 479.73
150.754 824.427 479.73
150.754 832.061 479.73
150.754 839.695 479.73
150.754 847.328 479.73
150.754 854.962 479.73
150.754 862.595 466.216
150.754 870.229 466.216
150.754 877.863 466.216
150.754 885.496 466.216
150.754 893.13 472.973
150.754 900.763 466.216
150.754 908.397 466.216
150.754 916.031 466.216
150.754 923.664 466.216
150.754 931.298 466.216
150.754 938.931 466.216
150.754 946.565 466.216
150.754 954.198 459.459
150.754 961.832 459.459
150.754 969.466 459.459
150.754 977.099 459.459
155.779 68.7023 425.676
155.779 76.3359 297.297
155.779 83.9695 304.054
155.779 91.6031 324.324
155.779 99.2366 391.892
155.779 106.87 500
155.779 114.504 486.486
155.779 122.137 520.27
155.779 129.771 405.405
155.779 137.405 527.027
155.779 145.038 398.649
155.779 152.672 452.703
155.779 160.305 344.595
155.779 167.939 256.757
155.779 175.573 87.8378
155.779 305.344 101.351
155.779 312.977 101.351
155.779 320.611 155.405
155.779 328.244 459.459
155.779 335.878 94.5946
155.779 343.511 405.405
155.779 351.145 466.216
155.779 358.779 148.649
155.779 366.412 560.811
155.779 374.046 520.27
155.779 381.679 243.243
155.779 389.313 459.459
155.779 396.947 459.459
155.779 404.58 391.892
155.779 412.214 540.541
155.779 419.847 648.649
155.779 427.481 513.514
155.779 435.115 567.568
155.779 442.748 371.622
155.779 450.382 304.054
155.779 458.015 364.865
155.779 465.649 445.946
155.779 473.282 283.784
155.779 480.916 412.162
155.779 488.55 472.973
155.779 496.183 472.973
155.779 503.817 682.432
155.779 511.45 682.432
155.779 519.084 682.432
155.779 526.718 682.432
155.779 534.351 695.946
155.779 541.985 547.297
155.779 549.618 554.054
155.779 557.252 513.514
155.779 564.885 695.946
155.779 572.519 689.189
155.779 580.153 635.135
155.779 587.786 574.324
155.779 595.42 277.027
155.779 603.053 297.297
155.779 610.687 277.027
155.779 618.321 216.216
155.779 625.954 493.243
155.779 633.588 479.73
155.779 641.221 479.73
155.779 648.855 479.73
155.779 656.489 479.73
155.779 664.122 479.73
155.779 671.756 405.405
155.779 679.389 344.595
155.779 687.023 277.027
155.779 694.656 277.027
155.779 702.29 277.027
155.779 709.924 277.027
155.779 717.557 222.973
155.779 725.191 520.27
155.779 732.824 533.784
155.779 740.458 560.811
155.779 748.092 479.73
155.779 755.725 472.973
155.779 763.359 466.216
155.779 770.992 472.973
155.779 778.626 472.973
155.779 786.26 479.73
155.779 793.893 479.73
155.779 801.527 479.73
155.779 809.16 479.73
155.779 816.794 472.973
155.779 824.427 472.973
155.779 832.061 466.216
155.779 839.695 466.216
155.779 847.328 466.216
155.779 854.962 466.216
155.779 862.595 466.216
155.779 870.229 466.216
155.779 877.863 466.216
155.779 885.496 472.973
155.779 893.13 472.973
155.779 900.763 472.973
155.779 908.397 466.216
155.779 916.031 466.216
155.779 923.664 466.216
155.779 931.298 466.216
155.779 938.931 466.216
155.779 946.565 466.216
155.779 954.198 466.216
155.779 961.832 459.459
155.779 969.466 459.459
155.779 977.099 459.459
160.804 61.0687 472.973
160.804 68.7023 297.297
160.804 76.3359 297.297
160.804 83.9695 324.324
160.804 91.6031 358.108
160.804 99.2366 520.27
160.804 106.87 493.243
160.804 114.504 493.243
160.804 122.137 540.541
160.804 129.771 459.459
160.804 137.405 459.459
160.804 145.038 317.568
160.804 152.672 364.865
160.804 160.305 189.189
160.804 305.344 54.0541
160.804 312.977 162.162
160.804 320.611 94.5946
160.804 328.244 405.405
160.804 335.878 459.459
160.804 343.511 283.784
160.804 351.145 405.405
160.804 358.779 108.108
160.804 366.412 520.27
160.804 374.046 385.135
160.804 381.679 628.378
160.804 389.313 432.432
160.804 396.947 533.784
160.804 404.58 452.703
160.804 412.214 277.027
160.804 419.847 527.027
160.804 427.481 560.811
160.804 435.115 648.649
160.804 442.748 702.703
160.804 450.382 608.108
160.804 458.015 493.243
160.804 465.649 283.784
160.804 473.282 412.162
160.804 480.916 216.216
160.804 488.55 344.595
160.804 496.183 412.162
160.804 503.817 682.432
160.804 511.45 682.432
160.804 519.084 682.432
160.804 526.718 682.432
160.804 534.351 682.432
160.804 541.985 641.892
160.804 549.618 581.081
160.804 557.252 560.811
160.804 564.885 574.324
160.804 572.519 567.568
160.804 580.153 459.459
160.804 587.786 412.162
160.804 595.42 418.919
160.804 603.053 479.73
160.804 610.687 479.73
160.804 618.321 418.919
160.804 625.954 358.108
160.804 633.588 337.838
160.804 641.221 405.405
160.804 648.855 405.405
160.804 656.489 344.595
160.804 664.122 277.027
160.804 671.756 216.216
160.804 679.389 500
160.804 687.023 486.486
160.804 694.656 486.486
160.804 702.29 479.73
160.804 709.924 493.243
160.804 717.557 533.784
160.804 725.191 560.811
160.804 732.824 554.054
160.804 740.458 472.973
160.804 748.092 472.973
160.804 755.725 472.973
160.804 763.359 466.216
160.804 770.992 466.216
160.804 778.626 466.216
160.804 786.26 466.216
160.804 793.893 472.973
160.804 801.527 472.973
160.804 809.16 472.973
160.804 816.794 472.973
160.804 824.427 472.973
160.804 832.061 472.973
160.804 839.695 466.216
160.804 847.328 466.216
160.804 854.962 466.216
160.804 862.595 466.216
160.804 870.229 466.216
160.804 877.863 472.973
160.804 885.496 472.973
160.804 893.13 472.973
160.804 900.763 472.973
160.804 908.397 466.216
160.804 916.031 466.216
160.804 923.664 466.216
160.804 931.298 466.216
160.804 938.931 466.216
160.804 946.565 466.216
160.804 954.198 466.216
160.804 961.832 459.459
160.804 969.466 459.459
160.804 977.099 459.459
165.829 61.0687 337.838
165.829 68.7023 351.351
165.829 76.3359 337.838
165.829 83.9695 304.054
165.829 91.6031 439.189
165.829 99.2366 506.757
165.829 106.87 493.243
165.829 114.504 540.541
165.829 122.137 466.216
165.829 129.771 472.973
165.829 137.405 391.892
165.829 145.038 310.811
165.829 152.672 209.459
165.829 312.977 101.351
165.829 320.611 155.405
165.829 328.244 344.595
165.829 335.878 466.216
165.829 343.511 466.216
165.829 351.145 520.27
165.829 358.779 277.027
165.829 366.412 391.892
165.829 374.046 304.054
165.829 381.679 594.595
165.829 389.313 486.486
165.829 396.947 648.649
165.829 404.58 695.946
165.829 412.214 581.081
165.829 419.847 216.216
165.829 427.481 398.649
165.829 435.115 445.946
165.829 442.748 574.324
165.829 450.382 675.676
165.829 458.015 614.865
165.829 465.649 472.973
165.829 473.282 216.216
165.829 480.916 344.595
165.829 488.55 445.946
165.829 496.183 567.568
165.829 503.817 608.108
165.829 511.45 641.892
165.829 519.084 682.432
165.829 526.718 682.432
165.829 534.351 641.892
165.829 541.985 560.811
165.829 549.618 695.946
165.829 557.252 689.189
165.829 564.885 689.189
165.829 572.519 641.892
165.829 580.153 560.811
165.829 587.786 520.27
165.829 595.42 209.459
165.829 603.053 277.027
165.829 610.687 277.027
165.829 618.321 209.459
165.829 625.954 493.243
165.829 633.588 500
165.829 641.221 216.216
165.829 648.855 216.216
165.829 656.489 500
165.829 664.122 479.73
165.829 671.756 486.486
165.829 679.389 486.486
165.829 687.023 472.973
165.829 694.656 479.73
165.829 702.29 506.757
165.829 709.924 527.027
165.829 717.557 554.054
165.829 725.191 675.676
165.829 732.824 472.973
165.829 740.458 472.973
165.829 748.092 472.973
165.829 755.725 466.216
165.829 763.359 466.216
165.829 770.992 466.216
165.829 778.626 466.216
165.829 786.26 466.216
165.829 793.893 472.973
165.829 801.527 472.973
165.829 809.16 472.973
165.829 816.794 472.973
165.829 824.427 472.973
165.829 832.061 472.973
165.829 839.695 466.216
165.829 847.328 466.216
165.829 854.962 466.216
165.829 862.595 466.216
165.829 870.229 466.216
165.829 877.863 472.973
165.829 885.496 472.973
165.829 893.13 472.973
165.829 900.763 472.973
165.829 908.397 466.216
165.829 916.031 466.216
165.829 923.664 466.216
165.829 931.298 466.216
165.829 938.931 466.216
165.829 946.565 466.216
165.829 954.198 466.216
165.829 961.832 459.459
165.829 969.466 459.459
170.854 53.4351 337.838
170.854 61.0687 425.676
170.854 68.7023 270.27
170.854 76.3359 324.324
170.854 83.9695 317.568
170.854 91.6031 567.568
170.854 99.2366 506.757
170.854 106.87 574.324
170.854 114.504 439.189
170.854 122.137 506.757
170.854 129.771 418.919
170.854 137.405 317.568
170.854 145.038 168.919
170.854 312.977 54.0541
170.854 320.611 87.8378
170.854 328.244 94.5946
170.854 335.878 405.405
170.854 343.511 472.973
170.854 351.145 479.73
170.854 358.779 486.486
170.854 366.412 527.027
170.854 374.046 236.486
170.854 381.679 533.784
170.854 389.313 628.378
170.854 396.947 432.432
170.854 404.58 594.595
170.854 412.214 689.189
170.854 419.847 743.243
170.854 427.481 567.568
170.854 435.115 560.811
170.854 442.748 398.649
170.854 450.382 574.324
170.854 458.015 662.162
170.854 465.649 554.054
170.854 473.282 472.973
170.854 480.916 493.243
170.854 488.55 594.595
170.854 496.183 648.649
170.854 503.817 695.946
170.854 511.45 574.324
170.854 519.084 641.892
170.854 526.718 682.432
170.854 534.351 601.351
170.854 541.985 716.216
170.854 549.618 689.189
170.854 557.252 682.432
170.854 564.885 641.892
170.854 572.519 560.811
170.854 580.153 500
170.854 587.786 479.73
170.854 595.42 472.973
170.854 603.053 479.73
170.854 610.687 479.73
170.854 618.321 479.73
170.854 625.954 479.73
170.854 633.588 472.973
170.854 641.221 472.973
170.854 648.855 479.73
170.854 656.489 479.73
170.854 664.122 472.973
170.854 671.756 479.73
170.854 679.389 486.486
170.854 687.023 506.757
170.854 694.656 533.784
170.854 702.29 560.811
170.854 709.924 560.811
170.854 717.557 675.676
170.854 725.191 472.973
170.854 732.824 472.973
170.854 740.458 472.973
170.854 748.092 466.216
170.854 755.725 466.216
170.854 763.359 466.216
170.854 770.992 466.216
170.854 778.626 466.216
170.854 786.26 466.216
170.854 793.893 466.216
170.854 801.527 472.973
170.854 809.16 472.973
170.854 816.794 472.973
170.854 824.427 472.973
170.854 832.061 472.973
170.854 839.695 466.216
170.854 847.328 466.216
170.854 854.962 466.216
170.854 862.595 466.216
170.854 870.229 466.216
170.854 877.863 466.216
170.854 885.496 472.973
170.854 893.13 472.973
170.854 900.763 466.216
170.854 908.397 466.216
170.854 916.031 466.216
170.854 923.664 466.216
170.854 931.298 466.216
170.854 938.931 466.216
170.854 946.565 466.216
170.854 954.198 466.216
170.854 961.832 459.459
175.879 45.8015 337.838
175.879 53.4351 418.919
175.879 61.0687 277.027
175.879 68.7023 398.649
175.879 76.3359 344.595
175.879 83.9695 513.514
175.879 91.6031 445.946
175.879 99.2366 567.568
175.879 106.87 493.243
175.879 114.504 459.459
175.879 122.137 513.514
175.879 129.771 331.081
175.879 137.405 162.162
175.879 312.977 54.0541
175.879 320.611 162.162
175.879 328.244 277.027
175.879 335.878 222.973
175.879 343.511 351.351
175.879 351.145 412.162
175.879 358.779 479.73
175.879 366.412 479.73
175.879 374.046 486.486
175.879 381.679 432.432
175.879 389.313 493.243
175.879 396.947 621.622
175.879 404.58 358.108
175.879 412.214 533.784
175.879 419.847 628.378
175.879 427.481 689.189
175.879 435.115 655.405
175.879 442.748 641.892
175.879 450.382 398.649
175.879 458.015 574.324
175.879 465.649 486.486
175.879 473.282 547.297
175.879 480.916 716.216
175.879 488.55 689.189
175.879 496.183 540.541
175.879 503.817 601.351
175.879 511.45 641.892
175.879 519.084 540.541
175.879 526.718 554.054
175.879 534.351 506.757
175.879 541.985 702.703
175.879 549.618 682.432
175.879 557.252 641.892
175.879 564.885 560.811
175.879 572.519 506.757
175.879 580.153 479.73
175.879 587.786 472.973
175.879 595.42 472.973
175.879 603.053 472.973
175.879 610.687 472.973
175.879 618.321 472.973
175.879 625.954 472.973
175.879 633.588 472.973
175.879 641.221 472.973
175.879 648.855 472.973
175.879 656.489 472.973
175.879 664.122 486.486
175.879 671.756 527.027
175.879 679.389 560.811
175.879 687.023 560.811
175.879 694.656 560.811
175.879 702.29 675.676
175.879 709.924 675.676
175.879 717.557 472.973
175.879 725.191 472.973
175.879 732.824 472.973
175.879 740.458 466.216
175.879 748.092 466.216
175.879 755.725 466.216
175.879 763.359 466.216
175.879 770.992 466.216
175.879 778.626 466.216
175.879 786.26 466.216
175.879 793.893 466.216
175.879 801.527 466.216
175.879 809.16 472.973
175.879 816.794 472.973
175.879 824.427 472.973
175.879 832.061 472.973
175.879 839.695 472.973
175.879 847.328 466.216
175.879 854.962 466.216
175.879 862.595 466.216
175.879 870.229 466.216
175.879 877.863 466.216
175.879 885.496 466.216
175.879 893.13 459.459
180.905 38.1679 297.297
180.905 45.8015 418.919
180.905 53.4351 277.027
180.905 61.0687 290.541
180.905 68.7023 304.054
180.905 76.3359 351.351
180.905 83.9695 520.27
180.905 91.6031 412.162
180.905 99.2366 601.351
180.905 106.87 493.243
180.905 114.504 547.297
180.905 122.137 391.892
180.905 129.771 168.919
180.905 312.977 27.027
180.905 320.611 101.351
180.905 328.244 405.405
180.905 335.878 209.459
180.905 343.511 378.378
180.905 351.145 222.973
180.905 358.779 283.784
180.905 366.412 351.351
180.905 374.046 412.162
180.905 381.679 554.054
180.905 389.313 405.405
180.905 396.947 500
180.905 404.58 628.378
180.905 412.214 574.324
180.905 419.847 500
180.905 427.481 628.378
180.905 435.115 486.486
180.905 442.748 560.811
180.905 450.382 655.405
180.905 458.015 445.946
180.905 465.649 621.622
180.905 473.282 486.486
180.905 480.916 702.703
180.905 488.55 689.189
180.905 496.183 689.189
180.905 503.817 695.946
180.905 511.45 540.541
180.905 519.084 554.054
180.905 526.718 533.784
180.905 534.351 412.162
180.905 541.985 425.676
180.905 549.618 459.459
180.905 557.252 472.973
180.905 564.885 506.757
180.905 572.519 479.73
180.905 580.153 472.973
180.905 587.786 472.973
180.905 595.42 472.973
180.905 603.053 472.973
180.905 610.687 472.973
180.905 618.321 472.973
180.905 625.954 472.973
180.905 633.588 472.973
180.905 641.221 472.973
180.905 648.855 472.973
180.905 656.489 500
180.905 664.122 527.027
180.905 671.756 554.054
180.905 679.389 675.676
180.905 687.023 675.676
180.905 694.656 675.676
180.905 702.29 675.676
180.905 709.924 472.973
180.905 717.557 472.973
180.905 725.191 466.216
180.905 732.824 466.216
180.905 740.458 466.216
180.905 748.092 466.216
180.905 755.725 466.216
180.905 763.359 466.216
180.905 770.992 459.459
180.905 778.626 459.459
180.905 786.26 466.216
180.905 793.893 466.216
180.905 801.527 466.216
180.905 809.16 472.973
180.905 816.794 472.973
180.905 824.427 472.973
180.905 832.061 472.973
180.905 839.695 472.973
180.905 847.328 466.216
180.905 854.962 466.216
180.905 862.595 466.216
180.905 870.229 466.216
180.905 877.863 466.216
180.905 885.496 459.459
185.93 30.5344 331.081
185.93 38.1679 472.973
185.93 45.8015 344.595
185.93 53.4351 371.622
185.93 61.0687 337.838
185.93 68.7023 304.054
185.93 76.3359 439.189
185.93 83.9695 500
185.93 91.6031 722.973
185.93 99.2366 472.973
185.93 106.87 452.703
185.93 114.504 472.973
185.93 122.137 256.757
185.93 312.977 54.0541
185.93 320.611 148.649
185.93 328.244 283.784
185.93 335.878 405.405
185.93 343.511 500
185.93 351.145 277.027
185.93 358.779 425.676
185.93 366.412 506.757
185.93 374.046 283.784
185.93 381.679 412.162
185.93 389.313 587.838
185.93 396.947 412.162
185.93 404.58 506.757
185.93 412.214 628.378
185.93 419.847 587.838
185.93 427.481 587.838
185.93 435.115 675.676
185.93 442.748 554.054
185.93 450.382 486.486
185.93 458.015 364.865
185.93 465.649 594.595
185.93 473.282 702.703
185.93 480.916 695.946
185.93 488.55 689.189
185.93 496.183 689.189
185.93 503.817 689.189
185.93 511.45 641.892
185.93 519.084 581.081
185.93 526.718 297.297
185.93 534.351 378.378
185.93 541.985 432.432
185.93 549.618 513.514
185.93 557.252 243.243
185.93 564.885 297.297
185.93 572.519 277.027
185.93 580.153 344.595
185.93 587.786 405.405
185.93 595.42 472.973
185.93 603.053 472.973
185.93 610.687 472.973
185.93 618.321 472.973
185.93 625.954 472.973
185.93 633.588 472.973
185.93 641.221 486.486
185.93 648.855 527.027
185.93 656.489 554.054
185.93 664.122 554.054
185.93 671.756 675.676
185.93 679.389 675.676
185.93 687.023 675.676
185.93 694.656 472.973
185.93 702.29 472.973
185.93 709.924 466.216
185.93 717.557 466.216
185.93 725.191 466.216
185.93 732.824 466.216
185.93 740.458 466.216
185.93 748.092 466.216
185.93 755.725 466.216
185.93 763.359 466.216
185.93 770.992 466.216
185.93 778.626 466.216
185.93 786.26 466.216
185.93 793.893 466.216
185.93 801.527 466.216
185.93 809.16 472.973
185.93 816.794 472.973
185.93 824.427 472.973
185.93 832.061 472.973
185.93 839.695 472.973
185.93 847.328 466.216
185.93 854.962 466.216
185.93 862.595 466.216
185.93 870.229 459.459
185.93 877.863 459.459
190.955 30.5344 513.514
190.955 38.1679 391.892
190.955 45.8015 256.757
190.955 53.4351 290.541
190.955 61.0687 351.351
190.955 68.7023 405.405
190.955 76.3359 614.865
190.955 83.9695 385.135
190.955 91.6031 608.108
190.955 99.2366 439.189
190.955 106.87 547.297
190.955 114.504 324.324
190.955 312.977 54.0541
190.955 320.611 155.405
190.955 328.244 466.216
190.955 335.878 351.351
190.955 343.511 479.73
190.955 351.145 486.486
190.955 358.779 283.784
190.955 366.412 412.162
190.955 374.046 479.73
190.955 381.679 283.784
190.955 389.313 425.676
190.955 396.947 628.378
190.955 404.58 452.703
190.955 412.214 500
190.955 419.847 425.676
190.955 427.481 425.676
190.955 435.115 635.135
190.955 442.748 675.676
190.955 450.382 493.243
190.955 458.015 560.811
190.955 465.649 675.676
190.955 473.282 783.784
190.955 480.916 756.757
190.955 488.55 689.189
190.955 496.183 689.189
190.955 503.817 641.892
190.955 511.45 560.811
190.955 519.084 506.757
190.955 526.718 486.486
190.955 534.351 506.757
190.955 541.985 216.216
190.955 549.618 344.595
190.955 557.252 412.162
190.955 564.885 486.486
190.955 572.519 486.486
190.955 580.153 500
190.955 587.786 209.459
190.955 595.42 277.027
190.955 603.053 344.595
190.955 610.687 405.405
190.955 618.321 472.973
190.955 625.954 472.973
190.955 633.588 486.486
190.955 641.221 527.027
190.955 648.855 554.054
190.955 656.489 675.676
190.955 664.122 675.676
190.955 671.756 675.676
190.955 679.389 675.676
190.955 687.023 472.973
190.955 694.656 472.973
190.955 702.29 466.216
190.955 709.924 466.216
190.955 717.557 405.405
190.955 725.191 337.838
190.955 732.824 277.027
190.955 740.458 337.838
190.955 748.092 405.405
190.955 755.725 466.216
190.955 763.359 466.216
190.955 770.992 466.216
190.955 778.626 466.216
190.955 786.26 466.216
190.955 793.893 466.216
190.955 801.527 472.973
190.955 809.16 472.973
190.955 816.794 472.973
190.955 824.427 472.973
190.955 832.061 472.973
190.955 839.695 472.973
190.955 847.328 472.973
190.955 854.962 466.216
190.955 862.595 459.459
190.955 870.229 459.459
195.98 22.9008 364.865
195.98 30.5344 472.973
195.98 38.1679 310.811
195.98 45.8015 324.324
195.98 53.4351 304.054
195.98 61.0687 337.838
195.98 68.7023 425.676
195.98 76.3359 500
195.98 83.9695 729.73
195.98 91.6031 472.973
195.98 99.2366 648.649
195.98 106.87 405.405
195.98 114.504 135.135
195.98 320.611 94.5946
195.98 328.244 412.162
195.98 335.878 101.351
195.98 343.511 418.919
195.98 351.145 486.486
195.98 358.779 486.486
195.98 366.412 351.351
195.98 374.046 479.73
195.98 381.679 479.73
195.98 389.313 351.351
195.98 396.947 594.595
195.98 404.58 479.73
195.98 412.214 540.541
195.98 419.847 587.838
195.98 427.481 594.595
195.98 435.115 554.054
195.98 442.748 628.378
195.98 450.382 506.757
195.98 458.015 581.081
195.98 465.649 547.297
195.98 473.282 621.622
195.98 480.916 648.649
195.98 488.55 689.189
195.98 496.183 641.892
195.98 503.817 560.811
195.98 511.45 506.757
195.98 519.084 486.486
195.98 526.718 506.757
195.98 534.351 479.73
195.98 541.985 479.73
195.98 549.618 506.757
195.98 557.252 216.216
195.98 564.885 351.351
195.98 572.519 412.162
195.98 580.153 479.73
195.98 587.786 479.73
195.98 595.42 486.486
195.98 603.053 500
195.98 610.687 209.459
195.98 618.321 277.027
195.98 625.954 304.054
195.98 633.588 371.622
195.98 641.221 412.162
195.98 648.855 560.811
195.98 656.489 560.811
195.98 664.122 567.568
195.98 671.756 277.027
195.98 679.389 277.027
195.98 687.023 277.027
195.98 694.656 277.027
195.98 702.29 277.027
195.98 709.924 277.027
195.98 717.557 209.459
195.98 725.191 500
195.98 732.824 479.73
195.98 740.458 500
195.98 748.092 209.459
195.98 755.725 277.027
195.98 763.359 277.027
195.98 770.992 277.027
195.98 778.626 277.027
195.98 786.26 277.027
195.98 793.893 277.027
195.98 801.527 277.027
195.98 809.16 277.027
195.98 816.794 277.027
195.98 824.427 277.027
195.98 832.061 277.027
195.98 839.695 277.027
195.98 847.328 277.027
195.98 854.962 270.27
195.98 862.595 270.27
195.98 900.763 466.216
195.98 908.397 466.216
201.005 15.2672 256.757
201.005 22.9008 500
201.005 30.5344 385.135
201.005 38.1679 277.027
201.005 45.8015 351.351
201.005 53.4351 378.378
201.005 61.0687 513.514
201.005 68.7023 601.351
201.005 76.3359 486.486
201.005 83.9695 587.838
201.005 91.6031 445.946
201.005 99.2366 527.027
201.005 106.87 297.297
201.005 320.611 74.3243
201.005 328.244 351.351
201.005 335.878 472.973
201.005 343.511 358.108
201.005 351.145 486.486
201.005 358.779 486.486
201.005 366.412 87.8378
201.005 374.046 418.919
201.005 381.679 479.73
201.005 389.313 87.8378
201.005 396.947 425.676
201.005 404.58 628.378
201.005 412.214 304.054
201.005 419.847 425.676
201.005 427.481 425.676
201.005 435.115 628.378
201.005 442.748 594.595
201.005 450.382 567.568
201.005 458.015 513.514
201.005 465.649 567.568
201.005 473.282 527.027
201.005 480.916 635.135
201.005 488.55 648.649
201.005 496.183 533.784
201.005 503.817 506.757
201.005 511.45 486.486
201.005 519.084 486.486
201.005 526.718 533.784
201.005 534.351 682.432
201.005 541.985 682.432
201.005 549.618 479.73
201.005 557.252 479.73
201.005 564.885 506.757
201.005 572.519 222.973
201.005 580.153 351.351
201.005 587.786 412.162
201.005 595.42 479.73
201.005 603.053 479.73
201.005 610.687 479.73
201.005 618.321 500
201.005 625.954 533.784
201.005 633.588 567.568
201.005 641.221 682.432
201.005 648.855 682.432
201.005 656.489 689.189
201.005 664.122 486.486
201.005 671.756 486.486
201.005 679.389 486.486
201.005 687.023 479.73
201.005 694.656 479.73
201.005 702.29 479.73
201.005 709.924 479.73
201.005 717.557 479.73
201.005 725.191 479.73
201.005 732.824 472.973
201.005 740.458 472.973
201.005 748.092 472.973
201.005 755.725 479.73
201.005 763.359 479.73
201.005 770.992 486.486
201.005 778.626 486.486
201.005 786.26 486.486
201.005 793.893 486.486
201.005 801.527 486.486
201.005 809.16 486.486
201.005 816.794 486.486
201.005 824.427 479.73
201.005 832.061 479.73
201.005 839.695 479.73
201.005 847.328 472.973
201.005 854.962 472.973
201.005 862.595 472.973
201.005 870.229 472.973
201.005 877.863 466.216
201.005 885.496 466.216
201.005 893.13 472.973
201.005 900.763 472.973
201.005 908.397 472.973
201.005 916.031 472.973
201.005 923.664 472.973
201.005 931.298 466.216
201.005 938.931 459.459
201.005 946.565 459.459
201.005 954.198 459.459
206.03 7.63359 317.568
206.03 15.2672 391.892
206.03 22.9008 486.486
206.03 30.5344 310.811
206.03 38.1679 371.622
206.03 45.8015 486.486
206.03 53.4351 466.216
206.03 61.0687 405.405
206.03 68.7023 493.243
206.03 76.3359 702.703
206.03 83.9695 466.216
206.03 91.6031 668.919
206.03 99.2366 378.378
206.03 106.87 135.135
206.03 328.244 94.5946
206.03 335.878 412.162
206.03 343.511 94.5946
206.03 351.145 418.919
206.03 358.779 486.486
206.03 366.412 486.486
206.03 374.046 351.351
206.03 381.679 479.73
206.03 389.313 479.73
206.03 396.947 290.541
206.03 404.58 540.541
206.03 412.214 668.919
206.03 419.847 500
206.03 427.481 587.838
206.03 435.115 560.811
206.03 442.748 520.27
206.03 450.382 648.649
206.03 458.015 594.595
206.03 465.649 486.486
206.03 473.282 594.595
206.03 480.916 378.378
206.03 488.55 398.649
206.03 496.183 439.189
206.03 503.817 493.243
206.03 511.45 479.73
206.03 519.084 506.757
206.03 526.718 560.811
206.03 534.351 682.432
206.03 541.985 682.432
206.03 549.618 479.73
206.03 557.252 479.73
206.03 564.885 479.73
206.03 572.519 479.73
206.03 580.153 500
206.03 587.786 222.973
206.03 595.42 351.351
206.03 603.053 412.162
206.03 610.687 493.243
206.03 618.321 533.784
206.03 625.954 560.811
206.03 633.588 682.432
206.03 641.221 682.432
206.03 648.855 682.432
206.03 656.489 533.784
206.03 664.122 479.73
206.03 671.756 479.73
206.03 679.389 472.973
206.03 687.023 472.973
206.03 694.656 472.973
206.03 702.29 472.973
206.03 709.924 472.973
206.03 717.557 472.973
206.03 725.191 472.973
206.03 732.824 472.973
206.03 740.458 472.973
206.03 748.092 472.973
206.03 755.725 472.973
206.03 763.359 472.973
206.03 770.992 472.973
206.03 778.626 472.973
206.03 786.26 472.973
206.03 793.893 472.973
206.03 801.527 472.973
206.03 809.16 472.973
206.03 816.794 472.973
206.03 824.427 472.973
206.03 832.061 472.973
206.03 839.695 472.973
206.03 847.328 472.973
206.03 854.962 472.973
206.03 862.595 472.973
206.03 870.229 472.973
206.03 877.863 472.973
206.03 885.496 472.973
206.03 893.13 472.973
206.03 900.763 472.973
206.03 908.397 472.973
206.03 916.031 472.973
206.03 923.664 472.973
206.03 931.298 472.973
206.03 938.931 466.216
206.03 946.565 459.459
206.03 954.198 459.459
206.03 961.832 459.459
211.055 7.63359 256.757
211.055 15.2672 351.351
211.055 22.9008 472.973
211.055 30.5344 310.811
211.055 38.1679 533.784
211.055 45.8015 378.378
211.055 53.4351 520.27
211.055 61.0687 635.135
211.055 68.7023 466.216
211.055 76.3359 587.838
211.055 83.9695 432.432
211.055 91.6031 608.108
211.055 99.2366 310.811
211.055 328.244 27.027
211.055 335.878 290.541
211.055 343.511 418.919
211.055 351.145 358.108
211.055 358.779 486.486
211.055 366.412 486.486
211.055 374.046 87.8378
211.055 381.679 418.919
211.055 389.313 479.73
211.055 396.947 486.486
211.055 404.58 385.135
211.055 412.214 668.919
211.055 419.847 195.946
211.055 427.481 486.486
211.055 435.115 628.378
211.055 442.748 574.324
211.055 450.382 547.297
211.055 458.015 486.486
211.055 465.649 486.486
211.055 473.282 594.595
211.055 480.916 702.703
211.055 488.55 533.784
211.055 496.183 304.054
211.055 503.817 412.162
211.055 511.45 486.486
211.055 519.084 533.784
211.055 526.718 682.432
211.055 534.351 682.432
211.055 541.985 682.432
211.055 549.618 479.73
211.055 557.252 479.73
211.055 564.885 479.73
211.055 572.519 479.73
211.055 580.153 479.73
211.055 587.786 479.73
211.055 595.42 500
211.055 603.053 250
211.055 610.687 425.676
211.055 618.321 513.514
211.055 625.954 682.432
211.055 633.588 682.432
211.055 641.221 695.946
211.055 648.855 533.784
211.055 656.489 479.73
211.055 664.122 479.73
211.055 671.756 479.73
211.055 679.389 472.973
211.055 687.023 412.162
211.055 694.656 344.595
211.055 702.29 283.784
211.055 709.924 283.784
211.055 717.557 283.784
211.055 725.191 283.784
211.055 732.824 277.027
211.055 740.458 283.784
211.055 748.092 283.784
211.055 755.725 283.784
211.055 763.359 283.784
211.055 770.992 344.595
211.055 778.626 412.162
211.055 786.26 472.973
211.055 793.893 472.973
211.055 801.527 472.973
211.055 809.16 472.973
211.055 816.794 472.973
211.055 824.427 472.973
211.055 832.061 472.973
211.055 839.695 472.973
211.055 847.328 472.973
211.055 854.962 472.973
211.055 862.595 472.973
211.055 870.229 472.973
211.055 877.863 472.973
211.055 885.496 472.973
211.055 893.13 472.973
211.055 900.763 472.973
211.055 908.397 472.973
211.055 916.031 472.973
211.055 923.664 472.973
211.055 931.298 472.973
211.055 938.931 472.973
211.055 946.565 466.216
211.055 954.198 459.459
211.055 961.832 459.459
216.08 7.63359 452.703
216.08 15.2672 297.297
216.08 22.9008 452.703
216.08 30.5344 310.811
216.08 38.1679 567.568
216.08 45.8015 337.838
216.08 53.4351 432.432
216.08 61.0687 581.081
216.08 68.7023 554.054
216.08 76.3359 472.973
216.08 83.9695 655.405
216.08 91.6031 574.324
216.08 99.2366 229.73
216.08 335.878 87.8378
216.08 343.511 290.541
216.08 351.145 94.5946
216.08 358.779 418.919
216.08 366.412 486.486
216.08 374.046 486.486
216.08 381.679 351.351
216.08 389.313 479.73
216.08 396.947 479.73
216.08 404.58 141.892
216.08 412.214 581.081
216.08 419.847 506.757
216.08 427.481 594.595
216.08 435.115 614.865
216.08 442.748 682.432
216.08 450.382 364.865
216.08 458.015 628.378
216.08 465.649 506.757
216.08 473.282 486.486
216.08 480.916 594.595
216.08 488.55 513.514
216.08 496.183 594.595
216.08 503.817 331.081
216.08 511.45 445.946
216.08 519.084 560.811
216.08 526.718 682.432
216.08 534.351 682.432
216.08 541.985 682.432
216.08 549.618 479.73
216.08 557.252 479.73
216.08 564.885 479.73
216.08 572.519 479.73
216.08 580.153 479.73
216.08 587.786 479.73
216.08 595.42 513.514
216.08 603.053 533.784
216.08 610.687 587.838
216.08 618.321 540.541
216.08 625.954 574.324
216.08 633.588 371.622
216.08 641.221 418.919
216.08 648.855 283.784
216.08 656.489 283.784
216.08 664.122 283.784
216.08 671.756 283.784
216.08 679.389 283.784
216.08 687.023 216.216
216.08 694.656 506.757
216.08 702.29 486.486
216.08 709.924 486.486
216.08 717.557 486.486
216.08 725.191 486.486
216.08 732.824 486.486
216.08 740.458 486.486
216.08 748.092 486.486
216.08 755.725 479.73
216.08 763.359 479.73
216.08 770.992 500
216.08 778.626 216.216
216.08 786.26 283.784
216.08 793.893 283.784
216.08 801.527 344.595
216.08 809.16 412.162
216.08 816.794 472.973
216.08 824.427 412.162
216.08 832.061 344.595
216.08 839.695 283.784
216.08 847.328 344.595
216.08 854.962 412.162
216.08 862.595 472.973
216.08 870.229 472.973
216.08 877.863 472.973
216.08 885.496 405.405
216.08 893.13 344.595
216.08 900.763 283.784
216.08 908.397 283.784
216.08 916.031 344.595
216.08 923.664 405.405
216.08 931.298 472.973
216.08 938.931 472.973
216.08 946.565 466.216
216.08 954.198 459.459
221.106 0 317.568
