378.995 662.921 525.18
378.995 674.157 525.18
378.995 685.393 525.18
378.995 696.629 525.18
378.995 707.865 525.18
378.995 719.101 546.763
378.995 730.337 553.957
378.995 741.573 366.906
378.995 752.809 690.647
378.995 764.045 582.734
378.995 775.281 611.511
378.995 786.517 611.511
378.995 797.753 618.705
378.995 808.989 618.705
378.995 820.225 532.374
378.995 831.461 597.122
378.995 842.697 589.928
378.995 853.933 302.158
378.995 865.169 302.158
378.995 876.404 503.597
378.995 887.64 503.597
378.995 898.876 503.597
378.995 910.112 503.597
383.562 56.1798 496.403
383.562 67.4157 366.906
383.562 78.6517 496.403
383.562 89.8876 302.158
383.562 101.124 539.568
383.562 112.36 446.043
383.562 123.596 302.158
383.562 134.831 553.957
383.562 146.067 402.878
383.562 157.303 402.878
383.562 168.539 647.482
383.562 179.775 748.201
383.562 191.011 553.957
383.562 202.247 323.741
383.562 213.483 561.151
383.562 224.719 539.568
383.562 235.955 532.374
383.562 247.191 525.18
383.562 258.427 525.18
383.562 269.663 525.18
383.562 280.899 460.432
383.562 292.135 388.489
383.562 303.371 244.604
383.562 314.607 553.957
383.562 325.843 539.568
383.562 337.079 539.568
383.562 348.315 525.18
383.562 359.551 525.18
383.562 370.787 525.18
383.562 382.022 395.683
383.562 393.258 539.568
383.562 404.494 496.403
383.562 415.73 474.82
383.562 426.966 467.626
383.562 438.202 402.878
383.562 449.438 345.324
383.562 460.674 345.324
383.562 471.91 402.878
383.562 483.146 467.626
383.562 494.382 474.82
383.562 505.618 474.82
383.562 516.854 474.82
383.562 528.09 474.82
383.562 539.326 474.82
383.562 550.562 474.82
383.562 561.798 474.82
383.562 573.034 496.403
383.562 584.27 561.151
383.562 595.506 460.432
383.562 606.742 525.18
383.562 617.978 525.18
383.562 629.213 525.18
383.562 640.449 525.18
383.562 651.685 525.18
383.562 662.921 525.18
383.562 674.157 525.18
383.562 685.393 525.18
383.562 696.629 525.18
383.562 707.865 525.18
383.562 719.101 546.763
383.562 730.337 553.957
383.562 741.573 553.957
383.562 752.809 402.878
383.562 764.045 553.957
383.562 775.281 733.813
383.562 786.517 733.813
383.562 797.753 733.813
383.562 808.989 812.95
383.562 820.225 798.561
383.562 831.461 798.561
383.562 842.697 712.23
383.562 853.933 712.23
383.562 865.169 503.597
383.562 876.404 503.597
383.562 887.64 503.597
383.562 898.876 503.597
383.562 910.112 503.597
388.128 56.1798 496.403
388.128 67.4157 366.906
388.128 78.6517 431.655
388.128 89.8876 561.151
388.128 101.124 453.237
388.128 112.36 302.158
388.128 123.596 482.014
388.128 134.831 395.683
388.128 146.067 244.604
388.128 157.303 496.403
388.128 168.539 697.842
388.128 179.775 726.619
388.128 191.011 438.849
388.128 202.247 589.928
388.128 213.483 539.568
388.128 224.719 532.374
388.128 235.955 525.18
388.128 247.191 525.18
388.128 258.427 525.18
388.128 269.663 460.432
388.128 280.899 316.547
388.128 292.135 553.957
388.128 303.371 539.568
388.128 314.607 539.568
388.128 325.843 525.18
388.128 337.079 525.18
388.128 348.315 525.18
388.128 359.551 525.18
388.128 370.787 467.626
388.128 382.022 330.935
388.128 393.258 532.374
388.128 404.494 482.014
388.128 415.73 474.82
388.128 426.966 410.072
388.128 438.202 280.576
388.128 449.438 496.403
388.128 460.674 496.403
388.128 471.91 215.827
388.128 483.146 280.576
388.128 494.382 345.324
388.128 505.618 410.072
388.128 516.854 474.82
388.128 528.09 474.82
388.128 539.326 474.82
388.128 550.562 474.82
388.128 561.798 474.82
388.128 573.034 482.014
388.128 584.27 625.899
388.128 595.506 539.568
388.128 606.742 388.489
388.128 617.978 453.237
388.128 629.213 525.18
388.128 640.449 525.18
388.128 651.685 525.18
388.128 662.921 525.18
388.128 674.157 525.18
388.128 685.393 525.18
388.128 696.629 525.18
388.128 707.865 525.18
388.128 719.101 546.763
388.128 730.337 546.763
388.128 741.573 546.763
388.128 752.809 604.317
388.128 764.045 647.482
388.128 775.281 733.813
388.128 786.517 733.813
388.128 797.753 733.813
388.128 808.989 748.201
388.128 820.225 741.007
388.128 831.461 712.23
388.128 842.697 834.532
388.128 853.933 712.23
388.128 865.169 503.597
388.128 876.404 503.597
388.128 887.64 510.791
388.128 898.876 510.791
388.128 910.112 503.597
392.694 56.1798 482.014
392.694 67.4157 359.712
392.694 78.6517 431.655
392.694 89.8876 496.403
392.694 101.124 302.158
392.694 112.36 482.014
392.694 123.596 330.935
392.694 134.831 489.209
392.694 146.067 330.935
392.694 157.303 381.295
392.694 168.539 705.036
392.694 179.775 654.676
392.694 191.011 330.935
392.694 202.247 561.151
392.694 213.483 532.374
392.694 224.719 532.374
392.694 235.955 525.18
392.694 247.191 460.432
392.694 258.427 388.489
392.694 269.663 244.604
392.694 280.899 553.957
392.694 292.135 539.568
392.694 303.371 525.18
392.694 314.607 525.18
392.694 325.843 525.18
392.694 337.079 525.18
392.694 348.315 525.18
392.694 359.551 525.18
392.694 370.787 402.878
392.694 382.022 539.568
392.694 393.258 496.403
392.694 404.494 474.82
392.694 415.73 410.072
392.694 426.966 280.576
392.694 438.202 496.403
392.694 449.438 474.82
392.694 460.674 467.626
392.694 471.91 467.626
392.694 483.146 474.82
392.694 494.382 496.403
392.694 505.618 215.827
392.694 516.854 345.324
392.694 528.09 410.072
392.694 539.326 474.82
392.694 550.562 474.82
392.694 561.798 474.82
392.694 573.034 474.82
392.694 584.27 589.928
392.694 595.506 517.986
392.694 606.742 546.763
392.694 617.978 244.604
392.694 629.213 381.295
392.694 640.449 453.237
392.694 651.685 525.18
392.694 662.921 525.18
392.694 674.157 525.18
392.694 685.393 525.18
392.694 696.629 525.18
392.694 707.865 525.18
392.694 719.101 546.763
392.694 730.337 553.957
392.694 741.573 546.763
392.694 752.809 733.813
392.694 764.045 532.374
392.694 775.281 683.453
392.694 786.517 733.813
392.694 797.753 733.813
392.694 808.989 755.396
392.694 820.225 741.007
392.694 831.461 863.309
392.694 842.697 791.367
392.694 853.933 712.23
392.694 865.169 510.791
392.694 876.404 510.791
392.694 887.64 510.791
392.694 898.876 510.791
392.694 910.112 510.791
397.26 67.4157 359.712
397.26 78.6517 366.906
397.26 89.8876 402.878
397.26 101.124 510.791
397.26 112.36 330.935
397.26 123.596 489.209
397.26 134.831 330.935
397.26 146.067 366.906
397.26 157.303 446.043
397.26 168.539 741.007
397.26 179.775 589.928
397.26 191.011 589.928
397.26 202.247 546.763
397.26 213.483 532.374
397.26 224.719 460.432
397.26 235.955 388.489
397.26 247.191 244.604
397.26 258.427 553.957
397.26 269.663 539.568
397.26 280.899 539.568
397.26 292.135 525.18
397.26 303.371 525.18
397.26 314.607 525.18
397.26 325.843 525.18
397.26 337.079 525.18
397.26 348.315 525.18
397.26 359.551 525.18
397.26 370.787 402.878
397.26 382.022 539.568
397.26 393.258 474.82
397.26 404.494 410.072
397.26 415.73 280.576
397.26 426.966 496.403
397.26 438.202 482.014
397.26 449.438 467.626
397.26 460.674 467.626
397.26 471.91 467.626
397.26 483.146 467.626
397.26 494.382 467.626
397.26 505.618 467.626
397.26 516.854 489.209
397.26 528.09 287.77
397.26 539.326 410.072
397.26 550.562 474.82
397.26 561.798 474.82
397.26 573.034 474.82
397.26 584.27 482.014
397.26 595.506 402.878
397.26 606.742 517.986
397.26 617.978 517.986
397.26 629.213 546.763
397.26 640.449 309.353
397.26 651.685 453.237
397.26 662.921 517.986
397.26 674.157 517.986
397.26 685.393 517.986
397.26 696.629 517.986
397.26 707.865 525.18
397.26 719.101 553.957
397.26 730.337 553.957
397.26 741.573 546.763
397.26 752.809 733.813
397.26 764.045 726.619
397.26 775.281 640.288
397.26 786.517 733.813
397.26 797.753 748.201
397.26 808.989 784.173
397.26 820.225 748.201
397.26 831.461 870.504
397.26 842.697 712.23
397.26 853.933 690.647
397.26 865.169 510.791
397.26 876.404 510.791
397.26 887.64 510.791
397.26 898.876 510.791
397.26 910.112 510.791
401.826 67.4157 352.518
401.826 78.6517 589.928
401.826 89.8876 381.295
401.826 101.124 388.489
401.826 112.36 496.403
401.826 123.596 338.129
401.826 134.831 366.906
401.826 146.067 517.986
401.826 157.303 525.18
401.826 168.539 719.424
401.826 179.775 575.54
401.826 191.011 561.151
401.826 202.247 532.374
401.826 213.483 460.432
401.826 224.719 316.547
401.826 235.955 553.957
401.826 247.191 539.568
401.826 258.427 539.568
401.826 269.663 525.18
401.826 280.899 525.18
401.826 292.135 525.18
401.826 303.371 525.18
401.826 314.607 525.18
401.826 325.843 525.18
401.826 337.079 525.18
401.826 348.315 525.18
401.826 359.551 467.626
401.826 370.787 338.129
401.826 382.022 517.986
401.826 393.258 410.072
401.826 404.494 280.576
401.826 415.73 496.403
401.826 426.966 482.014
401.826 438.202 410.072
401.826 449.438 345.324
401.826 460.674 280.576
401.826 471.91 345.324
401.826 483.146 410.072
401.826 494.382 467.626
401.826 505.618 467.626
401.826 516.854 467.626
401.826 528.09 467.626
401.826 539.326 223.022
401.826 550.562 345.324
401.826 561.798 417.266
401.826 573.034 482.014
401.826 584.27 482.014
401.826 595.506 244.604
401.826 606.742 517.986
401.826 617.978 517.986
401.826 629.213 517.986
401.826 640.449 517.986
401.826 651.685 244.604
401.826 662.921 381.295
401.826 674.157 453.237
401.826 685.393 517.986
401.826 696.629 517.986
401.826 707.865 517.986
401.826 719.101 568.345
401.826 730.337 553.957
401.826 741.573 546.763
401.826 752.809 733.813
401.826 764.045 733.813
401.826 775.281 532.374
401.826 786.517 683.453
401.826 797.753 748.201
401.826 808.989 877.698
401.826 820.225 748.201
401.826 831.461 870.504
401.826 842.697 863.309
401.826 853.933 647.482
401.826 865.169 510.791
401.826 876.404 510.791
401.826 887.64 510.791
401.826 898.876 510.791
401.826 910.112 510.791
406.393 67.4157 287.77
406.393 78.6517 553.957
406.393 89.8876 302.158
406.393 101.124 532.374
406.393 112.36 338.129
406.393 123.596 366.906
406.393 134.831 582.734
406.393 146.067 417.266
406.393 157.303 719.424
406.393 168.539 654.676
406.393 179.775 705.036
406.393 191.011 546.763
406.393 202.247 532.374
406.393 213.483 388.489
406.393 224.719 582.734
406.393 235.955 539.568
406.393 247.191 525.18
406.393 258.427 525.18
406.393 269.663 525.18
406.393 280.899 525.18
406.393 292.135 525.18
406.393 303.371 525.18
406.393 314.607 525.18
406.393 325.843 525.18
406.393 337.079 525.18
406.393 348.315 467.626
406.393 359.551 338.129
406.393 370.787 510.791
406.393 382.022 496.403
406.393 393.258 345.324
406.393 404.494 517.986
406.393 415.73 417.266
406.393 426.966 345.324
406.393 438.202 215.827
406.393 449.438 151.079
406.393 460.674 86.3309
406.393 471.91 151.079
406.393 483.146 215.827
406.393 494.382 280.576
406.393 505.618 345.324
406.393 516.854 410.072
406.393 528.09 467.626
406.393 539.326 467.626
406.393 550.562 496.403
406.393 561.798 287.77
406.393 573.034 417.266
406.393 584.27 489.209
406.393 595.506 258.993
406.393 606.742 517.986
406.393 617.978 517.986
406.393 629.213 517.986
406.393 640.449 517.986
406.393 651.685 517.986
406.393 662.921 539.568
406.393 674.157 309.353
406.393 685.393 446.043
406.393 696.629 517.986
406.393 707.865 517.986
406.393 719.101 553.957
406.393 730.337 553.957
406.393 741.573 546.763
406.393 752.809 733.813
406.393 764.045 733.813
406.393 775.281 733.813
406.393 786.517 604.317
406.393 797.753 697.842
406.393 808.989 877.698
406.393 820.225 741.007
406.393 831.461 834.532
406.393 842.697 863.309
406.393 853.933 532.374
406.393 865.169 510.791
406.393 876.404 510.791
406.393 887.64 510.791
406.393 898.876 510.791
406.393 910.112 510.791
410.959 67.4157 424.46
410.959 78.6517 482.014
410.959 89.8876 446.043
410.959 101.124 460.432
410.959 112.36 402.878
410.959 123.596 582.734
410.959 134.831 489.209
410.959 146.067 330.935
410.959 157.303 899.281
410.959 168.539 633.094
410.959 179.775 697.842
410.959 191.011 532.374
410.959 202.247 467.626
410.959 213.483 316.547
410.959 224.719 553.957
410.959 235.955 525.18
410.959 247.191 525.18
410.959 258.427 525.18
410.959 269.663 525.18
410.959 280.899 525.18
410.959 292.135 525.18
410.959 303.371 525.18
410.959 314.607 525.18
410.959 325.843 525.18
410.959 337.079 460.432
410.959 348.315 323.741
410.959 359.551 503.597
410.959 370.787 489.209
410.959 382.022 410.072
410.959 393.258 280.576
410.959 404.494 496.403
410.959 415.73 345.324
410.959 426.966 237.41
410.959 438.202 86.3309
410.959 449.438 86.3309
410.959 494.382 93.5252
410.959 505.618 158.273
410.959 516.854 215.827
410.959 528.09 280.576
410.959 539.326 345.324
410.959 550.562 402.878
410.959 561.798 467.626
410.959 573.034 294.964
410.959 584.27 187.05
410.959 595.506 323.741
410.959 606.742 510.791
410.959 617.978 517.986
410.959 629.213 517.986
410.959 640.449 517.986
410.959 651.685 517.986
410.959 662.921 517.986
410.959 674.157 517.986
410.959 685.393 309.353
410.959 696.629 446.043
410.959 707.865 517.986
410.959 719.101 539.568
410.959 730.337 553.957
410.959 741.573 575.54
410.959 752.809 733.813
410.959 764.045 733.813
410.959 775.281 733.813
410.959 786.517 726.619
410.959 797.753 661.871
410.959 808.989 877.698
410.959 820.225 877.698
410.959 831.461 805.755
410.959 842.697 733.813
410.959 853.933 546.763
410.959 865.169 510.791
410.959 876.404 510.791
410.959 887.64 510.791
410.959 898.876 510.791
415.525 67.4157 417.266
415.525 78.6517 482.014
415.525 89.8876 446.043
415.525 101.124 395.683
415.525 112.36 618.705
415.525 123.596 561.151
415.525 134.831 402.878
415.525 146.067 474.82
415.525 157.303 791.367
415.525 168.539 503.597
415.525 179.775 625.899
415.525 191.011 539.568
415.525 202.247 395.683
415.525 213.483 582.734
415.525 224.719 539.568
415.525 235.955 525.18
415.525 247.191 525.18
415.525 258.427 525.18
415.525 269.663 525.18
415.525 280.899 525.18
415.525 292.135 453.237
415.525 303.371 381.295
415.525 314.607 309.353
415.525 325.843 309.353
415.525 337.079 244.604
415.525 348.315 553.957
415.525 359.551 532.374
415.525 370.787 474.82
415.525 382.022 345.324
415.525 393.258 517.986
415.525 404.494 417.266
415.525 415.73 280.576
415.525 426.966 151.079
415.525 516.854 0
415.525 528.09 93.5252
415.525 539.326 151.079
415.525 550.562 280.576
415.525 561.798 402.878
415.525 573.034 489.209
415.525 584.27 251.799
415.525 595.506 510.791
415.525 606.742 510.791
415.525 617.978 510.791
415.525 629.213 510.791
415.525 640.449 517.986
415.525 651.685 517.986
415.525 662.921 517.986
415.525 674.157 517.986
415.525 685.393 517.986
415.525 696.629 374.101
415.525 707.865 517.986
415.525 719.101 532.374
415.525 730.337 546.763
415.525 741.573 604.317
415.525 752.809 733.813
415.525 764.045 733.813
415.525 775.281 733.813
415.525 786.517 726.619
415.525 797.753 532.374
415.525 808.989 805.755
415.525 820.225 877.698
415.525 831.461 741.007
415.525 842.697 733.813
415.525 853.933 539.568
415.525 865.169 510.791
415.525 876.404 510.791
415.525 887.64 510.791
415.525 898.876 510.791
420.091 56.1798 345.324
420.091 67.4157 417.266
420.091 78.6517 482.014
420.091 89.8876 438.849
420.091 101.124 517.986
420.091 112.36 604.317
420.091 123.596 553.957
420.091 134.831 402.878
420.091 146.067 417.266
420.091 157.303 690.647
420.091 168.539 697.842
420.091 179.775 568.345
420.091 191.011 496.403
420.091 202.247 374.101
420.091 213.483 561.151
420.091 224.719 525.18
420.091 235.955 525.18
420.091 247.191 525.18
420.091 258.427 525.18
420.091 269.663 453.237
420.091 280.899 381.295
420.091 292.135 244.604
420.091 303.371 553.957
420.091 314.607 532.374
420.091 325.843 539.568
420.091 337.079 539.568
420.091 348.315 539.568
420.091 359.551 525.18
420.091 370.787 525.18
420.091 382.022 345.324
420.091 393.258 460.432
420.091 404.494 280.576
420.091 415.73 151.079
420.091 426.966 86.3309
420.091 561.798 294.964
420.091 573.034 460.432
420.091 584.27 597.122
420.091 595.506 510.791
420.091 606.742 510.791
420.091 617.978 510.791
420.091 629.213 510.791
420.091 640.449 510.791
420.091 651.685 517.986
420.091 662.921 517.986
420.091 674.157 517.986
420.091 685.393 517.986
420.091 696.629 100.719
420.091 707.865 446.043
420.091 719.101 532.374
420.091 730.337 539.568
420.091 741.573 733.813
420.091 752.809 726.619
420.091 764.045 733.813
420.091 775.281 733.813
420.091 786.517 726.619
420.091 797.753 726.619
420.091 808.989 705.036
420.091 820.225 848.921
420.091 831.461 733.813
420.091 842.697 726.619
420.091 853.933 539.568
420.091 865.169 510.791
420.091 876.404 510.791
420.091 887.64 510.791
424.658 56.1798 345.324
424.658 67.4157 366.906
424.658 78.6517 453.237
424.658 89.8876 381.295
424.658 101.124 460.432
424.658 112.36 604.317
424.658 123.596 474.82
424.658 134.831 330.935
424.658 146.067 712.23
424.658 157.303 582.734
424.658 168.539 676.259
424.658 179.775 611.511
424.658 191.011 496.403
424.658 202.247 647.482
424.658 213.483 647.482
424.658 224.719 532.374
424.658 235.955 525.18
424.658 247.191 460.432
424.658 258.427 388.489
424.658 269.663 244.604
424.658 280.899 553.957
424.658 292.135 532.374
424.658 303.371 532.374
424.658 314.607 525.18
424.658 325.843 525.18
424.658 337.079 525.18
424.658 348.315 525.18
424.658 359.551 525.18
424.658 370.787 525.18
424.658 382.022 395.683
424.658 393.258 410.072
424.658 404.494 215.827
424.658 415.73 93.5252
424.658 561.798 71.9424
424.658 573.034 374.101
424.658 584.27 697.842
424.658 595.506 510.791
424.658 606.742 510.791
424.658 617.978 510.791
424.658 629.213 510.791
424.658 640.449 510.791
424.658 651.685 510.791
424.658 662.921 517.986
424.658 674.157 517.986
424.658 685.393 517.986
424.658 696.629 517.986
424.658 707.865 309.353
424.658 719.101 453.237
424.658 730.337 539.568
424.658 741.573 726.619
424.658 752.809 726.619
424.658 764.045 733.813
424.658 775.281 726.619
424.658 786.517 726.619
424.658 797.753 726.619
424.658 808.989 733.813
424.658 820.225 805.755
424.658 831.461 877.698
424.658 842.697 726.619
424.658 853.933 546.763
424.658 865.169 517.986
424.658 876.404 510.791
429.224 67.4157 575.54
429.224 78.6517 410.072
429.224 89.8876 647.482
429.224 101.124 417.266
429.224 112.36 604.317
429.224 123.596 417.266
429.224 134.831 517.986
429.224 146.067 733.813
429.224 157.303 726.619
429.224 168.539 647.482
429.224 179.775 676.259
429.224 191.011 589.928
429.224 202.247 741.007
429.224 213.483 640.288
429.224 224.719 582.734
429.224 235.955 460.432
429.224 247.191 316.547
429.224 258.427 546.763
429.224 269.663 532.374
429.224 280.899 532.374
429.224 292.135 525.18
429.224 303.371 525.18
429.224 314.607 525.18
429.224 325.843 525.18
429.224 337.079 525.18
429.224 348.315 525.18
429.224 359.551 525.18
429.224 370.787 525.18
429.224 382.022 395.683
429.224 393.258 417.266
429.224 404.494 215.827
429.224 561.798 14.3885
429.224 573.034 201.439
429.224 584.27 690.647
429.224 595.506 510.791
429.224 606.742 510.791
429.224 617.978 510.791
429.224 629.213 510.791
429.224 640.449 510.791
429.224 651.685 510.791
429.224 662.921 510.791
429.224 674.157 517.986
429.224 685.393 517.986
429.224 696.629 510.791
429.224 707.865 510.791
429.224 719.101 316.547
429.224 730.337 474.82
429.224 741.573 726.619
429.224 752.809 575.54
429.224 764.045 604.317
429.224 775.281 604.317
429.224 786.517 604.317
429.224 797.753 604.317
429.224 808.989 604.317
429.224 820.225 553.957
429.224 831.461 748.201
429.224 842.697 611.511
429.224 853.933 359.712
429.224 865.169 302.158
429.224 876.404 302.158
433.79 67.4157 489.209
433.79 78.6517 309.353
433.79 89.8876 633.094
433.79 101.124 395.683
433.79 112.36 532.374
433.79 123.596 366.906
433.79 134.831 525.18
433.79 146.067 812.95
433.79 157.303 820.144
433.79 168.539 719.424
433.79 179.775 625.899
433.79 191.011 748.201
433.79 202.247 719.424
433.79 213.483 640.288
433.79 224.719 618.705
433.79 235.955 316.547
433.79 247.191 553.957
433.79 258.427 532.374
433.79 269.663 525.18
433.79 280.899 525.18
433.79 292.135 525.18
433.79 303.371 525.18
433.79 314.607 525.18
433.79 325.843 525.18
433.79 337.079 525.18
433.79 348.315 525.18
433.79 359.551 525.18
433.79 370.787 525.18
433.79 382.022 395.683
433.79 393.258 431.655
433.79 404.494 215.827
433.79 573.034 79.1367
433.79 584.27 510.791
433.79 595.506 446.043
433.79 606.742 510.791
433.79 617.978 510.791
433.79 629.213 510.791
433.79 640.449 510.791
433.79 651.685 510.791
433.79 662.921 510.791
433.79 674.157 510.791
433.79 685.393 510.791
433.79 696.629 510.791
433.79 707.865 510.791
433.79 719.101 510.791
433.79 730.337 381.295
433.79 741.573 510.791
433.79 752.809 604.317
433.79 764.045 726.619
433.79 775.281 726.619
433.79 786.517 726.619
433.79 797.753 726.619
433.79 808.989 719.424
433.79 820.225 798.561
433.79 831.461 640.288
433.79 842.697 733.813
433.79 853.933 525.18
433.79 865.169 517.986
433.79 876.404 510.791
438.356 56.1798 568.345
438.356 67.4157 388.489
438.356 78.6517 561.151
438.356 89.8876 618.705
438.356 101.124 395.683
438.356 112.36 482.014
438.356 123.596 633.094
438.356 134.831 633.094
438.356 146.067 834.532
438.356 157.303 841.727
438.356 168.539 719.424
438.356 179.775 467.626
438.356 191.011 654.676
438.356 202.247 611.511
438.356 213.483 553.957
438.356 224.719 474.82
438.356 235.955 575.54
438.356 247.191 539.568
438.356 258.427 525.18
438.356 269.663 525.18
438.356 280.899 525.18
438.356 292.135 525.18
438.356 303.371 525.18
438.356 314.607 525.18
438.356 325.843 525.18
438.356 337.079 525.18
438.356 348.315 525.18
438.356 359.551 525.18
438.356 370.787 460.432
438.356 382.022 330.935
438.356 393.258 402.878
438.356 404.494 215.827
438.356 584.27 280.576
438.356 595.506 237.41
438.356 606.742 374.101
438.356 617.978 446.043
438.356 629.213 510.791
438.356 640.449 510.791
438.356 651.685 510.791
438.356 662.921 510.791
438.356 674.157 510.791
438.356 685.393 510.791
438.356 696.629 510.791
438.356 707.865 510.791
438.356 719.101 510.791
438.356 730.337 546.763
438.356 741.573 446.043
438.356 752.809 683.453
438.356 764.045 726.619
438.356 775.281 726.619
438.356 786.517 726.619
438.356 797.753 726.619
438.356 808.989 719.424
438.356 820.225 733.813
438.356 831.461 539.568
438.356 842.697 726.619
438.356 853.933 517.986
438.356 865.169 539.568
438.356 876.404 510.791
442.922 56.1798 546.763
442.922 67.4157 352.518
442.922 78.6517 561.151
442.922 89.8876 654.676
442.922 101.124 388.489
442.922 112.36 496.403
442.922 123.596 661.871
442.922 134.831 625.899
442.922 146.067 834.532
442.922 157.303 856.115
442.922 168.539 525.18
442.922 179.775 446.043
442.922 191.011 741.007
442.922 202.247 676.259
442.922 213.483 690.647
442.922 224.719 719.424
442.922 235.955 611.511
442.922 247.191 525.18
442.922 258.427 525.18
442.922 269.663 525.18
442.922 280.899 525.18
442.922 292.135 525.18
442.922 303.371 525.18
442.922 314.607 525.18
442.922 325.843 525.18
442.922 337.079 525.18
442.922 348.315 525.18
442.922 359.551 525.18
442.922 370.787 395.683
442.922 382.022 539.568
442.922 393.258 374.101
442.922 404.494 215.827
442.922 584.27 122.302
442.922 595.506 187.05
442.922 606.742 539.568
442.922 617.978 309.353
442.922 629.213 446.043
442.922 640.449 510.791
442.922 651.685 510.791
442.922 662.921 510.791
442.922 674.157 510.791
442.922 685.393 510.791
442.922 696.629 510.791
442.922 707.865 510.791
442.922 719.101 510.791
442.922 730.337 539.568
442.922 741.573 726.619
442.922 752.809 640.288
442.922 764.045 726.619
442.922 775.281 726.619
442.922 786.517 726.619
442.922 797.753 726.619
442.922 808.989 719.424
442.922 820.225 726.619
442.922 831.461 539.568
442.922 842.697 726.619
442.922 853.933 539.568
442.922 865.169 539.568
442.922 876.404 510.791
447.489 44.9438 345.324
447.489 56.1798 532.374
447.489 67.4157 352.518
447.489 78.6517 561.151
447.489 89.8876 604.317
447.489 101.124 316.547
447.489 112.36 460.432
447.489 123.596 755.396
447.489 134.831 625.899
447.489 146.067 848.921
447.489 157.303 798.561
447.489 168.539 553.957
447.489 179.775 755.396
447.489 191.011 676.259
447.489 202.247 597.122
447.489 213.483 690.647
447.489 224.719 618.705
447.489 235.955 647.482
447.489 247.191 525.18
447.489 258.427 525.18
447.489 269.663 525.18
447.489 280.899 525.18
447.489 292.135 525.18
447.489 303.371 525.18
447.489 314.607 525.18
447.489 325.843 525.18
447.489 337.079 525.18
447.489 348.315 525.18
447.489 359.551 460.432
447.489 370.787 330.935
447.489 382.022 460.432
447.489 393.258 287.77
447.489 404.494 151.079
447.489 573.034 21.5827
447.489 584.27 172.662
447.489 595.506 194.245
447.489 606.742 510.791
447.489 617.978 510.791
447.489 629.213 237.41
447.489 640.449 374.101
447.489 651.685 446.043
447.489 662.921 510.791
447.489 674.157 510.791
447.489 685.393 510.791
447.489 696.629 510.791
447.489 707.865 510.791
447.489 719.101 510.791
447.489 730.337 561.151
447.489 741.573 726.619
447.489 752.809 532.374
447.489 764.045 676.259
447.489 775.281 726.619
447.489 786.517 726.619
447.489 797.753 726.619
447.489 808.989 719.424
447.489 820.225 726.619
447.489 831.461 539.568
447.489 842.697 733.813
447.489 853.933 539.568
447.489 865.169 546.763
447.489 876.404 510.791
452.055 44.9438 460.432
452.055 56.1798 561.151
452.055 67.4157 352.518
452.055 78.6517 517.986
452.055 89.8876 525.18
452.055 101.124 589.928
452.055 112.36 438.849
452.055 123.596 755.396
452.055 134.831 618.705
452.055 146.067 863.309
452.055 157.303 791.367
452.055 168.539 633.094
452.055 179.775 733.813
452.055 191.011 633.094
452.055 202.247 625.899
452.055 213.483 705.036
452.055 224.719 748.201
452.055 235.955 647.482
452.055 247.191 553.957
452.055 258.427 525.18
452.055 269.663 525.18
452.055 280.899 525.18
452.055 292.135 525.18
452.055 303.371 525.18
452.055 314.607 525.18
452.055 325.843 460.432
452.055 337.079 395.683
452.055 348.315 330.935
452.055 359.551 266.187
452.055 370.787 460.432
452.055 382.022 316.547
452.055 393.258 158.273
452.055 404.494 93.5252
452.055 573.034 21.5827
452.055 584.27 223.022
452.055 595.506 258.993
452.055 606.742 510.791
452.055 617.978 510.791
452.055 629.213 510.791
452.055 640.449 539.568
452.055 651.685 309.353
452.055 662.921 446.043
452.055 674.157 510.791
452.055 685.393 510.791
452.055 696.629 510.791
452.055 707.865 510.791
452.055 719.101 510.791
452.055 730.337 532.374
452.055 741.573 690.647
452.055 752.809 726.619
452.055 764.045 597.122
452.055 775.281 676.259
452.055 786.517 726.619
452.055 797.753 726.619
452.055 808.989 726.619
452.055 820.225 726.619
452.055 831.461 525.18
452.055 842.697 683.453
452.055 853.933 546.763
452.055 865.169 546.763
452.055 876.404 748.201
456.621 44.9438 517.986
456.621 56.1798 345.324
456.621 67.4157 352.518
456.621 78.6517 553.957
456.621 89.8876 489.209
456.621 101.124 525.18
456.621 112.36 366.906
456.621 123.596 683.453
456.621 134.831 568.345
456.621 146.067 474.82
456.621 157.303 733.813
456.621 168.539 784.173
456.621 179.775 676.259
456.621 191.011 410.072
456.621 202.247 633.094
456.621 213.483 834.532
456.621 224.719 820.144
456.621 235.955 640.288
456.621 247.191 582.734
456.621 258.427 525.18
456.621 269.663 525.18
456.621 280.899 525.18
456.621 292.135 453.237
456.621 303.371 381.295
456.621 314.607 309.353
456.621 325.843 244.604
456.621 337.079 510.791
456.621 348.315 489.209
456.621 359.551 431.655
456.621 370.787 316.547
456.621 382.022 266.187
456.621 393.258 136.691
456.621 573.034 86.3309
456.621 584.27 187.05
456.621 595.506 323.741
456.621 606.742 510.791
456.621 617.978 510.791
456.621 629.213 510.791
456.621 640.449 510.791
456.621 651.685 510.791
456.621 662.921 374.101
456.621 674.157 510.791
456.621 685.393 510.791
456.621 696.629 510.791
456.621 707.865 510.791
456.621 719.101 510.791
456.621 730.337 510.791
456.621 741.573 647.482
456.621 752.809 726.619
456.621 764.045 719.424
456.621 775.281 633.094
456.621 786.517 726.619
456.621 797.753 726.619
456.621 808.989 733.813
456.621 820.225 726.619
456.621 831.461 726.619
456.621 842.697 640.288
456.621 853.933 546.763
456.621 865.169 525.18
456.621 876.404 697.842
461.187 44.9438 510.791
461.187 56.1798 338.129
461.187 67.4157 410.072
461.187 78.6517 582.734
461.187 89.8876 402.878
461.187 101.124 424.46
461.187 112.36 611.511
461.187 123.596 618.705
461.187 134.831 748.201
461.187 146.067 640.288
461.187 157.303 762.59
461.187 168.539 712.23
461.187 179.775 374.101
461.187 191.011 633.094
461.187 202.247 733.813
461.187 213.483 726.619
461.187 224.719 805.755
461.187 235.955 697.842
461.187 247.191 575.54
461.187 258.427 525.18
461.187 269.663 453.237
461.187 280.899 381.295
461.187 292.135 237.41
461.187 303.371 553.957
461.187 314.607 539.568
461.187 325.843 539.568
461.187 337.079 539.568
461.187 348.315 460.432
461.187 359.551 330.935
461.187 370.787 323.741
461.187 382.022 179.856
461.187 573.034 143.885
461.187 584.27 251.799
461.187 595.506 510.791
461.187 606.742 510.791
461.187 617.978 510.791
461.187 629.213 510.791
461.187 640.449 510.791
461.187 651.685 510.791
461.187 662.921 93.5252
461.187 674.157 438.849
461.187 685.393 510.791
461.187 696.629 510.791
461.187 707.865 510.791
461.187 719.101 510.791
461.187 730.337 510.791
461.187 741.573 553.957
461.187 752.809 726.619
461.187 764.045 726.619
461.187 775.281 525.18
461.187 786.517 683.453
461.187 797.753 726.619
461.187 808.989 726.619
461.187 820.225 726.619
461.187 831.461 726.619
461.187 842.697 539.568
461.187 853.933 546.763
461.187 865.169 546.763
461.187 876.404 410.072
465.753 44.9438 453.237
465.753 56.1798 266.187
465.753 67.4157 381.295
465.753 78.6517 503.597
465.753 89.8876 625.899
465.753 101.124 402.878
465.753 112.36 611.511
465.753 123.596 568.345
465.753 134.831 690.647
465.753 146.067 539.568
465.753 157.303 827.338
465.753 168.539 661.871
465.753 179.775 625.899
465.753 191.011 733.813
465.753 202.247 726.619
465.753 213.483 726.619
465.753 224.719 726.619
465.753 235.955 762.59
465.753 247.191 517.986
465.753 258.427 381.295
465.753 269.663 244.604
465.753 280.899 553.957
465.753 292.135 539.568
465.753 303.371 539.568
465.753 314.607 525.18
465.753 325.843 460.432
465.753 337.079 395.683
465.753 348.315 266.187
465.753 359.551 302.158
465.753 370.787 187.05
465.753 382.022 86.3309
465.753 561.798 57.554
465.753 573.034 194.245
465.753 584.27 316.547
465.753 595.506 510.791
465.753 606.742 510.791
465.753 617.978 510.791
465.753 629.213 510.791
465.753 640.449 510.791
465.753 651.685 510.791
465.753 662.921 510.791
465.753 674.157 302.158
465.753 685.393 438.849
465.753 696.629 510.791
465.753 707.865 510.791
465.753 719.101 510.791
465.753 730.337 510.791
465.753 741.573 539.568
465.753 752.809 726.619
465.753 764.045 726.619
465.753 775.281 719.424
465.753 786.517 640.288
465.753 797.753 726.619
465.753 808.989 726.619
465.753 820.225 726.619
465.753 831.461 726.619
465.753 842.697 539.568
465.753 853.933 546.763
465.753 865.169 546.763
465.753 876.404 194.245
470.32 44.9438 395.683
470.32 56.1798 517.986
470.32 67.4157 625.899
470.32 78.6517 489.209
470.32 89.8876 525.18
470.32 101.124 323.741
470.32 112.36 525.18
470.32 123.596 474.82
470.32 134.831 625.899
470.32 146.067 618.705
470.32 157.303 755.396
470.32 168.539 417.266
470.32 179.775 640.288
470.32 191.011 733.813
470.32 202.247 733.813
470.32 213.483 726.619
470.32 224.719 726.619
470.32 235.955 798.561
470.32 247.191 503.597
470.32 258.427 575.54
470.32 269.663 539.568
470.32 280.899 539.568
470.32 292.135 460.432
470.32 303.371 388.489
470.32 314.607 316.547
470.32 325.843 251.799
470.32 337.079 201.439
470.32 348.315 143.885
470.32 359.551 151.079
470.32 370.787 86.3309
470.32 561.798 79.1367
470.32 573.034 187.05
470.32 584.27 510.791
470.32 595.506 510.791
470.32 606.742 510.791
470.32 617.978 510.791
470.32 629.213 510.791
470.32 640.449 510.791
470.32 651.685 510.791
470.32 662.921 510.791
470.32 674.157 510.791
470.32 685.393 302.158
470.32 696.629 438.849
470.32 707.865 510.791
470.32 719.101 510.791
470.32 730.337 510.791
470.32 741.573 525.18
470.32 752.809 676.259
470.32 764.045 726.619
470.32 775.281 719.424
470.32 786.517 539.568
470.32 797.753 726.619
470.32 808.989 726.619
470.32 820.225 726.619
470.32 831.461 726.619
470.32 842.697 568.345
470.32 853.933 525.18
470.32 865.169 194.245
470.32 876.404 194.245
474.886 44.9438 266.187
474.886 56.1798 496.403
474.886 67.4157 625.899
474.886 78.6517 460.432
474.886 89.8876 460.432
474.886 101.124 532.374
474.886 112.36 374.101
474.886 123.596 597.122
474.886 134.831 611.511
474.886 146.067 776.978
474.886 157.303 697.842
474.886 168.539 618.705
474.886 179.775 733.813
474.886 191.011 733.813
474.886 202.247 733.813
474.886 213.483 741.007
474.886 224.719 561.151
474.886 235.955 762.59
474.886 247.191 503.597
474.886 258.427 553.957
474.886 269.663 460.432
474.886 280.899 388.489
474.886 292.135 244.604
474.886 303.371 208.633
474.886 314.607 107.914
474.886 325.843 107.914
474.886 337.079 100.719
474.886 561.798 86.3309
474.886 573.034 187.05
474.886 584.27 510.791
474.886 595.506 510.791
474.886 606.742 510.791
474.886 617.978 510.791
474.886 629.213 510.791
474.886 640.449 510.791
474.886 651.685 510.791
474.886 662.921 510.791
474.886 674.157 510.791
474.886 685.393 510.791
474.886 696.629 302.158
474.886 707.865 438.849
474.886 719.101 510.791
474.886 730.337 510.791
474.886 741.573 553.957
474.886 752.809 654.676
474.886 764.045 726.619
474.886 775.281 726.619
474.886 786.517 525.18
474.886 797.753 683.453
474.886 808.989 726.619
474.886 820.225 726.619
474.886 831.461 546.763
474.886 842.697 604.317
474.886 853.933 539.568
474.886 865.169 187.05
474.886 876.404 122.302
474.886 887.64 187.05
479.452 44.9438 517.986
479.452 56.1798 661.871
479.452 67.4157 597.122
479.452 78.6517 417.266
479.452 89.8876 460.432
479.452 101.124 474.82
479.452 112.36 618.705
479.452 123.596 510.791
479.452 134.831 669.065
479.452 146.067 834.532
479.452 157.303 618.705
479.452 168.539 618.705
479.452 179.775 726.619
479.452 191.011 726.619
479.452 202.247 597.122
479.452 213.483 618.705
479.452 224.719 561.151
479.452 235.955 733.813
479.452 247.191 611.511
479.452 258.427 395.683
479.452 269.663 237.41
479.452 280.899 208.633
479.452 292.135 100.719
479.452 303.371 100.719
479.452 561.798 86.3309
479.452 573.034 187.05
479.452 584.27 510.791
479.452 595.506 510.791
479.452 606.742 510.791
479.452 617.978 510.791
479.452 629.213 510.791
479.452 640.449 510.791
479.452 651.685 510.791
479.452 662.921 510.791
479.452 674.157 510.791
479.452 685.393 510.791
479.452 696.629 510.791
479.452 707.865 302.158
479.452 719.101 438.849
479.452 730.337 510.791
479.452 741.573 546.763
479.452 752.809 561.151
479.452 764.045 726.619
479.452 775.281 726.619
479.452 786.517 719.424
479.452 797.753 640.288
479.452 808.989 726.619
479.452 820.225 726.619
479.452 831.461 539.568
479.452 842.697 726.619
479.452 853.933 546.763
479.452 865.169 115.108
479.452 876.404 482.014
479.452 887.64 107.914
484.018 44.9438 496.403
484.018 56.1798 625.899
484.018 67.4157 539.568
484.018 78.6517 323.741
484.018 89.8876 431.655
484.018 101.124 467.626
484.018 112.36 618.705
484.018 123.596 417.266
484.018 134.831 690.647
484.018 146.067 798.561
484.018 157.303 467.626
484.018 168.539 589.928
484.018 179.775 726.619
484.018 191.011 597.122
484.018 202.247 625.899
484.018 213.483 697.842
484.018 224.719 611.511
484.018 235.955 805.755
484.018 247.191 683.453
484.018 258.427 215.827
484.018 269.663 100.719
484.018 280.899 100.719
484.018 561.798 100.719
484.018 573.034 122.302
484.018 584.27 446.043
484.018 595.506 510.791
484.018 606.742 510.791
484.018 617.978 510.791
484.018 629.213 510.791
484.018 640.449 510.791
484.018 651.685 510.791
484.018 662.921 510.791
484.018 674.157 510.791
484.018 685.393 510.791
484.018 696.629 510.791
484.018 707.865 510.791
484.018 719.101 302.158
484.018 730.337 446.043
484.018 741.573 553.957
484.018 752.809 568.345
484.018 764.045 726.619
484.018 775.281 726.619
484.018 786.517 726.619
484.018 797.753 546.763
484.018 808.989 726.619
484.018 820.225 726.619
484.018 831.461 539.568
484.018 842.697 726.619
484.018 853.933 194.245
484.018 865.169 194.245
484.018 876.404 410.072
484.018 887.64 194.245
488.584 33.7079 474.82
488.584 44.9438 417.266
488.584 56.1798 589.928
488.584 67.4157 431.655
488.584 78.6517 589.928
488.584 89.8876 410.072
488.584 101.124 589.928
488.584 112.36 618.705
488.584 123.596 597.122
488.584 134.831 776.978
488.584 146.067 726.619
488.584 157.303 633.094
488.584 168.539 575.54
488.584 179.775 568.345
488.584 191.011 625.899
488.584 202.247 697.842
488.584 213.483 618.705
488.584 224.719 748.201
488.584 235.955 726.619
488.584 247.191 633.094
488.584 258.427 316.547
488.584 550.562 28.777
488.584 561.798 158.273
488.584 573.034 280.576
488.584 584.27 309.353
488.584 595.506 446.043
488.584 606.742 510.791
488.584 617.978 510.791
488.584 629.213 510.791
488.584 640.449 510.791
488.584 651.685 510.791
488.584 662.921 510.791
488.584 674.157 510.791
488.584 685.393 510.791
488.584 696.629 510.791
488.584 707.865 510.791
488.584 719.101 510.791
488.584 730.337 374.101
488.584 741.573 546.763
488.584 752.809 539.568
488.584 764.045 726.619
488.584 775.281 733.813
488.584 786.517 726.619
488.584 797.753 546.763
488.584 808.989 726.619
488.584 820.225 719.424
488.584 831.461 546.763
488.584 842.697 726.619
488.584 853.933 194.245
488.584 865.169 194.245
488.584 876.404 194.245
488.584 887.64 122.302
488.584 898.876 187.05
493.151 33.7079 503.597
493.151 44.9438 352.518
493.151 56.1798 625.899
493.151 67.4157 402.878
493.151 78.6517 589.928
493.151 89.8876 395.683
493.151 101.124 604.317
493.151 112.36 611.511
493.151 123.596 553.957
493.151 134.831 841.727
493.151 146.067 726.619
493.151 157.303 741.007
493.151 168.539 568.345
493.151 179.775 575.54
493.151 191.011 697.842
493.151 202.247 611.511
493.151 213.483 755.396
493.151 224.719 697.842
493.151 235.955 654.676
493.151 247.191 647.482
493.151 258.427 294.964
493.151 550.562 35.9712
493.151 561.798 165.468
493.151 573.034 496.403
493.151 584.27 496.403
493.151 595.506 302.158
493.151 606.742 438.849
493.151 617.978 510.791
493.151 629.213 510.791
493.151 640.449 510.791
493.151 651.685 510.791
493.151 662.921 510.791
493.151 674.157 510.791
493.151 685.393 510.791
493.151 696.629 510.791
493.151 707.865 510.791
493.151 719.101 510.791
493.151 730.337 115.108
493.151 741.573 474.82
493.151 752.809 553.957
493.151 764.045 726.619
493.151 775.281 733.813
493.151 786.517 726.619
493.151 797.753 525.18
493.151 808.989 683.453
493.151 820.225 719.424
493.151 831.461 568.345
493.151 842.697 532.374
493.151 853.933 201.439
493.151 865.169 194.245
493.151 876.404 194.245
493.151 887.64 553.957
493.151 898.876 187.05
497.717 33.7079 503.597
497.717 44.9438 338.129
497.717 56.1798 618.705
497.717 67.4157 381.295
497.717 78.6517 589.928
497.717 89.8876 395.683
497.717 101.124 604.317
497.717 112.36 654.676
497.717 123.596 482.014
497.717 134.831 820.144
497.717 146.067 661.871
497.717 157.303 712.23
497.717 168.539 575.54
497.717 179.775 597.122
497.717 191.011 654.676
497.717 202.247 776.978
497.717 213.483 697.842
497.717 224.719 705.036
497.717 235.955 618.705
497.717 247.191 647.482
497.717 258.427 510.791
497.717 269.663 35.9712
497.717 550.562 43.1655
497.717 561.798 187.05
497.717 573.034 510.791
497.717 584.27 510.791
497.717 595.506 510.791
497.717 606.742 302.158
497.717 617.978 438.849
497.717 629.213 510.791
497.717 640.449 510.791
497.717 651.685 510.791
497.717 662.921 510.791
497.717 674.157 510.791
497.717 685.393 510.791
497.717 696.629 510.791
497.717 707.865 510.791
497.717 719.101 510.791
497.717 730.337 510.791
497.717 741.573 417.266
497.717 752.809 546.763
497.717 764.045 726.619
497.717 775.281 733.813
497.717 786.517 726.619
497.717 797.753 726.619
497.717 808.989 654.676
497.717 820.225 575.54
497.717 831.461 374.101
497.717 842.697 532.374
497.717 853.933 194.245
497.717 865.169 194.245
497.717 876.404 194.245
497.717 887.64 553.957
497.717 898.876 187.05
502.283 33.7079 482.014
502.283 44.9438 266.187
502.283 56.1798 546.763
502.283 67.4157 309.353
502.283 78.6517 496.403
502.283 89.8876 316.547
502.283 101.124 582.734
502.283 112.36 661.871
502.283 123.596 553.957
502.283 134.831 748.201
502.283 146.067 676.259
502.283 157.303 661.871
502.283 168.539 676.259
502.283 179.775 568.345
502.283 191.011 611.511
502.283 202.247 755.396
502.283 213.483 654.676
502.283 224.719 726.619
502.283 235.955 611.511
502.283 247.191 553.957
502.283 258.427 589.928
502.283 269.663 244.604
502.283 561.798 57.554
502.283 573.034 381.295
502.283 584.27 446.043
502.283 595.506 510.791
502.283 606.742 510.791
502.283 617.978 237.41
502.283 629.213 374.101
502.283 640.449 438.849
502.283 651.685 510.791
502.283 662.921 510.791
502.283 674.157 510.791
502.283 685.393 510.791
502.283 696.629 510.791
502.283 707.865 510.791
502.283 719.101 510.791
502.283 730.337 510.791
502.283 741.573 165.468
502.283 752.809 482.014
502.283 764.045 676.259
502.283 775.281 726.619
502.283 786.517 575.54
502.283 797.753 604.317
502.283 808.989 366.906
502.283 820.225 611.511
502.283 831.461 561.151
502.283 842.697 532.374
502.283 853.933 194.245
502.283 865.169 194.245
502.283 876.404 194.245
502.283 887.64 553.957
502.283 898.876 187.05
506.849 22.4719 467.626
506.849 33.7079 330.935
506.849 44.9438 395.683
506.849 56.1798 482.014
506.849 67.4157 582.734
506.849 78.6517 402.878
506.849 89.8876 597.122
506.849 101.124 561.151
506.849 112.36 654.676
506.849 123.596 517.986
506.849 134.831 748.201
506.849 146.067 784.173
506.849 157.303 683.453
506.849 168.539 647.482
506.849 179.775 769.784
506.849 191.011 863.309
506.849 202.247 705.036
506.849 213.483 741.007
506.849 224.719 705.036
506.849 235.955 618.705
506.849 247.191 604.317
506.849 258.427 618.705
506.849 269.663 251.799
506.849 573.034 179.856
506.849 584.27 237.41
506.849 595.506 302.158
506.849 606.742 374.101
506.849 617.978 438.849
506.849 629.213 532.374
506.849 640.449 302.158
506.849 651.685 438.849
506.849 662.921 510.791
506.849 674.157 510.791
506.849 685.393 510.791
506.849 696.629 510.791
506.849 707.865 510.791
506.849 719.101 510.791
506.849 730.337 510.791
506.849 741.573 510.791
506.849 752.809 546.763
506.849 764.045 647.482
506.849 775.281 568.345
506.849 786.517 604.317
506.849 797.753 733.813
506.849 808.989 561.151
506.849 820.225 733.813
506.849 831.461 561.151
506.849 842.697 539.568
506.849 853.933 258.993
506.849 865.169 187.05
506.849 876.404 115.108
506.849 887.64 482.014
506.849 898.876 187.05
506.849 910.112 553.957
511.416 11.236 438.849
511.416 22.4719 453.237
511.416 33.7079 323.741
511.416 44.9438 395.683
511.416 56.1798 453.237
511.416 67.4157 582.734
511.416 78.6517 395.683
511.416 89.8876 597.122
511.416 101.124 561.151
511.416 112.36 654.676
511.416 123.596 640.288
511.416 134.831 784.173
511.416 146.067 791.367
511.416 157.303 661.871
511.416 168.539 575.54
511.416 179.775 726.619
511.416 191.011 827.338
511.416 202.247 741.007
511.416 213.483 697.842
511.416 224.719 697.842
511.416 235.955 654.676
511.416 247.191 676.259
511.416 258.427 546.763
511.416 269.663 352.518
511.416 595.506 100.719
511.416 606.742 165.468
511.416 617.978 309.353
511.416 629.213 446.043
511.416 640.449 510.791
511.416 651.685 302.158
511.416 662.921 438.849
511.416 674.157 510.791
511.416 685.393 510.791
511.416 696.629 510.791
511.416 707.865 510.791
511.416 719.101 510.791
511.416 730.337 510.791
511.416 741.573 510.791
511.416 752.809 223.022
511.416 764.045 561.151
511.416 775.281 604.317
511.416 786.517 733.813
511.416 797.753 733.813
511.416 808.989 561.151
511.416 820.225 733.813
511.416 831.461 187.05
511.416 842.697 187.05
511.416 853.933 330.935
511.416 865.169 187.05
511.416 876.404 546.763
511.416 887.64 410.072
511.416 898.876 107.914
511.416 910.112 482.014
515.982 11.236 446.043
515.982 22.4719 446.043
515.982 33.7079 323.741
515.982 44.9438 489.209
515.982 56.1798 438.849
515.982 67.4157 575.54
515.982 78.6517 388.489
515.982 89.8876 597.122
515.982 101.124 561.151
515.982 112.36 647.482
515.982 123.596 575.54
515.982 134.831 791.367
515.982 146.067 791.367
515.982 157.303 604.317
515.982 168.539 568.345
515.982 179.775 697.842
515.982 191.011 791.367
515.982 202.247 719.424
515.982 213.483 683.453
515.982 224.719 697.842
515.982 235.955 705.036
515.982 247.191 489.209
515.982 258.427 388.489
515.982 269.663 474.82
515.982 629.213 309.353
515.982 640.449 446.043
515.982 651.685 510.791
515.982 662.921 302.158
515.982 674.157 438.849
515.982 685.393 503.597
515.982 696.629 510.791
515.982 707.865 510.791
515.982 719.101 510.791
515.982 730.337 510.791
515.982 741.573 510.791
515.982 752.809 201.439
515.982 764.045 496.403
515.982 775.281 733.813
515.982 786.517 733.813
515.982 797.753 733.813
515.982 808.989 582.734
515.982 820.225 741.007
515.982 831.461 122.302
515.982 842.697 187.05
515.982 853.933 539.568
515.982 865.169 187.05
515.982 876.404 546.763
515.982 887.64 201.439
515.982 898.876 194.245
515.982 910.112 410.072
520.548 11.236 482.014
520.548 22.4719 446.043
520.548 33.7079 323.741
520.548 44.9438 446.043
520.548 56.1798 402.878
520.548 67.4157 510.791
520.548 78.6517 316.547
520.548 89.8876 503.597
520.548 101.124 510.791
520.548 112.36 640.288
520.548 123.596 568.345
520.548 134.831 712.23
520.548 146.067 798.561
520.548 157.303 669.065
520.548 168.539 568.345
520.548 179.775 618.705
520.548 191.011 762.59
520.548 202.247 697.842
520.548 213.483 676.259
520.548 224.719 604.317
520.548 235.955 719.424
520.548 247.191 496.403
520.548 258.427 460.432
520.548 269.663 517.986
520.548 629.213 28.777
520.548 640.449 374.101
520.548 651.685 510.791
520.548 662.921 510.791
520.548 674.157 302.158
520.548 685.393 438.849
520.548 696.629 503.597
520.548 707.865 510.791
520.548 719.101 510.791
520.548 730.337 510.791
520.548 741.573 517.986
520.548 752.809 539.568
520.548 764.045 424.46
520.548 775.281 733.813
520.548 786.517 726.619
520.548 797.753 561.151
520.548 808.989 611.511
520.548 820.225 741.007
520.548 831.461 525.18
520.548 842.697 187.05
520.548 853.933 539.568
520.548 865.169 187.05
520.548 876.404 546.763
520.548 887.64 201.439
520.548 898.876 194.245
520.548 910.112 187.05
525.114 11.236 438.849
525.114 22.4719 438.849
525.114 33.7079 316.547
525.114 44.9438 611.511
525.114 56.1798 381.295
525.114 67.4157 446.043
525.114 78.6517 589.928
525.114 89.8876 410.072
525.114 101.124 705.036
525.114 112.36 625.899
525.114 123.596 561.151
525.114 134.831 669.065
525.114 146.067 827.338
525.114 157.303 805.755
525.114 168.539 496.403
525.114 179.775 553.957
525.114 191.011 690.647
525.114 202.247 683.453
525.114 213.483 676.259
525.114 224.719 597.122
525.114 235.955 604.317
525.114 247.191 597.122
525.114 258.427 525.18
525.114 269.663 489.209
525.114 640.449 100.719
525.114 651.685 446.043
525.114 662.921 510.791
525.114 674.157 510.791
525.114 685.393 316.547
525.114 696.629 467.626
525.114 707.865 517.986
525.114 719.101 510.791
525.114 730.337 510.791
525.114 741.573 517.986
525.114 752.809 546.763
525.114 764.045 338.129
525.114 775.281 726.619
525.114 786.517 726.619
525.114 797.753 553.957
525.114 808.989 741.007
525.114 820.225 741.007
525.114 831.461 532.374
525.114 842.697 115.108
525.114 853.933 467.626
525.114 865.169 187.05
525.114 876.404 546.763
525.114 887.64 201.439
525.114 898.876 187.05
525.114 910.112 107.914
529.68 11.236 438.849
529.68 22.4719 374.101
529.68 33.7079 438.849
529.68 44.9438 532.374
529.68 56.1798 302.158
529.68 67.4157 417.266
529.68 78.6517 589.928
529.68 89.8876 395.683
529.68 101.124 705.036
529.68 112.36 618.705
529.68 123.596 719.424
529.68 134.831 517.986
529.68 146.067 848.921
529.68 157.303 776.978
529.68 168.539 431.655
529.68 179.775 589.928
529.68 191.011 611.511
529.68 202.247 676.259
529.68 213.483 676.259
529.68 224.719 604.317
529.68 235.955 618.705
529.68 247.191 791.367
529.68 258.427 654.676
529.68 269.663 525.18
529.68 651.685 309.353
529.68 662.921 446.043
529.68 674.157 510.791
529.68 685.393 532.374
529.68 696.629 482.014
529.68 707.865 669.065
529.68 719.101 517.986
529.68 730.337 510.791
529.68 741.573 517.986
529.68 752.809 553.957
529.68 764.045 287.77
529.68 775.281 633.094
529.68 786.517 726.619
529.68 797.753 553.957
529.68 808.989 733.813
529.68 820.225 546.763
529.68 831.461 179.856
529.68 842.697 323.741
529.68 853.933 402.878
529.68 865.169 187.05
529.68 876.404 546.763
529.68 887.64 201.439
529.68 898.876 187.05
529.68 910.112 553.957
529.68 921.348 410.072
534.247 11.236 438.849
