325.581 724.638 441.406
325.581 731.884 439.453
325.581 739.13 439.453
325.581 746.377 439.453
325.581 753.623 437.5
325.581 760.87 437.5
325.581 768.116 437.5
325.581 775.362 431.641
325.581 782.609 429.688
330.233 43.4783 474.609
330.233 50.7246 638.672
330.233 57.971 773.438
330.233 65.2174 470.703
330.233 72.4638 810.547
330.233 79.7101 544.922
330.233 86.9565 398.438
330.233 94.2029 400.391
330.233 101.449 472.656
330.233 108.696 255.859
330.233 115.942 574.219
330.233 123.188 56.6406
330.233 130.435 48.8281
330.233 137.681 78.125
330.233 144.928 21.4844
330.233 152.174 13.6719
330.233 159.42 56.6406
330.233 166.667 72.2656
330.233 173.913 83.9844
330.233 181.159 21.4844
330.233 188.406 125
330.233 492.754 70.3125
330.233 500 224.609
330.233 507.246 169.922
330.233 514.493 171.875
330.233 521.739 101.563
330.233 528.986 224.609
330.233 536.232 169.922
330.233 543.478 136.719
330.233 550.725 277.344
330.233 557.971 425.781
330.233 565.217 671.875
330.233 572.464 636.719
330.233 579.71 400.391
330.233 586.957 398.438
330.233 594.203 300.781
330.233 601.449 300.781
330.233 608.696 367.188
330.233 615.942 300.781
330.233 623.188 462.891
330.233 630.435 466.797
330.233 637.681 628.906
330.233 644.928 457.031
330.233 652.174 291.016
330.233 659.42 289.063
330.233 666.667 289.063
330.233 673.913 291.016
330.233 681.159 291.016
330.233 688.406 451.172
330.233 695.652 449.219
330.233 702.899 445.313
330.233 710.145 443.359
330.233 717.391 443.359
330.233 724.638 441.406
330.233 731.884 439.453
330.233 739.13 439.453
330.233 746.377 439.453
330.233 753.623 439.453
330.233 760.87 439.453
330.233 768.116 431.641
334.884 43.4783 474.609
334.884 50.7246 638.672
334.884 57.971 773.438
334.884 65.2174 472.656
334.884 72.4638 689.453
334.884 79.7101 400.391
334.884 86.9565 398.438
334.884 94.2029 414.063
334.884 101.449 544.922
334.884 108.696 216.797
334.884 115.942 472.656
334.884 123.188 78.125
334.884 130.435 42.9688
334.884 137.681 83.9844
334.884 144.928 17.5781
334.884 152.174 15.625
334.884 159.42 62.5
334.884 166.667 21.4844
334.884 173.913 66.4063
334.884 181.159 25.3906
334.884 188.406 109.375
334.884 485.507 17.5781
334.884 492.754 85.9375
334.884 500 212.891
334.884 507.246 222.656
334.884 514.493 160.156
334.884 521.739 103.516
334.884 528.986 267.578
334.884 536.232 255.859
334.884 543.478 355.469
334.884 550.725 355.469
334.884 557.971 386.719
334.884 565.217 570.313
334.884 572.464 371.094
334.884 579.71 373.047
334.884 586.957 302.734
334.884 594.203 302.734
334.884 601.449 302.734
334.884 608.696 369.141
334.884 615.942 300.781
334.884 623.188 564.453
334.884 630.435 466.797
334.884 637.681 294.922
334.884 644.928 457.031
334.884 652.174 457.031
334.884 659.42 291.016
334.884 666.667 289.063
334.884 673.913 291.016
334.884 681.159 291.016
334.884 688.406 289.063
334.884 695.652 291.016
334.884 702.899 445.313
334.884 710.145 443.359
334.884 717.391 441.406
334.884 724.638 441.406
334.884 731.884 441.406
334.884 739.13 439.453
334.884 746.377 439.453
334.884 753.623 439.453
339.535 36.2319 474.609
339.535 43.4783 474.609
339.535 50.7246 474.609
339.535 57.971 773.438
339.535 65.2174 544.922
339.535 72.4638 599.609
339.535 79.7101 269.531
339.535 86.9565 345.703
339.535 94.2029 414.063
339.535 101.449 398.438
339.535 108.696 343.75
339.535 115.942 517.578
339.535 123.188 66.4063
339.535 130.435 42.9688
339.535 137.681 25.3906
339.535 144.928 62.5
339.535 152.174 17.5781
339.535 159.42 56.6406
339.535 166.667 17.5781
339.535 173.913 66.4063
339.535 181.159 23.4375
339.535 188.406 117.188
339.535 478.261 13.6719
339.535 485.507 21.4844
339.535 492.754 80.0781
339.535 500 138.672
339.535 507.246 269.531
339.535 514.493 208.984
339.535 521.739 158.203
339.535 528.986 306.641
339.535 536.232 201.172
339.535 543.478 277.344
339.535 550.725 414.063
339.535 557.971 369.141
339.535 565.217 525.391
339.535 572.464 302.734
339.535 579.71 302.734
339.535 586.957 302.734
339.535 594.203 302.734
339.535 601.449 371.094
339.535 608.696 373.047
339.535 615.942 373.047
339.535 623.188 566.406
339.535 630.435 470.703
339.535 637.681 294.922
339.535 644.928 457.031
339.535 652.174 291.016
339.535 659.42 291.016
339.535 666.667 291.016
339.535 673.913 289.063
339.535 681.159 287.109
339.535 688.406 289.063
339.535 695.652 285.156
339.535 702.899 605.469
339.535 710.145 445.313
339.535 717.391 441.406
339.535 724.638 441.406
339.535 731.884 439.453
344.186 36.2319 474.609
344.186 43.4783 474.609
344.186 50.7246 722.656
344.186 57.971 773.438
344.186 65.2174 640.625
344.186 72.4638 542.969
344.186 79.7101 269.531
344.186 86.9565 240.234
344.186 94.2029 470.703
344.186 101.449 343.75
344.186 108.696 527.344
344.186 115.942 386.719
344.186 123.188 66.4063
344.186 130.435 48.8281
344.186 137.681 37.1094
344.186 144.928 72.2656
344.186 152.174 66.4063
344.186 159.42 60.5469
344.186 166.667 19.5313
344.186 173.913 78.125
344.186 181.159 72.2656
344.186 188.406 103.516
344.186 471.014 19.5313
344.186 478.261 25.3906
344.186 485.507 93.75
344.186 492.754 85.9375
344.186 500 103.516
344.186 507.246 269.531
344.186 514.493 224.609
344.186 521.739 207.031
344.186 528.986 285.156
344.186 536.232 257.813
344.186 543.478 277.344
344.186 550.725 414.063
344.186 557.971 345.703
344.186 565.217 593.75
344.186 572.464 371.094
344.186 579.71 302.734
344.186 586.957 371.094
344.186 594.203 371.094
344.186 601.449 373.047
344.186 608.696 375
344.186 615.942 375
344.186 623.188 570.313
344.186 630.435 300.781
344.186 637.681 294.922
344.186 644.928 457.031
344.186 652.174 291.016
344.186 659.42 291.016
344.186 666.667 291.016
344.186 673.913 615.234
344.186 681.159 615.234
344.186 688.406 609.375
344.186 695.652 607.422
344.186 702.899 603.516
344.186 710.145 441.406
348.837 36.2319 474.609
348.837 43.4783 474.609
348.837 50.7246 722.656
348.837 57.971 572.266
348.837 65.2174 640.625
348.837 72.4638 470.703
348.837 79.7101 218.75
348.837 86.9565 242.188
348.837 94.2029 328.125
348.837 101.449 132.813
348.837 108.696 431.641
348.837 115.942 240.234
348.837 123.188 78.125
348.837 130.435 56.6406
348.837 137.681 41.0156
348.837 144.928 83.9844
348.837 152.174 72.2656
348.837 159.42 15.625
348.837 166.667 72.2656
348.837 173.913 93.75
348.837 181.159 68.3594
348.837 188.406 54.6875
348.837 463.768 19.5313
348.837 471.014 64.4531
348.837 478.261 17.5781
348.837 485.507 93.75
348.837 492.754 35.1563
348.837 500 33.2031
348.837 507.246 269.531
348.837 514.493 171.875
348.837 521.739 222.656
348.837 528.986 332.031
348.837 536.232 257.813
348.837 543.478 277.344
348.837 550.725 414.063
348.837 557.971 345.703
348.837 565.217 593.75
348.837 572.464 371.094
348.837 579.71 302.734
348.837 586.957 371.094
348.837 594.203 371.094
348.837 601.449 373.047
348.837 608.696 373.047
348.837 615.942 572.266
348.837 623.188 464.844
348.837 630.435 300.781
348.837 637.681 294.922
348.837 644.928 292.969
348.837 652.174 621.094
348.837 659.42 619.141
348.837 666.667 615.234
348.837 673.913 615.234
348.837 681.159 449.219
348.837 688.406 447.266
348.837 695.652 445.313
348.837 702.899 443.359
348.837 710.145 441.406
353.488 36.2319 472.656
353.488 43.4783 474.609
353.488 50.7246 722.656
353.488 57.971 572.266
353.488 65.2174 640.625
353.488 72.4638 414.063
353.488 79.7101 253.906
353.488 86.9565 416.016
353.488 94.2029 355.469
353.488 101.449 119.141
353.488 108.696 371.094
353.488 115.942 64.4531
353.488 123.188 89.8438
353.488 130.435 56.6406
353.488 137.681 41.0156
353.488 144.928 91.7969
353.488 152.174 66.4063
353.488 159.42 21.4844
353.488 166.667 66.4063
353.488 173.913 25.3906
353.488 181.159 126.953
353.488 188.406 62.5
353.488 420.29 11.7188
353.488 449.275 15.625
353.488 456.522 27.3438
353.488 463.768 70.3125
353.488 471.014 89.8438
353.488 478.261 15.625
353.488 485.507 78.125
353.488 492.754 39.0625
353.488 500 27.3438
353.488 507.246 273.438
353.488 514.493 378.906
353.488 521.739 332.031
353.488 528.986 404.297
353.488 536.232 406.25
353.488 543.478 386.719
353.488 550.725 470.703
353.488 557.971 416.016
353.488 565.217 636.719
353.488 572.464 472.656
353.488 579.71 472.656
353.488 586.957 304.688
353.488 594.203 373.047
353.488 601.449 373.047
353.488 608.696 373.047
353.488 615.942 466.797
353.488 623.188 300.781
353.488 630.435 298.828
353.488 637.681 625
353.488 644.928 623.047
353.488 652.174 619.141
353.488 659.42 453.125
353.488 666.667 451.172
353.488 673.913 449.219
353.488 681.159 447.266
353.488 688.406 447.266
353.488 695.652 445.313
353.488 702.899 445.313
353.488 710.145 441.406
353.488 717.391 441.406
358.14 36.2319 470.703
358.14 43.4783 636.719
358.14 50.7246 771.484
358.14 57.971 640.625
358.14 65.2174 640.625
358.14 72.4638 470.703
358.14 79.7101 253.906
358.14 86.9565 472.656
358.14 94.2029 333.984
358.14 101.449 302.734
358.14 108.696 343.75
358.14 115.942 54.6875
358.14 123.188 54.6875
358.14 130.435 48.8281
358.14 137.681 107.422
358.14 144.928 83.9844
358.14 152.174 66.4063
358.14 159.42 13.6719
358.14 166.667 78.125
358.14 173.913 19.5313
358.14 181.159 126.953
358.14 413.043 62.5
358.14 420.29 58.5938
358.14 427.536 56.6406
358.14 434.783 54.6875
358.14 442.029 13.6719
358.14 449.275 19.5313
358.14 456.522 31.25
358.14 463.768 97.6563
358.14 471.014 29.2969
358.14 478.261 17.5781
358.14 485.507 74.2188
358.14 492.754 93.75
358.14 500 101.563
358.14 507.246 181.641
358.14 514.493 333.984
358.14 521.739 335.938
358.14 528.986 332.031
358.14 536.232 308.594
358.14 543.478 333.984
358.14 550.725 414.063
358.14 557.971 398.438
358.14 565.217 595.703
358.14 572.464 373.047
358.14 579.71 373.047
358.14 586.957 373.047
358.14 594.203 470.703
358.14 601.449 710.938
358.14 608.696 710.938
358.14 615.942 708.984
358.14 623.188 628.906
358.14 630.435 625
358.14 637.681 623.047
358.14 644.928 453.125
358.14 652.174 453.125
358.14 659.42 451.172
358.14 666.667 451.172
358.14 673.913 449.219
358.14 681.159 447.266
358.14 688.406 447.266
358.14 695.652 445.313
358.14 702.899 445.313
358.14 710.145 441.406
358.14 717.391 437.5
358.14 724.638 429.688
362.791 36.2319 470.703
362.791 43.4783 636.719
362.791 50.7246 771.484
362.791 57.971 470.703
362.791 65.2174 470.703
362.791 72.4638 470.703
362.791 79.7101 302.734
362.791 86.9565 472.656
362.791 94.2029 269.531
362.791 101.449 326.172
362.791 108.696 166.016
362.791 115.942 41.0156
362.791 123.188 56.6406
362.791 130.435 37.1094
362.791 137.681 109.375
362.791 144.928 31.25
362.791 152.174 66.4063
362.791 159.42 13.6719
362.791 166.667 117.188
362.791 173.913 15.625
362.791 181.159 125
362.791 405.797 19.5313
362.791 413.043 52.7344
362.791 420.29 15.625
362.791 427.536 72.2656
362.791 434.783 66.4063
362.791 442.029 27.3438
362.791 449.275 27.3438
362.791 456.522 27.3438
362.791 463.768 107.422
362.791 471.014 29.2969
362.791 478.261 21.4844
362.791 485.507 128.906
362.791 492.754 113.281
362.791 500 78.125
362.791 507.246 181.641
362.791 514.493 333.984
362.791 521.739 363.281
362.791 528.986 306.641
362.791 536.232 361.328
362.791 543.478 427.734
362.791 550.725 423.828
362.791 557.971 345.703
362.791 565.217 595.703
362.791 572.464 373.047
362.791 579.71 373.047
362.791 586.957 371.094
362.791 594.203 460.938
362.791 601.449 462.891
362.791 608.696 623.047
362.791 615.942 457.031
362.791 623.188 457.031
362.791 630.435 455.078
362.791 637.681 455.078
362.791 644.928 453.125
362.791 652.174 451.172
362.791 659.42 451.172
362.791 666.667 449.219
362.791 673.913 449.219
362.791 681.159 447.266
362.791 688.406 447.266
362.791 695.652 445.313
362.791 702.899 443.359
362.791 710.145 441.406
362.791 717.391 437.5
362.791 724.638 431.641
362.791 731.884 429.688
367.442 36.2319 470.703
367.442 43.4783 638.672
367.442 50.7246 771.484
367.442 57.971 542.969
367.442 65.2174 470.703
367.442 72.4638 470.703
367.442 79.7101 472.656
367.442 86.9565 519.531
367.442 94.2029 371.094
367.442 101.449 355.469
367.442 108.696 99.6094
367.442 115.942 31.25
367.442 123.188 56.6406
367.442 130.435 37.1094
367.442 137.681 99.6094
367.442 144.928 23.4375
367.442 152.174 60.5469
367.442 159.42 11.7188
367.442 166.667 97.6563
367.442 173.913 19.5313
367.442 181.159 103.516
367.442 405.797 76.1719
367.442 413.043 66.4063
367.442 420.29 64.4531
367.442 427.536 83.9844
367.442 434.783 23.4375
367.442 442.029 27.3438
367.442 449.275 27.3438
367.442 456.522 33.2031
367.442 463.768 107.422
367.442 471.014 37.1094
367.442 478.261 64.4531
367.442 485.507 66.4063
367.442 492.754 113.281
367.442 500 85.9375
367.442 507.246 156.25
367.442 514.493 259.766
367.442 521.739 363.281
367.442 528.986 375
367.442 536.232 281.25
367.442 543.478 431.641
367.442 550.725 525.391
367.442 557.971 345.703
367.442 565.217 595.703
367.442 572.464 373.047
367.442 579.71 371.094
367.442 586.957 464.844
367.442 594.203 462.891
367.442 601.449 462.891
367.442 608.696 458.984
367.442 615.942 457.031
367.442 623.188 457.031
367.442 630.435 455.078
367.442 637.681 455.078
367.442 644.928 453.125
367.442 652.174 451.172
367.442 659.42 451.172
367.442 666.667 449.219
367.442 673.913 449.219
367.442 681.159 447.266
367.442 688.406 447.266
367.442 695.652 445.313
367.442 702.899 443.359
367.442 710.145 441.406
367.442 717.391 439.453
367.442 724.638 431.641
367.442 731.884 429.688
367.442 739.13 429.688
367.442 746.377 429.688
367.442 753.623 427.734
367.442 760.87 425.781
367.442 768.116 423.828
367.442 775.362 421.875
372.093 28.9855 470.703
372.093 36.2319 470.703
372.093 43.4783 722.656
372.093 50.7246 771.484
372.093 57.971 542.969
372.093 65.2174 343.75
372.093 72.4638 398.438
372.093 79.7101 416.016
372.093 86.9565 333.984
372.093 94.2029 302.734
372.093 101.449 355.469
372.093 108.696 91.7969
372.093 115.942 31.25
372.093 123.188 56.6406
372.093 130.435 99.6094
372.093 137.681 82.0313
372.093 144.928 19.5313
372.093 152.174 60.5469
372.093 159.42 9.76563
372.093 166.667 91.7969
372.093 173.913 13.6719
372.093 181.159 103.516
372.093 405.797 74.2188
372.093 413.043 21.4844
372.093 420.29 70.3125
372.093 427.536 29.2969
372.093 434.783 23.4375
372.093 442.029 27.3438
372.093 449.275 35.1563
372.093 456.522 33.2031
372.093 463.768 162.109
372.093 471.014 89.8438
372.093 478.261 107.422
372.093 485.507 121.094
372.093 492.754 113.281
372.093 500 85.9375
372.093 507.246 199.219
372.093 514.493 308.594
372.093 521.739 220.703
372.093 528.986 349.609
372.093 536.232 285.156
372.093 543.478 437.5
372.093 550.725 525.391
372.093 557.971 398.438
372.093 565.217 595.703
372.093 572.464 466.797
372.093 579.71 464.844
372.093 586.957 466.797
372.093 594.203 462.891
372.093 601.449 460.938
372.093 608.696 294.922
372.093 615.942 294.922
372.093 623.188 457.031
372.093 630.435 455.078
372.093 637.681 455.078
372.093 644.928 453.125
372.093 652.174 451.172
372.093 659.42 451.172
372.093 666.667 449.219
372.093 673.913 449.219
372.093 681.159 447.266
372.093 688.406 447.266
372.093 695.652 445.313
372.093 702.899 443.359
372.093 710.145 441.406
372.093 717.391 439.453
372.093 724.638 435.547
372.093 731.884 429.688
372.093 739.13 429.688
372.093 746.377 429.688
372.093 753.623 427.734
372.093 760.87 425.781
372.093 768.116 425.781
372.093 775.362 421.875
372.093 782.609 419.922
372.093 789.855 419.922
372.093 797.101 419.922
376.744 28.9855 470.703
376.744 36.2319 636.719
376.744 43.4783 769.531
376.744 50.7246 468.75
376.744 57.971 542.969
376.744 65.2174 300.781
376.744 72.4638 343.75
376.744 79.7101 416.016
376.744 86.9565 417.969
376.744 94.2029 271.484
376.744 101.449 328.125
376.744 108.696 37.1094
376.744 115.942 33.2031
376.744 123.188 56.6406
376.744 130.435 109.375
376.744 137.681 27.3438
376.744 144.928 17.5781
376.744 152.174 66.4063
376.744 159.42 11.7188
376.744 166.667 87.8906
376.744 173.913 15.625
376.744 181.159 97.6563
376.744 405.797 74.2188
376.744 413.043 74.2188
376.744 420.29 74.2188
376.744 427.536 25.3906
376.744 434.783 29.2969
376.744 442.029 23.4375
376.744 449.275 21.4844
376.744 456.522 83.9844
376.744 463.768 138.672
376.744 471.014 97.6563
376.744 478.261 66.4063
376.744 485.507 72.2656
376.744 492.754 121.094
376.744 500 136.719
376.744 507.246 279.297
376.744 514.493 283.203
376.744 521.739 220.703
376.744 528.986 285.156
376.744 536.232 306.641
376.744 543.478 515.625
376.744 550.725 634.766
376.744 557.971 537.109
376.744 565.217 802.734
376.744 572.464 634.766
376.744 579.71 464.844
376.744 586.957 464.844
376.744 594.203 462.891
376.744 601.449 628.906
376.744 608.696 296.875
376.744 615.942 292.969
376.744 623.188 457.031
376.744 630.435 455.078
376.744 637.681 455.078
376.744 644.928 451.172
376.744 652.174 451.172
376.744 659.42 449.219
376.744 666.667 449.219
376.744 673.913 449.219
376.744 681.159 447.266
376.744 688.406 447.266
376.744 695.652 445.313
376.744 702.899 443.359
376.744 710.145 441.406
376.744 717.391 439.453
376.744 724.638 435.547
376.744 731.884 431.641
376.744 739.13 429.688
376.744 746.377 429.688
376.744 753.623 429.688
376.744 760.87 427.734
376.744 768.116 425.781
376.744 775.362 423.828
376.744 782.609 421.875
376.744 789.855 419.922
376.744 797.101 419.922
376.744 804.348 419.922
381.395 28.9855 470.703
381.395 36.2319 636.719
381.395 43.4783 769.531
381.395 50.7246 300.781
381.395 57.971 542.969
381.395 65.2174 302.734
381.395 72.4638 302.734
381.395 79.7101 371.094
381.395 86.9565 427.734
381.395 94.2029 335.938
381.395 101.449 328.125
381.395 108.696 48.8281
381.395 115.942 31.25
381.395 123.188 66.4063
381.395 130.435 99.6094
381.395 137.681 27.3438
381.395 144.928 17.5781
381.395 152.174 66.4063
381.395 159.42 11.7188
381.395 166.667 97.6563
381.395 173.913 13.6719
381.395 181.159 91.7969
381.395 405.797 80.0781
381.395 413.043 87.8906
381.395 420.29 27.3438
381.395 427.536 29.2969
381.395 434.783 25.3906
381.395 442.029 33.2031
381.395 449.275 15.625
381.395 456.522 72.2656
381.395 463.768 140.625
381.395 471.014 89.8438
381.395 478.261 70.3125
381.395 485.507 66.4063
381.395 492.754 113.281
381.395 500 93.75
381.395 507.246 183.594
381.395 514.493 308.594
381.395 521.739 351.563
381.395 528.986 220.703
381.395 536.232 324.219
381.395 543.478 560.547
381.395 550.725 669.922
381.395 557.971 718.75
381.395 565.217 566.406
381.395 572.464 466.797
381.395 579.71 466.797
381.395 586.957 464.844
381.395 594.203 630.859
381.395 601.449 296.875
381.395 608.696 296.875
381.395 615.942 294.922
381.395 623.188 457.031
381.395 630.435 455.078
381.395 637.681 453.125
381.395 644.928 451.172
381.395 652.174 449.219
381.395 659.42 449.219
381.395 666.667 449.219
381.395 673.913 449.219
381.395 681.159 447.266
381.395 688.406 447.266
381.395 695.652 443.359
381.395 702.899 443.359
381.395 710.145 439.453
381.395 717.391 437.5
381.395 724.638 435.547
381.395 731.884 431.641
381.395 739.13 429.688
381.395 746.377 429.688
381.395 753.623 429.688
381.395 760.87 427.734
381.395 768.116 427.734
381.395 775.362 425.781
381.395 782.609 421.875
381.395 789.855 419.922
381.395 797.101 419.922
381.395 804.348 419.922
386.047 28.9855 470.703
386.047 36.2319 720.703
386.047 43.4783 769.531
386.047 50.7246 398.438
386.047 57.971 597.656
386.047 65.2174 302.734
386.047 72.4638 333.984
386.047 79.7101 373.047
386.047 86.9565 333.984
386.047 94.2029 335.938
386.047 101.449 255.859
386.047 108.696 42.9688
386.047 115.942 48.8281
386.047 123.188 46.875
386.047 130.435 99.6094
386.047 137.681 23.4375
386.047 144.928 70.3125
386.047 152.174 83.9844
386.047 159.42 66.4063
386.047 166.667 97.6563
386.047 173.913 11.7188
386.047 181.159 97.6563
386.047 398.551 27.3438
386.047 405.797 126.953
386.047 413.043 80.0781
386.047 420.29 25.3906
386.047 427.536 29.2969
386.047 434.783 23.4375
386.047 442.029 23.4375
386.047 449.275 17.5781
386.047 456.522 123.047
386.047 463.768 123.047
386.047 471.014 117.188
386.047 478.261 89.8438
386.047 485.507 113.281
386.047 492.754 121.094
386.047 500 58.5938
386.047 507.246 146.484
386.047 514.493 113.281
386.047 521.739 289.063
386.047 528.986 156.25
386.047 536.232 285.156
386.047 543.478 474.609
386.047 550.725 681.641
386.047 557.971 826.172
386.047 565.217 716.797
386.047 572.464 716.797
386.047 579.71 716.797
386.047 586.957 462.891
386.047 594.203 296.875
386.047 601.449 296.875
386.047 608.696 294.922
386.047 615.942 292.969
386.047 623.188 291.016
386.047 630.435 291.016
386.047 637.681 453.125
386.047 644.928 449.219
386.047 652.174 449.219
386.047 659.42 447.266
386.047 666.667 449.219
386.047 673.913 449.219
386.047 681.159 447.266
386.047 688.406 445.313
386.047 695.652 443.359
386.047 702.899 441.406
386.047 710.145 437.5
386.047 717.391 435.547
386.047 724.638 433.594
386.047 731.884 429.688
386.047 739.13 427.734
386.047 746.377 427.734
386.047 753.623 427.734
386.047 760.87 427.734
386.047 768.116 427.734
386.047 775.362 425.781
386.047 782.609 423.828
386.047 789.855 421.875
386.047 797.101 421.875
386.047 804.348 419.922
390.698 21.7391 470.703
390.698 28.9855 470.703
390.698 36.2319 718.75
390.698 43.4783 568.359
390.698 50.7246 470.703
390.698 57.971 414.063
390.698 65.2174 191.406
390.698 72.4638 333.984
390.698 79.7101 269.531
390.698 86.9565 304.688
390.698 94.2029 304.688
390.698 101.449 277.344
390.698 108.696 48.8281
390.698 115.942 42.9688
390.698 123.188 41.0156
390.698 130.435 132.813
390.698 137.681 23.4375
390.698 144.928 83.9844
390.698 152.174 15.625
390.698 159.42 109.375
390.698 166.667 103.516
390.698 173.913 85.9375
390.698 181.159 103.516
390.698 398.551 27.3438
390.698 405.797 80.0781
390.698 413.043 25.3906
390.698 420.29 21.4844
390.698 427.536 21.4844
390.698 434.783 25.3906
390.698 442.029 23.4375
390.698 449.275 23.4375
390.698 456.522 107.422
390.698 463.768 89.8438
390.698 471.014 117.188
390.698 478.261 89.8438
390.698 485.507 138.672
390.698 492.754 74.2188
390.698 500 64.4531
390.698 507.246 121.094
390.698 514.493 82.0313
390.698 521.739 236.328
390.698 528.986 234.375
390.698 536.232 330.078
390.698 543.478 435.547
390.698 550.725 597.656
390.698 557.971 798.828
390.698 565.217 712.891
390.698 572.464 462.891
390.698 579.71 460.938
390.698 586.957 460.938
390.698 594.203 628.906
390.698 601.449 626.953
390.698 608.696 294.922
390.698 615.942 291.016
390.698 623.188 292.969
390.698 630.435 291.016
390.698 637.681 619.141
390.698 644.928 615.234
390.698 652.174 447.266
390.698 659.42 447.266
390.698 666.667 449.219
390.698 673.913 449.219
390.698 681.159 447.266
390.698 688.406 445.313
390.698 695.652 443.359
390.698 702.899 439.453
390.698 710.145 437.5
390.698 717.391 435.547
390.698 724.638 431.641
390.698 731.884 429.688
390.698 739.13 427.734
390.698 746.377 427.734
390.698 753.623 427.734
390.698 760.87 427.734
390.698 768.116 427.734
390.698 775.362 425.781
390.698 782.609 423.828
390.698 789.855 421.875
390.698 797.101 421.875
390.698 804.348 421.875
395.349 21.7391 470.703
395.349 28.9855 470.703
395.349 36.2319 716.797
395.349 43.4783 568.359
395.349 50.7246 470.703
395.349 57.971 345.703
395.349 65.2174 302.734
395.349 72.4638 388.672
395.349 79.7101 269.531
395.349 86.9565 277.344
395.349 94.2029 328.125
395.349 101.449 255.859
395.349 108.696 48.8281
395.349 115.942 41.0156
395.349 123.188 37.1094
395.349 130.435 119.141
395.349 137.681 37.1094
395.349 144.928 109.375
395.349 152.174 19.5313
395.349 159.42 91.7969
395.349 166.667 11.7188
395.349 173.913 95.7031
395.349 398.551 29.2969
395.349 405.797 68.3594
395.349 413.043 25.3906
395.349 420.29 25.3906
395.349 427.536 25.3906
395.349 434.783 25.3906
395.349 442.029 25.3906
395.349 449.275 23.4375
395.349 456.522 115.234
395.349 463.768 117.188
395.349 471.014 130.859
395.349 478.261 97.6563
395.349 485.507 160.156
395.349 492.754 95.7031
395.349 500 136.719
395.349 507.246 138.672
395.349 514.493 82.0313
395.349 521.739 123.047
395.349 528.986 328.125
395.349 536.232 388.672
395.349 543.478 474.609
395.349 550.725 726.563
395.349 557.971 798.828
395.349 565.217 710.938
395.349 572.464 460.938
395.349 579.71 460.938
395.349 586.957 460.938
395.349 594.203 458.984
395.349 601.449 457.031
395.349 608.696 457.031
395.349 615.942 621.094
395.349 623.188 621.094
395.349 630.435 619.141
395.349 637.681 617.188
395.349 644.928 453.125
395.349 659.42 445.313
395.349 666.667 449.219
395.349 673.913 449.219
395.349 681.159 449.219
395.349 688.406 449.219
395.349 695.652 441.406
395.349 702.899 439.453
395.349 710.145 439.453
395.349 717.391 435.547
395.349 724.638 431.641
395.349 731.884 427.734
395.349 739.13 425.781
395.349 746.377 425.781
395.349 753.623 425.781
395.349 760.87 425.781
395.349 768.116 425.781
395.349 775.362 425.781
395.349 782.609 423.828
395.349 789.855 421.875
395.349 797.101 421.875
395.349 804.348 421.875
400 21.7391 470.703
400 28.9855 470.703
400 36.2319 632.813
400 43.4783 767.578
400 50.7246 470.703
400 57.971 216.797
400 65.2174 416.016
400 72.4638 335.938
400 79.7101 148.438
400 86.9565 236.328
400 94.2029 255.859
400 101.449 253.906
400 108.696 41.0156
400 115.942 25.3906
400 123.188 23.4375
400 130.435 76.1719
400 137.681 19.5313
400 144.928 99.6094
400 152.174 29.2969
400 159.42 109.375
400 166.667 11.7188
400 173.913 85.9375
400 398.551 25.3906
400 405.797 70.3125
400 413.043 21.4844
400 420.29 19.5313
400 427.536 29.2969
400 434.783 21.4844
400 442.029 23.4375
400 449.275 17.5781
400 456.522 197.266
400 463.768 117.188
400 471.014 119.141
400 478.261 107.422
400 485.507 175.781
400 492.754 115.234
400 500 160.156
400 507.246 105.469
400 514.493 126.953
400 521.739 113.281
400 528.986 373.047
400 536.232 427.734
400 543.478 416.016
400 550.725 595.703
400 557.971 679.688
400 565.217 710.938
400 572.464 460.938
400 579.71 460.938
400 586.957 458.984
400 594.203 457.031
400 601.449 457.031
400 608.696 457.031
400 615.942 457.031
400 623.188 457.031
400 630.435 455.078
400 637.681 455.078
400 644.928 453.125
400 652.174 453.125
400 739.13 421.875
400 746.377 423.828
400 753.623 425.781
400 760.87 425.781
400 768.116 425.781
400 775.362 425.781
400 782.609 423.828
400 789.855 421.875
400 797.101 421.875
400 804.348 421.875
404.651 21.7391 470.703
404.651 28.9855 470.703
404.651 36.2319 716.797
404.651 43.4783 802.734
404.651 50.7246 470.703
404.651 57.971 253.906
404.651 65.2174 369.141
404.651 72.4638 302.734
404.651 79.7101 121.094
404.651 86.9565 255.859
404.651 94.2029 302.734
404.651 101.449 253.906
404.651 108.696 31.25
404.651 115.942 27.3438
404.651 123.188 31.25
404.651 130.435 70.3125
404.651 137.681 37.1094
404.651 144.928 89.8438
404.651 152.174 27.3438
404.651 159.42 115.234
404.651 166.667 13.6719
404.651 173.913 80.0781
404.651 398.551 21.4844
404.651 405.797 70.3125
404.651 413.043 19.5313
404.651 420.29 19.5313
404.651 427.536 23.4375
404.651 434.783 19.5313
404.651 442.029 17.5781
404.651 449.275 66.4063
404.651 456.522 210.938
404.651 463.768 128.906
404.651 471.014 162.109
404.651 478.261 173.828
404.651 485.507 205.078
404.651 492.754 138.672
404.651 500 185.547
404.651 507.246 125
404.651 514.493 154.297
404.651 521.739 138.672
404.651 528.986 361.328
404.651 536.232 425.781
404.651 543.478 542.969
404.651 550.725 685.547
404.651 557.971 683.594
404.651 565.217 710.938
404.651 572.464 460.938
404.651 579.71 458.984
404.651 586.957 457.031
404.651 594.203 457.031
404.651 601.449 457.031
404.651 608.696 457.031
404.651 615.942 457.031
404.651 623.188 455.078
404.651 630.435 455.078
404.651 637.681 453.125
404.651 644.928 453.125
404.651 652.174 453.125
404.651 746.377 421.875
404.651 753.623 421.875
404.651 760.87 423.828
404.651 768.116 425.781
404.651 775.362 423.828
404.651 782.609 425.781
404.651 789.855 421.875
404.651 797.101 421.875
409.302 21.7391 470.703
409.302 28.9855 470.703
409.302 36.2319 716.797
409.302 43.4783 636.719
409.302 50.7246 343.75
409.302 57.971 253.906
409.302 65.2174 369.141
409.302 72.4638 269.531
409.302 79.7101 218.75
409.302 86.9565 279.297
409.302 94.2029 328.125
409.302 101.449 167.969
409.302 108.696 23.4375
409.302 115.942 27.3438
409.302 123.188 46.875
409.302 130.435 121.094
409.302 137.681 29.2969
409.302 144.928 70.3125
409.302 152.174 19.5313
409.302 159.42 123.047
409.302 166.667 7.8125
409.302 173.913 80.0781
409.302 398.551 21.4844
409.302 405.797 64.4531
409.302 413.043 19.5313
409.302 420.29 19.5313
409.302 427.536 23.4375
409.302 434.783 31.25
409.302 442.029 78.125
409.302 449.275 123.047
409.302 456.522 150.391
409.302 463.768 142.578
409.302 471.014 105.469
409.302 478.261 115.234
409.302 485.507 281.25
409.302 492.754 154.297
409.302 500 222.656
409.302 507.246 156.25
409.302 514.493 140.625
409.302 521.739 125
409.302 528.986 363.281
409.302 536.232 423.828
409.302 543.478 470.703
409.302 550.725 537.109
409.302 557.971 683.594
409.302 565.217 710.938
409.302 572.464 458.984
409.302 579.71 458.984
409.302 586.957 457.031
409.302 594.203 457.031
409.302 601.449 457.031
409.302 608.696 457.031
409.302 615.942 457.031
409.302 623.188 455.078
409.302 630.435 455.078
409.302 637.681 453.125
409.302 644.928 451.172
409.302 652.174 451.172
409.302 659.42 449.219
409.302 760.87 421.875
409.302 768.116 425.781
409.302 775.362 425.781
409.302 782.609 425.781
409.302 789.855 421.875
413.953 21.7391 470.703
413.953 28.9855 470.703
413.953 36.2319 716.797
413.953 43.4783 636.719
413.953 50.7246 343.75
413.953 57.971 253.906
413.953 65.2174 369.141
413.953 72.4638 269.531
413.953 79.7101 302.734
413.953 86.9565 355.469
413.953 94.2029 281.25
413.953 101.449 166.016
413.953 108.696 37.1094
413.953 115.942 27.3438
413.953 123.188 64.4531
413.953 130.435 148.438
413.953 137.681 33.2031
413.953 144.928 70.3125
413.953 152.174 13.6719
413.953 159.42 132.813
413.953 166.667 17.5781
413.953 173.913 89.8438
413.953 405.797 60.5469
413.953 413.043 64.4531
413.953 420.29 17.5781
413.953 427.536 23.4375
413.953 434.783 27.3438
413.953 442.029 72.2656
413.953 449.275 150.391
413.953 456.522 105.469
413.953 463.768 117.188
413.953 471.014 105.469
413.953 478.261 105.469
413.953 485.507 205.078
413.953 492.754 220.703
413.953 500 259.766
413.953 507.246 126.953
413.953 514.493 115.234
413.953 521.739 185.547
413.953 528.986 333.984
413.953 536.232 519.531
413.953 543.478 468.75
413.953 550.725 685.547
413.953 557.971 828.125
413.953 565.217 708.984
413.953 572.464 458.984
413.953 579.71 457.031
413.953 586.957 457.031
413.953 594.203 457.031
413.953 601.449 457.031
413.953 608.696 457.031
413.953 615.942 455.078
413.953 623.188 455.078
413.953 630.435 453.125
413.953 637.681 453.125
413.953 644.928 451.172
413.953 652.174 451.172
413.953 659.42 449.219
413.953 775.362 421.875
418.605 21.7391 468.75
418.605 28.9855 468.75
418.605 36.2319 714.844
418.605 43.4783 636.719
418.605 50.7246 343.75
418.605 57.971 253.906
418.605 65.2174 267.578
418.605 72.4638 333.984
418.605 79.7101 216.797
418.605 86.9565 326.172
418.605 94.2029 218.75
418.605 101.449 142.578
418.605 108.696 42.9688
418.605 115.942 37.1094
418.605 123.188 56.6406
418.605 130.435 166.016
418.605 137.681 58.5938
418.605 144.928 97.6563
418.605 152.174 13.6719
418.605 159.42 76.1719
418.605 166.667 11.7188
418.605 173.913 83.9844
418.605 405.797 15.625
418.605 413.043 93.75
418.605 420.29 19.5313
418.605 427.536 23.4375
418.605 434.783 31.25
418.605 442.029 78.125
418.605 449.275 140.625
418.605 456.522 105.469
418.605 463.768 130.859
418.605 471.014 105.469
418.605 478.261 97.6563
418.605 485.507 205.078
418.605 492.754 203.125
418.605 500 138.672
418.605 507.246 156.25
418.605 514.493 187.5
418.605 521.739 187.5
418.605 528.986 281.25
418.605 536.232 470.703
418.605 543.478 562.5
418.605 550.725 804.688
418.605 557.971 828.125
418.605 565.217 623.047
418.605 572.464 621.094
418.605 579.71 457.031
418.605 586.957 457.031
418.605 594.203 457.031
418.605 601.449 457.031
418.605 608.696 455.078
418.605 615.942 455.078
418.605 623.188 453.125
418.605 630.435 453.125
418.605 637.681 453.125
418.605 644.928 451.172
418.605 652.174 451.172
418.605 659.42 447.266
418.605 666.667 445.313
423.256 21.7391 466.797
423.256 28.9855 466.797
423.256 36.2319 714.844
423.256 43.4783 636.719
423.256 50.7246 343.75
423.256 57.971 302.734
423.256 65.2174 267.578
423.256 72.4638 332.031
423.256 79.7101 240.234
423.256 86.9565 353.516
423.256 94.2029 326.172
423.256 101.449 197.266
423.256 108.696 41.0156
423.256 115.942 37.1094
423.256 123.188 56.6406
423.256 130.435 166.016
423.256 137.681 56.6406
423.256 144.928 119.141
423.256 152.174 25.3906
423.256 159.42 60.5469
423.256 166.667 50.7813
423.256 173.913 85.9375
423.256 413.043 87.8906
423.256 420.29 15.625
423.256 427.536 23.4375
423.256 434.783 27.3438
423.256 442.029 83.9844
423.256 449.275 140.625
423.256 456.522 158.203
423.256 463.768 132.813
423.256 471.014 97.6563
423.256 478.261 128.906
423.256 485.507 207.031
423.256 492.754 224.609
423.256 500 205.078
423.256 507.246 175.781
423.256 514.493 115.234
423.256 521.739 187.5
423.256 528.986 439.453
423.256 536.232 470.703
423.256 543.478 763.672
423.256 550.725 828.125
423.256 557.971 828.125
423.256 565.217 621.094
423.256 572.464 621.094
423.256 579.71 457.031
423.256 586.957 457.031
423.256 594.203 457.031
423.256 601.449 455.078
423.256 608.696 455.078
423.256 615.942 453.125
423.256 623.188 453.125
423.256 630.435 453.125
423.256 637.681 453.125
423.256 644.928 451.172
423.256 652.174 449.219
423.256 659.42 447.266
423.256 666.667 445.313
427.907 21.7391 464.844
427.907 28.9855 466.797
427.907 36.2319 630.859
427.907 43.4783 794.922
427.907 50.7246 394.531
427.907 57.971 267.578
427.907 65.2174 189.453
427.907 72.4638 369.141
427.907 79.7101 267.578
427.907 86.9565 353.516
427.907 94.2029 384.766
427.907 101.449 189.453
427.907 108.696 56.6406
427.907 115.942 48.8281
427.907 123.188 56.6406
427.907 130.435 146.484
427.907 137.681 132.813
427.907 144.928 107.422
427.907 152.174 21.4844
427.907 159.42 60.5469
427.907 166.667 95.7031
427.907 173.913 44.9219
427.907 413.043 93.75
427.907 420.29 15.625
427.907 427.536 25.3906
427.907 434.783 83.9844
427.907 442.029 85.9375
427.907 449.275 140.625
427.907 456.522 158.203
427.907 463.768 158.203
427.907 471.014 119.141
427.907 478.261 119.141
427.907 485.507 191.406
427.907 492.754 158.203
427.907 500 250
427.907 507.246 140.625
427.907 514.493 115.234
427.907 521.739 187.5
427.907 528.986 394.531
427.907 536.232 568.359
427.907 543.478 798.828
427.907 550.725 804.688
427.907 557.971 802.734
427.907 565.217 621.094
427.907 572.464 619.141
427.907 579.71 457.031
427.907 586.957 457.031
427.907 594.203 455.078
427.907 601.449 455.078
427.907 608.696 453.125
427.907 615.942 453.125
427.907 623.188 453.125
427.907 630.435 453.125
427.907 637.681 453.125
427.907 644.928 451.172
427.907 652.174 449.219
427.907 659.42 447.266
427.907 666.667 445.313
427.907 673.913 441.406
432.558 21.7391 462.891
432.558 28.9855 464.844
432.558 36.2319 466.797
432.558 43.4783 816.406
432.558 50.7246 339.844
432.558 57.971 300.781
432.558 65.2174 251.953
432.558 72.4638 412.109
432.558 79.7101 300.781
432.558 86.9565 384.766
432.558 94.2029 423.828
432.558 101.449 189.453
432.558 108.696 78.125
432.558 115.942 48.8281
432.558 123.188 66.4063
432.558 130.435 132.813
432.558 137.681 148.438
432.558 144.928 41.0156
432.558 152.174 115.234
432.558 159.42 95.7031
432.558 166.667 89.8438
432.558 413.043 87.8906
432.558 420.29 19.5313
432.558 427.536 29.2969
432.558 434.783 83.9844
432.558 442.029 83.9844
432.558 449.275 150.391
432.558 456.522 158.203
432.558 463.768 140.625
432.558 471.014 115.234
432.558 478.261 121.094
432.558 485.507 208.984
432.558 492.754 158.203
432.558 500 226.563
432.558 507.246 128.906
432.558 514.493 115.234
432.558 521.739 171.875
432.558 528.986 361.328
432.558 536.232 533.203
432.558 543.478 765.625
432.558 550.725 802.734
432.558 557.971 802.734
432.558 565.217 619.141
432.558 572.464 617.188
432.558 579.71 455.078
432.558 586.957 455.078
432.558 594.203 455.078
432.558 601.449 453.125
432.558 608.696 453.125
432.558 615.942 453.125
432.558 623.188 453.125
432.558 630.435 453.125
432.558 637.681 453.125
432.558 644.928 451.172
432.558 652.174 449.219
432.558 659.42 445.313
432.558 666.667 443.359
432.558 673.913 441.406
432.558 681.159 439.453
437.209 21.7391 462.891
437.209 28.9855 464.844
437.209 36.2319 626.953
437.209 43.4783 757.813
437.209 50.7246 679.688
437.209 57.971 341.797
437.209 65.2174 187.5
437.209 72.4638 330.078
437.209 79.7101 330.078
437.209 86.9565 421.875
437.209 94.2029 324.219
437.209 101.449 148.438
437.209 108.696 66.4063
437.209 115.942 56.6406
437.209 123.188 130.859
437.209 130.435 132.813
437.209 137.681 130.859
437.209 144.928 56.6406
437.209 152.174 142.578
437.209 159.42 115.234
437.209 166.667 48.8281
437.209 413.043 87.8906
437.209 420.29 105.469
437.209 427.536 19.5313
437.209 434.783 91.7969
437.209 442.029 82.0313
437.209 449.275 150.391
437.209 456.522 128.906
437.209 463.768 158.203
437.209 471.014 128.906
437.209 478.261 117.188
437.209 485.507 193.359
437.209 492.754 207.031
437.209 500 208.984
437.209 507.246 117.188
437.209 514.493 187.5
437.209 521.739 171.875
437.209 528.986 332.031
437.209 536.232 476.563
437.209 543.478 800.781
437.209 550.725 804.688
437.209 557.971 769.531
437.209 565.217 617.188
437.209 572.464 617.188
437.209 579.71 453.125
437.209 586.957 453.125
437.209 594.203 453.125
437.209 601.449 453.125
437.209 608.696 453.125
437.209 615.942 453.125
437.209 623.188 453.125
437.209 630.435 453.125
437.209 637.681 451.172
437.209 644.928 451.172
437.209 652.174 449.219
437.209 659.42 445.313
437.209 666.667 443.359
437.209 673.913 439.453
437.209 681.159 437.5
437.209 688.406 435.547
441.86 21.7391 462.891
441.86 28.9855 464.844
441.86 36.2319 626.953
441.86 43.4783 757.813
441.86 50.7246 763.672
441.86 57.971 632.813
441.86 65.2174 251.953
441.86 72.4638 367.188
441.86 79.7101 298.828
441.86 86.9565 273.438
441.86 94.2029 351.563
441.86 101.449 132.813
441.86 108.696 66.4063
441.86 115.942 56.6406
441.86 123.188 107.422
441.86 130.435 132.813
441.86 137.681 146.484
441.86 144.928 109.375
441.86 152.174 283.203
441.86 159.42 132.813
441.86 413.043 7.8125
441.86 420.29 121.094
441.86 427.536 19.5313
441.86 434.783 72.2656
441.86 442.029 97.6563
441.86 449.275 140.625
441.86 456.522 117.188
441.86 463.768 142.578
441.86 471.014 128.906
441.86 478.261 128.906
441.86 485.507 177.734
441.86 492.754 207.031
441.86 500 142.578
441.86 507.246 117.188
441.86 514.493 160.156
441.86 521.739 115.234
441.86 528.986 359.375
441.86 536.232 533.203
441.86 543.478 679.688
441.86 550.725 748.047
441.86 557.971 773.438
441.86 565.217 447.266
441.86 572.464 445.313
441.86 579.71 453.125
441.86 586.957 453.125
441.86 594.203 453.125
441.86 601.449 453.125
441.86 608.696 453.125
441.86 615.942 453.125
441.86 623.188 453.125
441.86 630.435 453.125
441.86 637.681 451.172
441.86 644.928 449.219
441.86 652.174 447.266
441.86 659.42 443.359
441.86 666.667 443.359
441.86 673.913 439.453
441.86 681.159 437.5
441.86 688.406 435.547
441.86 695.652 435.547
446.512 21.7391 462.891
446.512 28.9855 464.844
446.512 36.2319 757.813
446.512 43.4783 757.813
446.512 50.7246 716.797
446.512 57.971 632.813
446.512 65.2174 466.797
446.512 72.4638 462.891
446.512 79.7101 382.813
446.512 86.9565 251.953
446.512 94.2029 277.344
446.512 101.449 48.8281
446.512 108.696 64.4531
446.512 115.942 107.422
446.512 123.188 132.813
446.512 130.435 166.016
446.512 137.681 54.6875
446.512 144.928 251.953
446.512 152.174 232.422
446.512 420.29 128.906
446.512 427.536 19.5313
446.512 434.783 83.9844
446.512 442.029 83.9844
446.512 449.275 123.047
446.512 456.522 89.8438
446.512 463.768 128.906
446.512 471.014 128.906
446.512 478.261 189.453
446.512 485.507 138.672
446.512 492.754 138.672
446.512 500 97.6563
446.512 507.246 82.0313
446.512 514.493 148.438
446.512 521.739 115.234
446.512 528.986 330.078
446.512 536.232 580.078
446.512 543.478 349.609
446.512 550.725 519.531
446.512 557.971 722.656
446.512 565.217 445.313
446.512 586.957 453.125
446.512 594.203 453.125
446.512 601.449 453.125
446.512 608.696 453.125
446.512 615.942 453.125
446.512 623.188 453.125
446.512 630.435 451.172
446.512 637.681 451.172
446.512 644.928 449.219
446.512 652.174 445.313
446.512 659.42 443.359
446.512 666.667 441.406
446.512 673.913 439.453
446.512 681.159 437.5
446.512 688.406 435.547
446.512 695.652 433.594
446.512 702.899 431.641
451.163 21.7391 464.844
451.163 28.9855 466.797
451.163 36.2319 757.813
451.163 43.4783 712.891
451.163 50.7246 568.359
451.163 57.971 632.813
451.163 65.2174 394.531
451.163 72.4638 462.891
451.163 79.7101 330.078
451.163 86.9565 195.313
451.163 94.2029 277.344
451.163 101.449 41.0156
451.163 108.696 64.4531
451.163 115.942 148.438
451.163 123.188 48.8281
451.163 130.435 164.063
451.163 137.681 56.6406
451.163 144.928 318.359
451.163 152.174 99.6094
451.163 420.29 113.281
451.163 427.536 121.094
451.163 434.783 19.5313
451.163 442.029 72.2656
451.163 449.275 150.391
451.163 456.522 91.7969
451.163 463.768 117.188
451.163 471.014 107.422
451.163 478.261 138.672
451.163 485.507 87.8906
451.163 492.754 138.672
451.163 500 89.8438
451.163 507.246 82.0313
451.163 514.493 148.438
451.163 521.739 103.516
451.163 528.986 304.688
451.163 536.232 578.125
451.163 543.478 474.609
451.163 550.725 632.813
451.163 557.971 777.344
451.163 601.449 453.125
451.163 608.696 451.172
451.163 615.942 449.219
451.163 623.188 449.219
451.163 630.435 449.219
451.163 637.681 447.266
451.163 644.928 445.313
451.163 652.174 443.359
451.163 659.42 441.406
451.163 666.667 439.453
451.163 673.913 439.453
451.163 681.159 437.5
451.163 688.406 435.547
451.163 695.652 433.594
451.163 702.899 431.641
451.163 710.145 429.688
455.814 14.4928 462.891
455.814 21.7391 464.844
455.814 28.9855 466.797
455.814 36.2319 792.969
455.814 43.4783 763.672
455.814 50.7246 568.359
455.814 57.971 632.813
455.814 65.2174 394.531
455.814 72.4638 464.844
455.814 79.7101 367.188
455.814 86.9565 238.281
455.814 94.2029 322.266
455.814 101.449 41.0156
455.814 108.696 54.6875
455.814 115.942 166.016
455.814 123.188 64.4531
455.814 130.435 166.016
455.814 137.681 298.828
455.814 144.928 322.266
455.814 420.29 15.625
455.814 427.536 123.047
455.814 434.783 21.4844
455.814 442.029 72.2656
455.814 449.275 130.859
455.814 456.522 83.9844
455.814 463.768 119.141
455.814 471.014 107.422
455.814 478.261 150.391
455.814 485.507 158.203
455.814 492.754 138.672
455.814 500 89.8438
455.814 507.246 74.2188
455.814 514.493 148.438
455.814 521.739 103.516
455.814 528.986 169.922
455.814 536.232 521.484
455.814 543.478 576.172
455.814 550.725 589.844
455.814 557.971 777.344
455.814 565.217 478.516
455.814 608.696 441.406
455.814 615.942 449.219
455.814 623.188 445.313
455.814 630.435 445.313
455.814 637.681 443.359
455.814 644.928 443.359
455.814 652.174 441.406
455.814 659.42 439.453
455.814 666.667 439.453
455.814 673.913 439.453
455.814 681.159 437.5
455.814 688.406 437.5
455.814 695.652 433.594
455.814 702.899 431.641
455.814 710.145 429.688
460.465 14.4928 462.891
460.465 21.7391 464.844
460.465 28.9855 757.813
460.465 36.2319 792.969
460.465 43.4783 566.406
460.465 50.7246 466.797
460.465 57.971 466.797
460.465 65.2174 394.531
460.465 72.4638 462.891
460.465 79.7101 265.625
460.465 86.9565 298.828
460.465 94.2029 277.344
460.465 101.449 31.25
460.465 108.696 105.469
460.465 115.942 130.859
460.465 123.188 130.859
460.465 130.435 164.063
460.465 137.681 339.844
460.465 144.928 97.6563
460.465 427.536 115.234
460.465 434.783 62.5
460.465 442.029 72.2656
460.465 449.275 132.813
460.465 456.522 91.7969
460.465 463.768 119.141
460.465 471.014 175.781
460.465 478.261 140.625
460.465 485.507 171.875
460.465 492.754 87.8906
460.465 500 82.0313
460.465 507.246 138.672
460.465 514.493 148.438
460.465 521.739 171.875
460.465 528.986 169.922
460.465 536.232 427.734
460.465 543.478 707.031
460.465 550.725 535.156
460.465 557.971 224.609
460.465 565.217 654.297
460.465 623.188 439.453
460.465 630.435 441.406
460.465 637.681 441.406
460.465 644.928 439.453
460.465 652.174 439.453
460.465 659.42 439.453
460.465 666.667 439.453
460.465 673.913 439.453
460.465 681.159 437.5
460.465 688.406 437.5
460.465 695.652 433.594
460.465 702.899 433.594
460.465 710.145 429.688
460.465 717.391 429.688
465.116 14.4928 462.891
465.116 21.7391 462.891
465.116 28.9855 757.813
465.116 36.2319 712.891
465.116 43.4783 466.797
465.116 50.7246 394.531
465.116 57.971 396.484
465.116 65.2174 410.156
465.116 72.4638 380.859
465.116 79.7101 148.438
465.116 86.9565 394.531
465.116 94.2029 277.344
465.116 101.449 35.1563
465.116 108.696 105.469
465.116 115.942 35.1563
465.116 123.188 87.8906
465.116 130.435 212.891
465.116 137.681 242.188
465.116 427.536 56.6406
465.116 434.783 148.438
465.116 442.029 29.2969
465.116 449.275 152.344
465.116 456.522 83.9844
465.116 463.768 119.141
465.116 471.014 177.734
465.116 478.261 117.188
465.116 485.507 173.828
465.116 492.754 82.0313
465.116 500 89.8438
465.116 507.246 146.484
465.116 514.493 115.234
465.116 521.739 171.875
465.116 528.986 185.547
465.116 536.232 419.922
465.116 543.478 613.281
465.116 550.725 472.656
465.116 557.971 216.797
465.116 565.217 742.188
465.116 637.681 433.594
465.116 644.928 437.5
465.116 652.174 437.5
465.116 659.42 437.5
465.116 666.667 439.453
465.116 673.913 439.453
465.116 681.159 437.5
465.116 688.406 437.5
465.116 695.652 433.594
465.116 702.899 433.594
465.116 710.145 431.641
465.116 717.391 429.688
469.767 7.24638 462.891
469.767 14.4928 462.891
469.767 21.7391 462.891
469.767 28.9855 757.813
469.767 36.2319 562.5
469.767 43.4783 537.109
469.767 50.7246 392.578
469.767 57.971 341.797
469.767 65.2174 367.188
469.767 72.4638 298.828
469.767 79.7101 216.797
469.767 86.9565 402.344
469.767 94.2029 164.063
469.767 101.449 95.7031
469.767 108.696 97.6563
469.767 115.942 31.25
469.767 123.188 82.0313
469.767 130.435 240.234
469.767 137.681 76.1719
469.767 434.783 109.375
469.767 442.029 23.4375
469.767 449.275 130.859
469.767 456.522 83.9844
469.767 463.768 89.8438
469.767 471.014 177.734
469.767 478.261 117.188
469.767 485.507 173.828
469.767 492.754 82.0313
469.767 500 87.8906
469.767 507.246 160.156
469.767 514.493 113.281
469.767 521.739 158.203
469.767 528.986 222.656
469.767 536.232 474.609
469.767 543.478 531.25
469.767 550.725 576.172
469.767 557.971 369.141
469.767 565.217 742.188
469.767 572.464 654.297
469.767 637.681 431.641
469.767 644.928 433.594
469.767 652.174 435.547
469.767 659.42 435.547
469.767 666.667 437.5
469.767 673.913 437.5
469.767 681.159 437.5
469.767 688.406 435.547
469.767 695.652 433.594
469.767 702.899 433.594
469.767 710.145 431.641
469.767 717.391 429.688
474.419 0 462.891
474.419 7.24638 462.891
474.419 14.4928 462.891
474.419 21.7391 462.891
474.419 28.9855 792.969
474.419 36.2319 630.859
474.419 43.4783 537.109
474.419 50.7246 250
474.419 57.971 341.797
474.419 65.2174 367.188
474.419 72.4638 300.781
474.419 79.7101 365.234
474.419 86.9565 339.844
474.419 94.2029 146.484
474.419 101.449 87.8906
474.419 108.696 35.1563
474.419 115.942 87.8906
474.419 123.188 130.859
474.419 130.435 214.844
474.419 137.681 33.2031
474.419 434.783 109.375
474.419 442.029 76.1719
474.419 449.275 128.906
474.419 456.522 76.1719
474.419 463.768 130.859
474.419 471.014 162.109
474.419 478.261 107.422
474.419 485.507 160.156
474.419 492.754 80.0781
474.419 500 138.672
474.419 507.246 171.875
474.419 514.493 169.922
474.419 521.739 169.922
474.419 528.986 185.547
474.419 536.232 402.344
474.419 543.478 251.953
474.419 550.725 468.75
474.419 557.971 369.141
474.419 572.464 656.25
474.419 644.928 431.641
474.419 652.174 431.641
474.419 659.42 433.594
474.419 666.667 435.547
474.419 673.913 435.547
474.419 681.159 435.547
474.419 688.406 435.547
474.419 695.652 433.594
474.419 702.899 433.594
474.419 710.145 431.641
474.419 717.391 429.688
479.07 0 462.891
479.07 7.24638 462.891
479.07 14.4928 462.891
479.07 21.7391 462.891
479.07 28.9855 792.969
479.07 36.2319 464.844
479.07 43.4783 464.844
479.07 50.7246 394.531
479.07 57.971 521.484
479.07 65.2174 466.797
479.07 72.4638 300.781
479.07 79.7101 394.531
479.07 86.9565 298.828
479.07 94.2029 44.9219
479.07 101.449 105.469
479.07 108.696 35.1563
479.07 115.942 87.8906
479.07 123.188 82.0313
479.07 130.435 187.5
479.07 434.783 76.1719
479.07 442.029 76.1719
