154.867 817.073 327.586
154.867 829.268 385.057
154.867 841.463 459.77
154.867 853.659 408.046
154.867 865.854 408.046
154.867 878.049 408.046
154.867 890.244 408.046
154.867 902.439 408.046
154.867 914.634 408.046
154.867 926.829 408.046
154.867 939.024 436.782
154.867 951.22 448.276
159.292 231.707 425.287
159.292 243.902 425.287
159.292 256.098 431.034
159.292 268.293 431.034
159.292 280.488 431.034
159.292 292.683 431.034
159.292 304.878 431.034
159.292 317.073 431.034
159.292 329.268 91.954
159.292 341.463 551.724
159.292 353.659 545.977
159.292 365.854 563.218
159.292 378.049 494.253
159.292 390.244 442.529
159.292 402.439 597.701
159.292 414.634 477.011
159.292 426.829 637.931
159.292 439.024 545.977
159.292 451.22 362.069
159.292 487.805 57.4713
159.292 500 494.253
159.292 512.195 252.874
159.292 524.39 166.667
159.292 536.585 109.195
159.292 548.78 166.667
159.292 560.976 494.253
159.292 573.171 166.667
159.292 585.366 160.92
159.292 597.561 488.506
159.292 609.756 172.414
159.292 682.927 413.793
159.292 695.122 413.793
159.292 707.317 350.575
159.292 719.512 229.885
159.292 731.707 293.103
159.292 743.902 471.264
159.292 756.098 454.023
159.292 768.293 333.333
159.292 780.488 488.506
159.292 792.683 454.023
159.292 804.878 448.276
159.292 817.073 333.333
159.292 829.268 339.08
159.292 841.463 436.782
159.292 853.659 408.046
159.292 865.854 408.046
159.292 878.049 408.046
159.292 890.244 408.046
159.292 902.439 408.046
159.292 914.634 413.793
159.292 926.829 413.793
159.292 939.024 419.54
159.292 951.22 551.724
163.717 231.707 425.287
163.717 243.902 431.034
163.717 256.098 431.034
163.717 268.293 431.034
163.717 280.488 431.034
163.717 292.683 431.034
163.717 304.878 431.034
163.717 317.073 431.034
163.717 329.268 551.724
163.717 341.463 511.494
163.717 353.659 494.253
163.717 365.854 500
163.717 378.049 488.506
163.717 390.244 367.816
163.717 402.439 482.759
163.717 414.634 316.092
163.717 426.829 609.195
163.717 439.024 494.253
163.717 451.22 258.621
163.717 500 160.92
163.717 512.195 241.379
163.717 524.39 103.448
163.717 536.585 431.034
163.717 548.78 166.667
163.717 560.976 494.253
163.717 573.171 160.92
163.717 585.366 97.7011
163.717 597.561 425.287
163.717 609.756 155.172
163.717 682.927 413.793
163.717 695.122 413.793
163.717 707.317 293.103
163.717 719.512 367.816
163.717 731.707 488.506
163.717 743.902 454.023
163.717 756.098 390.805
163.717 768.293 270.115
163.717 780.488 465.517
163.717 792.683 448.276
163.717 804.878 448.276
163.717 817.073 333.333
163.717 829.268 494.253
163.717 841.463 425.287
163.717 853.659 413.793
163.717 865.854 413.793
163.717 878.049 413.793
163.717 890.244 413.793
163.717 902.439 413.793
163.717 914.634 413.793
163.717 926.829 413.793
163.717 939.024 413.793
163.717 951.22 522.989
168.142 243.902 431.034
168.142 256.098 431.034
168.142 268.293 431.034
168.142 280.488 431.034
168.142 292.683 431.034
168.142 304.878 431.034
168.142 317.073 431.034
168.142 329.268 563.218
168.142 341.463 574.713
168.142 353.659 350.575
168.142 365.854 454.023
168.142 378.049 310.345
168.142 390.244 459.77
168.142 402.439 316.092
168.142 414.634 454.023
168.142 426.829 522.989
168.142 439.024 321.839
168.142 451.22 160.92
168.142 500 97.7011
168.142 512.195 201.149
168.142 524.39 114.943
168.142 536.585 367.816
168.142 548.78 166.667
168.142 560.976 494.253
168.142 573.171 166.667
168.142 585.366 488.506
168.142 597.561 362.069
168.142 609.756 160.92
168.142 682.927 413.793
168.142 695.122 350.575
168.142 707.317 229.885
168.142 719.512 344.828
168.142 731.707 488.506
168.142 743.902 454.023
168.142 756.098 333.333
168.142 768.293 488.506
168.142 780.488 454.023
168.142 792.683 448.276
168.142 804.878 448.276
168.142 817.073 327.586
168.142 829.268 494.253
168.142 841.463 413.793
168.142 853.659 413.793
168.142 865.854 413.793
168.142 878.049 413.793
168.142 890.244 413.793
168.142 902.439 413.793
168.142 914.634 413.793
168.142 926.829 413.793
168.142 939.024 413.793
168.142 951.22 425.287
172.566 256.098 431.034
172.566 268.293 431.034
172.566 280.488 431.034
172.566 292.683 431.034
172.566 304.878 431.034
172.566 317.073 557.471
172.566 329.268 597.701
172.566 341.463 534.483
172.566 353.659 522.989
172.566 365.854 459.77
172.566 378.049 160.92
172.566 390.244 367.816
172.566 402.439 534.483
172.566 414.634 500
172.566 426.829 471.264
172.566 439.024 206.897
172.566 500 74.7126
172.566 512.195 241.379
172.566 524.39 178.161
172.566 536.585 178.161
172.566 548.78 522.989
172.566 560.976 494.253
172.566 573.171 166.667
172.566 585.366 494.253
172.566 597.561 109.195
172.566 609.756 419.54
172.566 621.951 97.7011
172.566 682.927 413.793
172.566 695.122 293.103
172.566 707.317 477.011
172.566 719.512 333.333
172.566 731.707 494.253
172.566 743.902 454.023
172.566 756.098 333.333
172.566 768.293 488.506
172.566 780.488 448.276
172.566 792.683 448.276
172.566 804.878 448.276
172.566 817.073 327.586
172.566 829.268 500
172.566 841.463 413.793
172.566 853.659 413.793
172.566 865.854 413.793
172.566 878.049 413.793
172.566 890.244 413.793
172.566 902.439 413.793
172.566 914.634 413.793
172.566 926.829 413.793
172.566 939.024 413.793
172.566 951.22 413.793
172.566 963.415 413.793
176.991 268.293 431.034
176.991 280.488 431.034
176.991 292.683 431.034
176.991 304.878 431.034
176.991 317.073 580.46
176.991 329.268 586.207
176.991 341.463 500
176.991 353.659 517.241
176.991 365.854 500
176.991 378.049 310.345
176.991 390.244 356.322
176.991 402.439 534.483
176.991 414.634 459.77
176.991 426.829 425.287
176.991 500 57.4713
176.991 512.195 206.897
176.991 524.39 155.172
176.991 536.585 241.379
176.991 548.78 522.989
176.991 560.976 494.253
176.991 573.171 166.667
176.991 585.366 494.253
176.991 597.561 494.253
176.991 609.756 333.333
176.991 621.951 431.034
176.991 682.927 413.793
176.991 695.122 293.103
176.991 707.317 477.011
176.991 719.512 327.586
176.991 731.707 494.253
176.991 743.902 390.805
176.991 756.098 270.115
176.991 768.293 471.264
176.991 780.488 448.276
176.991 792.683 448.276
176.991 804.878 448.276
176.991 817.073 333.333
176.991 829.268 500
176.991 841.463 413.793
176.991 853.659 413.793
176.991 865.854 413.793
176.991 878.049 413.793
176.991 890.244 413.793
176.991 902.439 413.793
176.991 914.634 413.793
176.991 926.829 413.793
176.991 939.024 413.793
176.991 951.22 413.793
176.991 963.415 413.793
181.416 280.488 431.034
181.416 292.683 431.034
181.416 304.878 431.034
181.416 317.073 689.655
181.416 329.268 580.46
181.416 341.463 597.701
181.416 353.659 557.471
181.416 365.854 522.989
181.416 378.049 367.816
181.416 390.244 436.782
181.416 402.439 534.483
181.416 414.634 563.218
181.416 426.829 367.816
181.416 500 57.4713
181.416 512.195 183.908
181.416 524.39 396.552
181.416 536.585 304.598
181.416 548.78 522.989
181.416 560.976 494.253
181.416 573.171 166.667
181.416 585.366 494.253
181.416 597.561 494.253
181.416 609.756 511.494
181.416 621.951 379.31
181.416 682.927 413.793
181.416 695.122 293.103
181.416 707.317 477.011
181.416 719.512 333.333
181.416 731.707 494.253
181.416 743.902 333.333
181.416 756.098 494.253
181.416 768.293 459.77
181.416 780.488 448.276
181.416 792.683 448.276
181.416 804.878 448.276
181.416 817.073 333.333
181.416 829.268 522.989
181.416 841.463 413.793
181.416 853.659 419.54
181.416 865.854 419.54
181.416 878.049 419.54
181.416 890.244 413.793
181.416 902.439 413.793
181.416 914.634 413.793
181.416 926.829 413.793
181.416 939.024 413.793
181.416 951.22 413.793
185.841 280.488 431.034
185.841 292.683 431.034
185.841 304.878 431.034
185.841 317.073 672.414
185.841 329.268 586.207
185.841 341.463 597.701
185.841 353.659 597.701
185.841 365.854 517.241
185.841 378.049 425.287
185.841 390.244 465.517
185.841 402.439 534.483
185.841 414.634 586.207
185.841 426.829 333.333
185.841 463.415 28.7356
185.841 475.61 80.4598
185.841 487.805 63.2184
185.841 500 63.2184
185.841 512.195 183.908
185.841 524.39 534.483
185.841 536.585 494.253
185.841 548.78 500
185.841 560.976 425.287
185.841 573.171 166.667
185.841 585.366 494.253
185.841 597.561 494.253
185.841 609.756 517.241
185.841 621.951 287.356
185.841 682.927 419.54
185.841 695.122 293.103
185.841 707.317 482.759
185.841 719.512 333.333
185.841 731.707 500
185.841 743.902 333.333
185.841 756.098 494.253
185.841 768.293 448.276
185.841 780.488 448.276
185.841 792.683 448.276
185.841 804.878 390.805
185.841 817.073 275.862
185.841 829.268 362.069
185.841 841.463 419.54
185.841 853.659 419.54
185.841 865.854 419.54
185.841 878.049 419.54
185.841 890.244 419.54
185.841 902.439 419.54
185.841 914.634 419.54
185.841 926.829 419.54
185.841 939.024 413.793
185.841 951.22 413.793
185.841 963.415 160.92
190.265 292.683 431.034
190.265 304.878 431.034
190.265 317.073 655.172
190.265 329.268 591.954
190.265 341.463 436.782
190.265 353.659 597.701
190.265 365.854 517.241
190.265 378.049 454.023
190.265 390.244 465.517
190.265 402.439 557.471
190.265 414.634 609.195
190.265 426.829 321.839
190.265 463.415 28.7356
190.265 475.61 86.2069
190.265 487.805 68.9655
190.265 500 57.4713
190.265 512.195 183.908
190.265 524.39 551.724
190.265 536.585 494.253
190.265 548.78 172.414
190.265 560.976 362.069
190.265 573.171 166.667
190.265 585.366 494.253
190.265 597.561 500
190.265 609.756 287.356
190.265 621.951 252.874
190.265 682.927 362.069
190.265 695.122 241.379
190.265 707.317 408.046
190.265 719.512 270.115
190.265 731.707 482.759
190.265 743.902 339.08
190.265 756.098 494.253
190.265 768.293 448.276
190.265 780.488 448.276
190.265 792.683 448.276
190.265 804.878 333.333
190.265 817.073 482.759
190.265 829.268 390.805
190.265 841.463 494.253
190.265 853.659 419.54
190.265 865.854 419.54
190.265 878.049 419.54
190.265 890.244 419.54
190.265 902.439 419.54
190.265 914.634 419.54
190.265 926.829 419.54
190.265 939.024 419.54
190.265 951.22 413.793
190.265 963.415 160.92
194.69 292.683 431.034
194.69 304.878 431.034
194.69 317.073 672.414
194.69 329.268 643.678
194.69 341.463 436.782
194.69 353.659 597.701
194.69 365.854 517.241
194.69 378.049 454.023
194.69 390.244 367.816
194.69 402.439 574.713
194.69 414.634 620.69
194.69 426.829 385.057
194.69 487.805 132.184
194.69 500 166.667
194.69 512.195 229.885
194.69 524.39 241.379
194.69 536.585 505.747
194.69 548.78 235.632
194.69 560.976 166.667
194.69 573.171 166.667
194.69 585.366 494.253
194.69 597.561 522.989
194.69 609.756 321.839
194.69 621.951 241.379
194.69 670.732 419.54
194.69 682.927 298.851
194.69 695.122 482.759
194.69 707.317 333.333
194.69 719.512 500
194.69 731.707 465.517
194.69 743.902 339.08
194.69 756.098 500
194.69 768.293 454.023
194.69 780.488 454.023
194.69 792.683 454.023
194.69 804.878 333.333
194.69 817.073 482.759
194.69 829.268 442.529
194.69 841.463 327.586
194.69 853.659 419.54
194.69 865.854 425.287
194.69 878.049 431.034
194.69 890.244 431.034
194.69 902.439 431.034
194.69 914.634 431.034
194.69 926.829 425.287
194.69 939.024 419.54
194.69 951.22 413.793
194.69 963.415 166.667
194.69 975.61 442.529
199.115 304.878 436.782
199.115 317.073 689.655
199.115 329.268 666.667
199.115 341.463 488.506
199.115 353.659 436.782
199.115 365.854 517.241
199.115 378.049 454.023
199.115 390.244 425.287
199.115 402.439 580.46
199.115 414.634 609.195
199.115 426.829 408.046
199.115 487.805 34.4828
199.115 500 206.897
199.115 512.195 339.08
199.115 524.39 287.356
199.115 536.585 172.414
199.115 548.78 298.851
199.115 560.976 166.667
199.115 573.171 166.667
199.115 585.366 494.253
199.115 597.561 270.115
199.115 609.756 298.851
199.115 621.951 235.632
199.115 670.732 419.54
199.115 682.927 298.851
199.115 695.122 482.759
199.115 707.317 327.586
199.115 719.512 500
199.115 731.707 402.299
199.115 743.902 275.862
199.115 756.098 477.011
199.115 768.293 454.023
199.115 780.488 454.023
199.115 792.683 396.552
199.115 804.878 275.862
199.115 817.073 465.517
199.115 829.268 442.529
199.115 841.463 327.586
199.115 853.659 471.264
199.115 865.854 431.034
199.115 878.049 431.034
199.115 890.244 431.034
199.115 902.439 431.034
199.115 914.634 431.034
199.115 926.829 431.034
199.115 939.024 431.034
199.115 951.22 419.54
199.115 963.415 166.667
199.115 975.61 448.276
203.54 304.878 436.782
203.54 317.073 436.782
203.54 329.268 678.161
203.54 341.463 517.241
203.54 353.659 436.782
203.54 365.854 511.494
203.54 378.049 454.023
203.54 390.244 425.287
203.54 402.439 505.747
203.54 414.634 477.011
203.54 426.829 385.057
203.54 487.805 57.4713
203.54 500 235.632
203.54 512.195 241.379
203.54 524.39 195.402
203.54 536.585 235.632
203.54 548.78 500
203.54 560.976 172.414
203.54 573.171 166.667
203.54 585.366 494.253
203.54 597.561 258.621
203.54 609.756 494.253
203.54 634.146 379.31
203.54 646.341 390.805
203.54 658.537 275.862
203.54 670.732 396.552
203.54 682.927 241.379
203.54 695.122 413.793
203.54 707.317 270.115
203.54 719.512 482.759
203.54 731.707 339.08
203.54 743.902 500
203.54 756.098 465.517
203.54 768.293 459.77
203.54 780.488 454.023
203.54 792.683 339.08
203.54 804.878 488.506
203.54 817.073 454.023
203.54 829.268 448.276
203.54 841.463 333.333
203.54 853.659 477.011
203.54 865.854 436.782
203.54 878.049 436.782
203.54 890.244 436.782
203.54 902.439 436.782
203.54 914.634 436.782
203.54 926.829 436.782
203.54 939.024 436.782
203.54 951.22 425.287
203.54 963.415 166.667
203.54 975.61 448.276
207.965 317.073 436.782
207.965 329.268 672.414
207.965 341.463 609.195
207.965 353.659 436.782
207.965 365.854 367.816
207.965 378.049 482.759
207.965 390.244 425.287
207.965 402.439 425.287
207.965 414.634 563.218
207.965 426.829 494.253
207.965 487.805 132.184
207.965 500 304.598
207.965 512.195 178.161
207.965 524.39 172.414
207.965 536.585 304.598
207.965 548.78 505.747
207.965 560.976 235.632
207.965 573.171 166.667
207.965 585.366 396.552
207.965 597.561 402.299
207.965 609.756 574.713
207.965 621.951 385.057
207.965 634.146 390.805
207.965 646.341 390.805
207.965 658.537 275.862
207.965 670.732 344.828
207.965 682.927 436.782
207.965 695.122 281.609
207.965 707.317 482.759
207.965 719.512 408.046
207.965 731.707 275.862
207.965 743.902 482.759
207.965 756.098 459.77
207.965 768.293 459.77
207.965 780.488 459.77
207.965 792.683 339.08
207.965 804.878 494.253
207.965 817.073 448.276
207.965 829.268 390.805
207.965 841.463 270.115
207.965 853.659 459.77
207.965 865.854 436.782
207.965 878.049 436.782
207.965 890.244 436.782
207.965 902.439 436.782
207.965 914.634 436.782
207.965 926.829 436.782
207.965 939.024 436.782
207.965 951.22 436.782
207.965 963.415 160.92
207.965 975.61 448.276
207.965 987.805 448.276
212.389 317.073 436.782
212.389 329.268 712.644
212.389 341.463 660.92
212.389 353.659 488.506
212.389 365.854 436.782
212.389 378.049 304.598
212.389 390.244 419.54
212.389 402.439 425.287
212.389 414.634 568.966
212.389 426.829 557.471
212.389 475.61 34.4828
212.389 487.805 183.908
212.389 500 172.414
212.389 512.195 178.161
212.389 524.39 172.414
212.389 536.585 500
212.389 548.78 160.92
212.389 560.976 310.345
212.389 573.171 436.782
212.389 585.366 408.046
212.389 597.561 563.218
212.389 609.756 419.54
212.389 621.951 385.057
212.389 634.146 390.805
212.389 646.341 390.805
212.389 658.537 275.862
212.389 670.732 293.103
212.389 682.927 304.598
212.389 695.122 482.759
212.389 707.317 471.264
212.389 719.512 339.08
212.389 731.707 505.747
212.389 743.902 465.517
212.389 756.098 459.77
212.389 768.293 459.77
212.389 780.488 402.299
212.389 792.683 281.609
212.389 804.878 477.011
212.389 817.073 448.276
212.389 829.268 333.333
212.389 841.463 477.011
212.389 853.659 442.529
212.389 865.854 436.782
212.389 878.049 436.782
212.389 890.244 436.782
212.389 902.439 436.782
212.389 914.634 436.782
212.389 926.829 436.782
212.389 939.024 436.782
212.389 951.22 436.782
212.389 963.415 97.7011
212.389 975.61 390.805
212.389 987.805 448.276
216.814 329.268 436.782
216.814 341.463 563.218
216.814 353.659 454.023
216.814 365.854 436.782
216.814 378.049 367.816
216.814 390.244 235.632
216.814 414.634 425.287
216.814 426.829 574.713
216.814 439.024 63.2184
216.814 475.61 34.4828
216.814 487.805 224.138
216.814 500 114.943
216.814 512.195 183.908
216.814 524.39 166.667
216.814 536.585 500
216.814 548.78 166.667
216.814 560.976 413.793
216.814 573.171 396.552
216.814 585.366 413.793
216.814 597.561 580.46
216.814 609.756 574.713
216.814 621.951 390.805
216.814 634.146 390.805
216.814 646.341 390.805
216.814 658.537 275.862
216.814 670.732 385.057
216.814 682.927 500
216.814 695.122 471.264
216.814 707.317 402.299
216.814 719.512 275.862
216.814 731.707 482.759
216.814 743.902 465.517
216.814 756.098 465.517
216.814 768.293 459.77
216.814 780.488 339.08
216.814 792.683 494.253
216.814 804.878 459.77
216.814 817.073 448.276
216.814 829.268 333.333
216.814 841.463 482.759
216.814 853.659 436.782
216.814 865.854 436.782
216.814 878.049 385.057
216.814 890.244 327.586
216.814 902.439 270.115
216.814 914.634 270.115
216.814 926.829 270.115
216.814 939.024 270.115
216.814 951.22 327.586
216.814 963.415 385.057
216.814 975.61 333.333
221.239 341.463 609.195
221.239 353.659 528.736
221.239 365.854 436.782
221.239 378.049 436.782
221.239 390.244 304.598
221.239 414.634 293.103
221.239 426.829 557.471
221.239 439.024 367.816
221.239 475.61 74.7126
221.239 487.805 201.149
221.239 500 178.161
221.239 512.195 178.161
221.239 524.39 103.448
221.239 536.585 431.034
221.239 548.78 160.92
221.239 560.976 402.299
221.239 573.171 419.54
221.239 585.366 425.287
221.239 597.561 557.471
221.239 609.756 574.713
221.239 621.951 390.805
221.239 634.146 390.805
221.239 646.341 390.805
221.239 658.537 477.011
221.239 670.732 321.839
221.239 682.927 494.253
221.239 695.122 413.793
221.239 707.317 281.609
221.239 719.512 488.506
221.239 731.707 471.264
221.239 743.902 465.517
221.239 756.098 465.517
221.239 768.293 465.517
221.239 780.488 344.828
221.239 792.683 500
221.239 804.878 454.023
221.239 817.073 454.023
221.239 829.268 333.333
221.239 841.463 482.759
221.239 853.659 442.529
221.239 865.854 385.057
221.239 878.049 270.115
221.239 890.244 436.782
221.239 902.439 419.54
221.239 914.634 419.54
221.239 926.829 419.54
221.239 939.024 425.287
221.239 951.22 436.782
221.239 963.415 270.115
221.239 975.61 97.7011
225.664 329.268 293.103
225.664 341.463 436.782
225.664 353.659 528.736
225.664 365.854 436.782
225.664 378.049 436.782
225.664 390.244 304.598
225.664 402.439 178.161
225.664 414.634 436.782
225.664 426.829 482.759
225.664 439.024 304.598
225.664 475.61 74.7126
225.664 487.805 178.161
225.664 500 114.943
225.664 512.195 178.161
225.664 524.39 172.414
225.664 536.585 367.816
225.664 548.78 413.793
225.664 560.976 408.046
225.664 573.171 459.77
225.664 585.366 574.713
225.664 597.561 522.989
225.664 609.756 580.46
225.664 621.951 574.713
225.664 634.146 390.805
225.664 646.341 465.517
225.664 658.537 304.598
225.664 670.732 500
225.664 682.927 419.54
225.664 695.122 287.356
225.664 707.317 488.506
225.664 719.512 471.264
225.664 731.707 465.517
225.664 743.902 465.517
225.664 756.098 465.517
225.664 768.293 402.299
225.664 780.488 281.609
225.664 792.683 477.011
225.664 804.878 454.023
225.664 817.073 454.023
225.664 829.268 333.333
225.664 841.463 482.759
225.664 853.659 436.782
225.664 865.854 327.586
225.664 878.049 459.77
225.664 890.244 419.54
225.664 902.439 408.046
225.664 914.634 408.046
225.664 926.829 413.793
225.664 939.024 413.793
225.664 951.22 413.793
225.664 963.415 413.793
225.664 975.61 275.862
230.088 329.268 477.011
230.088 341.463 390.805
230.088 353.659 494.253
230.088 365.854 436.782
230.088 378.049 436.782
230.088 390.244 304.598
230.088 402.439 339.08
230.088 414.634 442.529
230.088 426.829 436.782
230.088 439.024 218.391
230.088 475.61 34.4828
230.088 487.805 114.943
230.088 500 114.943
230.088 512.195 367.816
230.088 524.39 103.448
230.088 536.585 97.7011
230.088 548.78 396.552
230.088 560.976 568.966
230.088 573.171 534.483
230.088 585.366 580.46
230.088 597.561 413.793
230.088 609.756 534.483
230.088 621.951 574.713
230.088 634.146 603.448
230.088 646.341 557.471
230.088 658.537 448.276
230.088 670.732 362.069
230.088 682.927 224.138
230.088 695.122 494.253
230.088 707.317 482.759
230.088 719.512 471.264
230.088 731.707 471.264
230.088 743.902 465.517
230.088 756.098 465.517
230.088 768.293 344.828
230.088 780.488 500
230.088 792.683 465.517
230.088 804.878 454.023
230.088 817.073 454.023
230.088 829.268 333.333
230.088 841.463 488.506
230.088 853.659 385.057
230.088 865.854 275.862
230.088 878.049 436.782
230.088 890.244 408.046
230.088 902.439 413.793
230.088 914.634 413.793
230.088 926.829 413.793
230.088 939.024 413.793
230.088 951.22 413.793
230.088 963.415 413.793
230.088 975.61 413.793
234.513 329.268 385.057
234.513 341.463 275.862
234.513 353.659 235.632
234.513 365.854 448.276
234.513 378.049 436.782
234.513 390.244 304.598
234.513 402.439 408.046
234.513 414.634 396.552
234.513 426.829 362.069
234.513 439.024 91.954
234.513 487.805 114.943
234.513 500 103.448
234.513 512.195 40.2299
234.513 524.39 390.805
234.513 536.585 350.575
234.513 548.78 436.782
234.513 560.976 488.506
234.513 573.171 465.517
234.513 585.366 540.23
234.513 597.561 574.713
234.513 609.756 528.736
234.513 621.951 632.184
234.513 634.146 568.966
234.513 646.341 339.08
234.513 658.537 247.126
234.513 670.732 500
234.513 682.927 482.759
234.513 695.122 482.759
234.513 707.317 477.011
234.513 719.512 471.264
234.513 731.707 471.264
234.513 743.902 471.264
234.513 756.098 408.046
234.513 768.293 281.609
234.513 780.488 477.011
234.513 792.683 454.023
234.513 804.878 454.023
234.513 817.073 396.552
234.513 829.268 281.609
234.513 841.463 477.011
234.513 853.659 327.586
234.513 865.854 459.77
234.513 878.049 425.287
234.513 890.244 413.793
234.513 902.439 413.793
234.513 914.634 413.793
234.513 926.829 413.793
234.513 939.024 413.793
234.513 951.22 413.793
234.513 963.415 413.793
234.513 975.61 413.793
234.513 987.805 160.92
238.938 317.073 408.046
238.938 329.268 350.575
238.938 341.463 270.115
238.938 353.659 143.678
238.938 365.854 436.782
238.938 378.049 436.782
238.938 390.244 471.264
238.938 402.439 396.552
238.938 414.634 362.069
238.938 426.829 270.115
238.938 500 109.195
238.938 512.195 235.632
238.938 524.39 293.103
238.938 536.585 241.379
238.938 548.78 270.115
238.938 560.976 356.322
238.938 573.171 356.322
238.938 585.366 396.552
238.938 597.561 431.034
238.938 609.756 316.092
238.938 621.951 626.437
238.938 634.146 649.425
238.938 646.341 643.678
238.938 658.537 488.506
238.938 670.732 488.506
238.938 682.927 482.759
238.938 695.122 477.011
238.938 707.317 477.011
238.938 719.512 477.011
238.938 731.707 471.264
238.938 743.902 413.793
238.938 756.098 287.356
238.938 768.293 482.759
238.938 780.488 465.517
238.938 792.683 459.77
238.938 804.878 459.77
238.938 817.073 339.08
238.938 829.268 488.506
238.938 841.463 482.759
238.938 853.659 333.333
238.938 865.854 465.517
238.938 878.049 413.793
238.938 890.244 413.793
238.938 902.439 413.793
238.938 914.634 413.793
238.938 926.829 413.793
238.938 939.024 413.793
238.938 951.22 413.793
238.938 963.415 413.793
238.938 975.61 419.54
238.938 987.805 166.667
243.363 304.878 379.31
243.363 317.073 293.103
243.363 329.268 310.345
243.363 341.463 224.138
243.363 365.854 534.483
243.363 378.049 545.977
243.363 390.244 367.816
243.363 402.439 333.333
243.363 414.634 270.115
243.363 426.829 109.195
243.363 439.024 0
243.363 451.22 0
243.363 512.195 235.632
243.363 524.39 350.575
243.363 536.585 258.621
243.363 548.78 333.333
243.363 560.976 316.092
243.363 573.171 413.793
243.363 585.366 396.552
243.363 597.561 436.782
243.363 609.756 373.563
243.363 621.951 396.552
243.363 634.146 471.264
243.363 646.341 586.207
243.363 658.537 413.793
243.363 670.732 413.793
243.363 682.927 287.356
243.363 695.122 287.356
243.363 707.317 287.356
243.363 719.512 287.356
243.363 731.707 281.609
243.363 743.902 224.138
243.363 756.098 488.506
243.363 768.293 471.264
243.363 780.488 465.517
243.363 792.683 459.77
243.363 804.878 402.299
243.363 817.073 281.609
243.363 829.268 482.759
243.363 841.463 448.276
243.363 853.659 333.333
243.363 865.854 465.517
243.363 878.049 413.793
243.363 890.244 413.793
243.363 902.439 413.793
243.363 914.634 413.793
243.363 926.829 413.793
243.363 939.024 413.793
243.363 951.22 413.793
243.363 963.415 413.793
243.363 975.61 419.54
243.363 987.805 172.414
247.788 292.683 293.103
247.788 304.878 316.092
247.788 317.073 293.103
247.788 329.268 471.264
247.788 341.463 413.793
247.788 353.659 367.816
247.788 365.854 454.023
247.788 378.049 385.057
247.788 390.244 321.839
247.788 402.439 287.356
247.788 414.634 109.195
247.788 426.829 0
247.788 439.024 0
247.788 451.22 0
247.788 463.415 0
247.788 524.39 264.368
247.788 536.585 321.839
247.788 548.78 333.333
247.788 560.976 333.333
247.788 573.171 333.333
247.788 585.366 362.069
247.788 597.561 390.805
247.788 609.756 431.034
247.788 621.951 431.034
247.788 634.146 528.736
247.788 646.341 568.966
247.788 658.537 488.506
247.788 670.732 557.471
247.788 682.927 614.943
247.788 695.122 540.23
247.788 707.317 591.954
247.788 719.512 637.931
247.788 731.707 557.471
247.788 743.902 649.425
247.788 756.098 482.759
247.788 768.293 471.264
247.788 780.488 465.517
247.788 792.683 402.299
247.788 804.878 281.609
247.788 817.073 477.011
247.788 829.268 494.253
247.788 841.463 448.276
247.788 853.659 339.08
247.788 865.854 465.517
247.788 878.049 413.793
247.788 890.244 413.793
247.788 902.439 413.793
247.788 914.634 413.793
247.788 926.829 413.793
247.788 939.024 413.793
247.788 951.22 413.793
247.788 963.415 413.793
247.788 975.61 419.54
247.788 987.805 172.414
252.212 280.488 367.816
252.212 292.683 488.506
252.212 304.878 356.322
252.212 317.073 350.575
252.212 329.268 431.034
252.212 341.463 367.816
252.212 353.659 287.356
252.212 365.854 367.816
252.212 378.049 316.092
252.212 390.244 172.414
252.212 402.439 103.448
252.212 414.634 5.74713
252.212 426.829 0
252.212 439.024 0
252.212 451.22 0
252.212 463.415 0
252.212 536.585 103.448
252.212 548.78 264.368
252.212 560.976 264.368
252.212 573.171 321.839
252.212 585.366 316.092
252.212 597.561 316.092
252.212 609.756 333.333
252.212 621.951 333.333
252.212 634.146 367.816
252.212 646.341 390.805
252.212 658.537 505.747
252.212 670.732 454.023
252.212 682.927 528.736
252.212 695.122 459.77
252.212 707.317 620.69
252.212 719.512 591.954
252.212 731.707 672.414
252.212 743.902 551.724
252.212 756.098 482.759
252.212 768.293 471.264
252.212 780.488 471.264
252.212 792.683 344.828
252.212 804.878 500
252.212 817.073 494.253
252.212 829.268 517.241
252.212 841.463 454.023
252.212 853.659 339.08
252.212 865.854 465.517
252.212 878.049 413.793
252.212 890.244 413.793
252.212 902.439 413.793
252.212 914.634 413.793
252.212 926.829 413.793
252.212 939.024 413.793
252.212 951.22 413.793
252.212 963.415 413.793
252.212 975.61 419.54
252.212 987.805 172.414
256.637 134.146 413.793
256.637 146.341 413.793
256.637 158.537 413.793
256.637 170.732 413.793
256.637 207.317 241.379
256.637 219.512 178.161
256.637 231.707 160.92
256.637 243.902 155.172
256.637 256.098 333.333
256.637 268.293 482.759
256.637 280.488 327.586
256.637 292.683 396.552
256.637 304.878 448.276
256.637 317.073 339.08
256.637 329.268 494.253
256.637 341.463 339.08
256.637 353.659 339.08
256.637 365.854 275.862
256.637 378.049 178.161
256.637 426.829 0
256.637 439.024 0
256.637 451.22 0
256.637 573.171 155.172
256.637 585.366 183.908
256.637 597.561 212.644
256.637 609.756 241.379
256.637 621.951 287.356
256.637 634.146 385.057
256.637 646.341 258.621
256.637 658.537 408.046
256.637 670.732 373.563
256.637 682.927 534.483
256.637 695.122 666.667
256.637 707.317 379.31
256.637 719.512 304.598
256.637 731.707 511.494
256.637 743.902 591.954
256.637 756.098 540.23
256.637 768.293 540.23
256.637 780.488 350.575
256.637 792.683 224.138
256.637 804.878 494.253
256.637 817.073 522.989
256.637 829.268 454.023
256.637 841.463 454.023
256.637 853.659 344.828
256.637 865.854 465.517
256.637 878.049 413.793
256.637 890.244 413.793
256.637 902.439 413.793
256.637 914.634 413.793
256.637 926.829 413.793
256.637 939.024 413.793
256.637 951.22 413.793
256.637 963.415 413.793
256.637 975.61 431.034
256.637 987.805 229.885
256.637 1000 448.276
261.062 121.951 413.793
261.062 134.146 413.793
261.062 146.341 413.793
261.062 158.537 413.793
261.062 170.732 413.793
261.062 182.927 413.793
261.062 195.122 471.264
261.062 207.317 436.782
261.062 219.512 436.782
261.062 231.707 229.885
261.062 243.902 425.287
261.062 256.098 425.287
261.062 268.293 482.759
261.062 280.488 362.069
261.062 292.683 511.494
261.062 304.878 534.483
261.062 317.073 459.77
261.062 329.268 373.563
261.062 341.463 258.621
261.062 353.659 189.655
261.062 365.854 114.943
261.062 634.146 103.448
261.062 646.341 103.448
261.062 658.537 258.621
261.062 670.732 304.598
261.062 682.927 298.851
261.062 695.122 517.241
261.062 707.317 643.678
261.062 719.512 626.437
261.062 731.707 563.218
261.062 743.902 637.931
261.062 756.098 247.126
261.062 768.293 247.126
261.062 780.488 482.759
261.062 792.683 465.517
261.062 804.878 482.759
261.062 817.073 626.437
261.062 829.268 459.77
261.062 841.463 454.023
261.062 853.659 344.828
261.062 865.854 465.517
261.062 878.049 413.793
261.062 890.244 419.54
261.062 902.439 419.54
261.062 914.634 419.54
261.062 926.829 413.793
261.062 939.024 413.793
261.062 951.22 413.793
261.062 963.415 419.54
261.062 975.61 172.414
261.062 987.805 287.356
261.062 1000 454.023
265.487 109.756 413.793
265.487 121.951 413.793
265.487 134.146 413.793
265.487 146.341 413.793
265.487 158.537 413.793
265.487 170.732 413.793
265.487 182.927 494.253
265.487 195.122 448.276
265.487 207.317 436.782
265.487 219.512 436.782
265.487 231.707 580.46
265.487 243.902 597.701
265.487 256.098 614.943
265.487 268.293 522.989
265.487 280.488 626.437
265.487 292.683 482.759
265.487 304.878 402.299
265.487 317.073 235.632
265.487 329.268 201.149
265.487 341.463 114.943
265.487 353.659 5.74713
265.487 365.854 5.74713
265.487 378.049 0
265.487 682.927 229.885
265.487 695.122 298.851
265.487 707.317 511.494
265.487 719.512 494.253
265.487 731.707 637.931
265.487 743.902 597.701
265.487 756.098 672.414
265.487 768.293 586.207
265.487 780.488 574.713
265.487 792.683 465.517
265.487 804.878 477.011
265.487 817.073 626.437
265.487 829.268 459.77
265.487 841.463 402.299
265.487 853.659 287.356
265.487 865.854 442.529
265.487 878.049 436.782
265.487 890.244 436.782
265.487 902.439 436.782
265.487 914.634 436.782
265.487 926.829 436.782
265.487 939.024 436.782
265.487 951.22 419.54
265.487 963.415 413.793
265.487 975.61 120.69
265.487 987.805 402.299
269.912 97.561 413.793
269.912 109.756 413.793
269.912 121.951 413.793
269.912 134.146 413.793
269.912 146.341 413.793
269.912 158.537 413.793
269.912 170.732 540.23
269.912 182.927 465.517
269.912 195.122 431.034
269.912 207.317 431.034
269.912 219.512 563.218
269.912 231.707 551.724
269.912 243.902 540.23
269.912 256.098 540.23
269.912 268.293 643.678
269.912 280.488 477.011
269.912 292.683 362.069
269.912 304.878 224.138
269.912 317.073 114.943
269.912 329.268 22.9885
269.912 341.463 11.4943
269.912 353.659 5.74713
269.912 365.854 5.74713
269.912 695.122 339.08
269.912 707.317 327.586
269.912 719.512 500
269.912 731.707 545.977
269.912 743.902 511.494
269.912 756.098 672.414
269.912 768.293 500
269.912 780.488 494.253
269.912 792.683 482.759
269.912 804.878 500
269.912 817.073 465.517
269.912 829.268 459.77
269.912 841.463 344.828
269.912 853.659 465.517
269.912 865.854 454.023
269.912 878.049 442.529
269.912 890.244 442.529
269.912 902.439 442.529
269.912 914.634 436.782
269.912 926.829 436.782
269.912 939.024 436.782
269.912 951.22 436.782
269.912 963.415 436.782
269.912 975.61 419.54
269.912 987.805 344.828
274.336 97.561 413.793
274.336 109.756 413.793
274.336 121.951 413.793
274.336 134.146 413.793
274.336 146.341 413.793
274.336 158.537 557.471
274.336 170.732 494.253
274.336 182.927 425.287
274.336 195.122 500
274.336 207.317 517.241
274.336 219.512 580.46
274.336 231.707 603.448
274.336 243.902 591.954
274.336 256.098 511.494
274.336 268.293 454.023
274.336 280.488 362.069
274.336 292.683 224.138
274.336 304.878 22.9885
274.336 317.073 11.4943
274.336 329.268 11.4943
274.336 341.463 11.4943
274.336 353.659 0
274.336 365.854 0
274.336 707.317 304.598
274.336 719.512 373.563
274.336 731.707 281.609
274.336 743.902 390.805
274.336 756.098 626.437
274.336 768.293 528.736
274.336 780.488 494.253
274.336 792.683 505.747
274.336 804.878 632.184
274.336 817.073 465.517
274.336 829.268 402.299
274.336 841.463 281.609
274.336 853.659 471.264
274.336 865.854 442.529
274.336 878.049 442.529
274.336 890.244 442.529
274.336 902.439 442.529
274.336 914.634 442.529
274.336 926.829 442.529
274.336 939.024 442.529
274.336 951.22 442.529
274.336 963.415 442.529
274.336 975.61 436.782
274.336 987.805 172.414
278.761 85.3659 413.793
278.761 97.561 413.793
278.761 109.756 413.793
278.761 121.951 419.54
278.761 134.146 419.54
278.761 146.341 517.241
278.761 158.537 517.241
278.761 170.732 442.529
278.761 182.927 413.793
278.761 195.122 459.77
278.761 207.317 586.207
278.761 219.512 591.954
278.761 231.707 597.701
278.761 243.902 505.747
278.761 256.098 500
278.761 268.293 408.046
278.761 280.488 229.885
278.761 292.683 22.9885
278.761 304.878 11.4943
278.761 317.073 11.4943
278.761 329.268 11.4943
278.761 341.463 5.74713
278.761 353.659 5.74713
278.761 365.854 0
278.761 719.512 304.598
278.761 731.707 310.345
278.761 743.902 465.517
278.761 756.098 281.609
278.761 768.293 413.793
278.761 780.488 413.793
278.761 792.683 465.517
278.761 804.878 425.287
278.761 817.073 344.828
278.761 829.268 224.138
278.761 841.463 471.264
278.761 853.659 454.023
278.761 865.854 448.276
278.761 878.049 442.529
278.761 890.244 442.529
278.761 902.439 442.529
278.761 914.634 442.529
278.761 926.829 442.529
278.761 939.024 442.529
278.761 951.22 442.529
278.761 963.415 442.529
278.761 975.61 442.529
278.761 987.805 103.448
283.186 85.3659 413.793
283.186 97.561 413.793
283.186 109.756 419.54
283.186 121.951 419.54
283.186 134.146 419.54
283.186 146.341 574.713
283.186 158.537 465.517
283.186 170.732 425.287
283.186 182.927 454.023
283.186 195.122 436.782
283.186 207.317 551.724
283.186 219.512 603.448
283.186 231.707 568.966
283.186 243.902 545.977
283.186 256.098 413.793
283.186 268.293 264.368
283.186 280.488 109.195
283.186 292.683 11.4943
283.186 304.878 11.4943
283.186 317.073 11.4943
283.186 329.268 5.74713
283.186 341.463 5.74713
283.186 353.659 5.74713
283.186 731.707 321.839
283.186 743.902 333.333
283.186 756.098 448.276
283.186 768.293 511.494
283.186 780.488 574.713
283.186 792.683 316.092
283.186 804.878 505.747
283.186 817.073 591.954
283.186 829.268 459.77
283.186 841.463 459.77
283.186 853.659 448.276
283.186 865.854 448.276
283.186 878.049 448.276
283.186 890.244 448.276
283.186 902.439 442.529
283.186 914.634 442.529
283.186 926.829 442.529
283.186 939.024 442.529
283.186 951.22 448.276
283.186 963.415 448.276
283.186 975.61 448.276
283.186 987.805 442.529
287.611 85.3659 413.793
287.611 97.561 413.793
287.611 109.756 419.54
287.611 121.951 419.54
287.611 134.146 557.471
287.611 146.341 517.241
287.611 158.537 436.782
287.611 170.732 431.034
287.611 182.927 425.287
287.611 195.122 551.724
287.611 207.317 614.943
287.611 219.512 712.644
287.611 231.707 511.494
287.611 243.902 522.989
287.611 256.098 425.287
287.611 268.293 155.172
287.611 280.488 11.4943
287.611 292.683 11.4943
287.611 304.878 11.4943
287.611 317.073 5.74713
287.611 329.268 5.74713
287.611 341.463 5.74713
287.611 353.659 0
287.611 731.707 68.9655
287.611 743.902 339.08
287.611 756.098 390.805
287.611 768.293 517.241
287.611 780.488 683.908
287.611 792.683 545.977
287.611 804.878 637.931
287.611 817.073 494.253
287.611 829.268 454.023
287.611 841.463 454.023
287.611 853.659 448.276
287.611 865.854 448.276
287.611 878.049 448.276
287.611 890.244 448.276
287.611 902.439 448.276
287.611 914.634 448.276
287.611 926.829 448.276
287.611 939.024 448.276
287.611 951.22 448.276
287.611 963.415 448.276
287.611 975.61 448.276
287.611 987.805 448.276
292.035 85.3659 413.793
292.035 97.561 413.793
292.035 109.756 419.54
292.035 121.951 419.54
292.035 134.146 574.713
292.035 146.341 465.517
292.035 158.537 419.54
292.035 170.732 448.276
292.035 182.927 413.793
292.035 195.122 551.724
292.035 207.317 574.713
292.035 219.512 718.391
292.035 231.707 465.517
292.035 243.902 500
292.035 256.098 408.046
292.035 268.293 11.4943
292.035 280.488 11.4943
292.035 292.683 11.4943
292.035 304.878 11.4943
292.035 317.073 5.74713
292.035 329.268 5.74713
292.035 341.463 0
292.035 353.659 0
292.035 731.707 68.9655
292.035 743.902 172.414
292.035 756.098 212.644
292.035 768.293 477.011
292.035 780.488 701.149
292.035 792.683 643.678
292.035 804.878 655.172
292.035 817.073 477.011
292.035 829.268 471.264
292.035 841.463 454.023
292.035 853.659 454.023
292.035 865.854 448.276
292.035 878.049 448.276
292.035 890.244 448.276
292.035 902.439 448.276
292.035 914.634 448.276
292.035 926.829 448.276
292.035 939.024 448.276
292.035 951.22 448.276
292.035 963.415 448.276
292.035 975.61 448.276
292.035 987.805 448.276
296.46 85.3659 413.793
296.46 97.561 413.793
296.46 109.756 419.54
296.46 121.951 591.954
296.46 134.146 528.736
296.46 146.341 431.034
296.46 158.537 477.011
296.46 170.732 431.034
296.46 182.927 413.793
296.46 195.122 655.172
296.46 207.317 517.241
296.46 219.512 706.897
296.46 231.707 465.517
296.46 243.902 500
296.46 256.098 408.046
296.46 268.293 11.4943
296.46 280.488 11.4943
296.46 292.683 11.4943
296.46 304.878 5.74713
296.46 317.073 5.74713
296.46 329.268 0
296.46 341.463 0
296.46 731.707 68.9655
296.46 743.902 178.161
296.46 756.098 270.115
296.46 768.293 402.299
296.46 780.488 729.885
296.46 792.683 643.678
296.46 804.878 655.172
296.46 817.073 643.678
296.46 829.268 545.977
296.46 841.463 459.77
296.46 853.659 454.023
296.46 865.854 454.023
296.46 878.049 448.276
296.46 890.244 448.276
296.46 902.439 448.276
296.46 914.634 448.276
296.46 926.829 448.276
296.46 939.024 448.276
296.46 951.22 448.276
296.46 963.415 448.276
296.46 975.61 448.276
296.46 987.805 448.276
300.885 85.3659 413.793
300.885 97.561 413.793
300.885 109.756 419.54
300.885 121.951 551.724
300.885 134.146 540.23
300.885 146.341 419.54
300.885 158.537 482.759
300.885 170.732 419.54
300.885 182.927 413.793
300.885 195.122 609.195
300.885 207.317 586.207
300.885 219.512 614.943
300.885 231.707 367.816
300.885 243.902 413.793
300.885 256.098 298.851
300.885 268.293 11.4943
300.885 280.488 11.4943
300.885 292.683 11.4943
300.885 304.878 5.74713
300.885 317.073 5.74713
300.885 329.268 0
300.885 341.463 0
300.885 731.707 57.4713
300.885 743.902 206.897
300.885 756.098 298.851
300.885 768.293 568.966
300.885 780.488 701.149
300.885 792.683 655.172
300.885 804.878 655.172
300.885 817.073 643.678
300.885 829.268 637.931
300.885 841.463 471.264
300.885 853.659 454.023
300.885 865.854 454.023
300.885 878.049 454.023
300.885 890.244 448.276
300.885 902.439 448.276
300.885 914.634 448.276
300.885 926.829 448.276
300.885 939.024 448.276
300.885 951.22 448.276
300.885 963.415 454.023
300.885 975.61 454.023
300.885 987.805 454.023
305.31 97.561 413.793
305.31 109.756 419.54
305.31 121.951 614.943
305.31 134.146 505.747
305.31 146.341 419.54
305.31 158.537 454.023
305.31 170.732 419.54
305.31 182.927 413.793
305.31 195.122 488.506
305.31 207.317 522.989
305.31 219.512 471.264
305.31 231.707 431.034
305.31 243.902 459.77
305.31 256.098 189.655
305.31 304.878 5.74713
305.31 317.073 5.74713
305.31 329.268 0
305.31 731.707 68.9655
305.31 743.902 258.621
305.31 756.098 442.529
305.31 768.293 465.517
305.31 780.488 459.77
305.31 792.683 494.253
305.31 804.878 655.172
305.31 817.073 649.425
305.31 829.268 637.931
305.31 841.463 488.506
305.31 853.659 459.77
305.31 865.854 454.023
305.31 878.049 454.023
305.31 890.244 454.023
305.31 902.439 448.276
305.31 914.634 448.276
305.31 926.829 448.276
305.31 939.024 454.023
305.31 951.22 454.023
305.31 963.415 454.023
305.31 975.61 454.023
305.31 987.805 454.023
305.31 1000 454.023
309.735 109.756 413.793
309.735 121.951 637.931
309.735 134.146 488.506
309.735 146.341 419.54
309.735 158.537 431.034
309.735 170.732 477.011
309.735 195.122 488.506
309.735 207.317 528.736
309.735 219.512 448.276
309.735 231.707 494.253
309.735 243.902 459.77
309.735 731.707 120.69
309.735 743.902 293.103
309.735 756.098 632.184
309.735 768.293 459.77
309.735 780.488 534.483
309.735 792.683 528.736
309.735 804.878 609.195
309.735 817.073 649.425
309.735 829.268 643.678
309.735 841.463 494.253
309.735 853.659 488.506
309.735 865.854 459.77
309.735 878.049 454.023
309.735 890.244 454.023
309.735 902.439 454.023
309.735 914.634 454.023
309.735 926.829 454.023
309.735 939.024 454.023
309.735 951.22 454.023
309.735 963.415 459.77
309.735 975.61 459.77
309.735 987.805 459.77
309.735 1000 454.023
314.159 121.951 528.736
314.159 134.146 477.011
314.159 146.341 448.276
314.159 170.732 178.161
314.159 195.122 448.276
314.159 207.317 505.747
314.159 219.512 436.782
314.159 231.707 442.529
314.159 243.902 454.023
314.159 719.512 17.2414
314.159 731.707 126.437
314.159 743.902 310.345
314.159 756.098 597.701
314.159 768.293 459.77
314.159 780.488 224.138
314.159 792.683 580.46
314.159 804.878 534.483
314.159 817.073 609.195
314.159 829.268 643.678
314.159 841.463 488.506
314.159 853.659 477.011
314.159 865.854 459.77
314.159 878.049 459.77
314.159 890.244 454.023
314.159 902.439 454.023
314.159 914.634 454.023
314.159 926.829 454.023
314.159 939.024 459.77
314.159 951.22 459.77
314.159 963.415 459.77
314.159 975.61 459.77
314.159 987.805 459.77
314.159 1000 459.77
318.584 121.951 557.471
318.584 134.146 264.368
318.584 146.341 109.195
318.584 170.732 114.943
318.584 195.122 505.747
318.584 207.317 448.276
318.584 219.512 413.793
318.584 231.707 505.747
318.584 243.902 425.287
318.584 719.512 103.448
318.584 731.707 183.908
318.584 743.902 454.023
318.584 756.098 459.77
318.584 768.293 465.517
318.584 780.488 304.598
318.584 792.683 471.264
318.584 804.878 614.943
318.584 817.073 534.483
318.584 829.268 609.195
318.584 841.463 511.494
318.584 853.659 643.678
318.584 865.854 465.517
318.584 878.049 459.77
318.584 890.244 459.77
318.584 902.439 459.77
318.584 914.634 459.77
318.584 926.829 459.77
318.584 939.024 459.77
318.584 951.22 459.77
318.584 963.415 465.517
318.584 975.61 465.517
318.584 987.805 465.517
323.009 121.951 482.759
323.009 134.146 172.414
323.009 182.927 385.057
323.009 195.122 471.264
323.009 207.317 522.989
323.009 219.512 465.517
323.009 231.707 500
323.009 243.902 413.793
323.009 707.317 22.9885
323.009 719.512 114.943
323.009 731.707 247.126
323.009 743.902 442.529
323.009 756.098 477.011
323.009 768.293 264.368
323.009 780.488 385.057
323.009 792.683 459.77
323.009 804.878 540.23
323.009 817.073 620.69
323.009 829.268 270.115
323.009 841.463 442.529
323.009 853.659 609.195
323.009 865.854 494.253
323.009 878.049 465.517
323.009 890.244 459.77
323.009 902.439 459.77
323.009 914.634 459.77
323.009 926.829 459.77
323.009 939.024 465.517
323.009 951.22 465.517
323.009 963.415 465.517
323.009 975.61 465.517
323.009 987.805 465.517
327.434 109.756 379.31
327.434 121.951 390.805
327.434 134.146 212.644
327.434 182.927 528.736
327.434 195.122 448.276
327.434 207.317 528.736
327.434 219.512 448.276
327.434 231.707 500
327.434 243.902 344.828
327.434 707.317 109.195
327.434 719.512 178.161
327.434 731.707 442.529
327.434 743.902 281.609
327.434 756.098 327.586
327.434 768.293 310.345
327.434 780.488 637.931
327.434 792.683 459.77
327.434 804.878 465.517
327.434 817.073 580.46
327.434 829.268 534.483
327.434 841.463 660.92
327.434 853.659 540.23
327.434 865.854 419.54
327.434 878.049 465.517
327.434 890.244 465.517
327.434 902.439 465.517
327.434 914.634 465.517
327.434 926.829 465.517
327.434 939.024 465.517
327.434 951.22 465.517
327.434 963.415 465.517
327.434 975.61 465.517
327.434 987.805 465.517
331.858 109.756 488.506
331.858 121.951 419.54
331.858 134.146 109.195
331.858 182.927 488.506
331.858 195.122 356.322
331.858 207.317 459.77
331.858 219.512 413.793
331.858 231.707 563.218
331.858 243.902 287.356
331.858 500 0
331.858 512.195 0
331.858 524.39 0
331.858 695.122 28.7356
331.858 707.317 114.943
331.858 719.512 258.621
331.858 731.707 247.126
331.858 743.902 367.816
331.858 756.098 477.011
331.858 768.293 465.517
331.858 780.488 454.023
331.858 792.683 459.77
331.858 804.878 459.77
331.858 817.073 293.103
331.858 829.268 505.747
331.858 841.463 660.92
331.858 853.659 655.172
331.858 865.854 511.494
331.858 878.049 339.08
331.858 890.244 402.299
331.858 902.439 465.517
331.858 914.634 465.517
331.858 926.829 465.517
331.858 939.024 465.517
331.858 951.22 465.517
331.858 963.415 465.517
331.858 975.61 465.517
336.283 109.756 494.253
336.283 121.951 385.057
336.283 182.927 557.471
336.283 195.122 396.552
336.283 207.317 551.724
336.283 219.512 327.586
336.283 231.707 517.241
336.283 243.902 172.414
336.283 487.805 5.74713
336.283 500 5.74713
336.283 512.195 5.74713
336.283 524.39 5.74713
336.283 536.585 0
336.283 695.122 114.943
336.283 707.317 195.402
336.283 719.512 218.391
336.283 731.707 327.586
336.283 743.902 540.23
336.283 756.098 482.759
336.283 768.293 465.517
336.283 780.488 454.023
336.283 792.683 465.517
336.283 804.878 218.391
336.283 817.073 333.333
336.283 829.268 580.46
336.283 841.463 660.92
336.283 853.659 655.172
336.283 865.854 655.172
336.283 878.049 494.253
336.283 890.244 229.885
336.283 902.439 298.851
336.283 914.634 298.851
336.283 926.829 356.322
336.283 939.024 408.046
336.283 951.22 465.517
336.283 963.415 465.517
340.708 109.756 528.736
340.708 121.951 362.069
340.708 182.927 557.471
340.708 195.122 488.506
340.708 207.317 494.253
340.708 219.512 448.276
340.708 231.707 494.253
340.708 243.902 103.448
340.708 463.415 11.4943
340.708 475.61 11.4943
340.708 487.805 5.74713
340.708 500 5.74713
340.708 512.195 5.74713
340.708 524.39 5.74713
340.708 536.585 5.74713
340.708 682.927 51.7241
340.708 695.122 137.931
340.708 707.317 195.402
340.708 719.512 270.115
340.708 731.707 477.011
340.708 743.902 655.172
340.708 756.098 482.759
340.708 768.293 465.517
340.708 780.488 454.023
340.708 792.683 149.425
340.708 804.878 275.862
340.708 817.073 482.759
340.708 829.268 488.506
340.708 841.463 660.92
340.708 853.659 655.172
340.708 865.854 655.172
340.708 878.049 655.172
340.708 890.244 419.54
340.708 902.439 436.782
340.708 914.634 436.782
340.708 926.829 459.77
340.708 939.024 241.379
340.708 951.22 298.851
340.708 963.415 350.575
345.133 109.756 528.736
345.133 121.951 344.828
345.133 182.927 557.471
345.133 195.122 488.506
345.133 207.317 494.253
345.133 219.512 448.276
345.133 231.707 454.023
345.133 451.22 11.4943
345.133 463.415 11.4943
345.133 475.61 11.4943
345.133 487.805 5.74713
345.133 500 5.74713
345.133 512.195 5.74713
345.133 524.39 5.74713
345.133 536.585 5.74713
345.133 548.78 0
345.133 682.927 68.9655
345.133 695.122 109.195
345.133 707.317 258.621
345.133 719.512 442.529
345.133 731.707 477.011
345.133 743.902 655.172
345.133 756.098 482.759
345.133 768.293 471.264
345.133 780.488 465.517
345.133 792.683 212.644
345.133 804.878 459.77
345.133 817.073 482.759
345.133 829.268 471.264
345.133 841.463 614.943
345.133 853.659 655.172
345.133 865.854 655.172
345.133 878.049 655.172
345.133 890.244 471.264
345.133 902.439 419.54
345.133 914.634 419.54
345.133 926.829 419.54
345.133 939.024 419.54
345.133 951.22 436.782
345.133 963.415 419.54
349.558 109.756 534.483
349.558 121.951 344.828
349.558 134.146 172.414
349.558 182.927 534.483
349.558 195.122 494.253
349.558 207.317 448.276
349.558 219.512 494.253
349.558 231.707 419.54
349.558 451.22 11.4943
349.558 463.415 11.4943
349.558 475.61 5.74713
349.558 487.805 5.74713
349.558 500 5.74713
349.558 512.195 5.74713
349.558 524.39 5.74713
349.558 536.585 0
349.558 682.927 74.7126
349.558 695.122 45.977
349.558 707.317 367.816
349.558 719.512 436.782
349.558 731.707 459.77
349.558 743.902 609.195
