552.764 123.377 618.785
552.764 129.87 447.514
552.764 136.364 447.514
552.764 142.857 453.039
552.764 149.351 480.663
552.764 155.844 618.785
552.764 162.338 618.785
552.764 168.831 618.785
552.764 175.325 403.315
552.764 181.818 624.309
552.764 188.312 546.961
552.764 194.805 574.586
552.764 201.299 535.912
552.764 207.792 679.558
552.764 214.286 602.21
552.764 220.779 414.365
552.764 227.273 508.287
552.764 233.766 381.215
552.764 240.26 441.989
552.764 246.753 154.696
552.764 389.61 16.5746
552.764 396.104 176.796
552.764 402.597 270.718
552.764 409.091 458.564
552.764 415.584 458.564
552.764 422.078 458.564
552.764 428.571 458.564
552.764 435.065 458.564
552.764 441.558 270.718
552.764 448.052 204.42
552.764 454.545 480.663
552.764 461.039 458.564
552.764 467.532 458.564
552.764 474.026 458.564
552.764 480.519 458.564
552.764 487.013 204.42
552.764 493.506 491.713
552.764 500 508.287
552.764 506.494 535.912
552.764 512.987 651.934
552.764 519.481 646.409
552.764 525.974 624.309
552.764 532.468 651.934
552.764 538.961 685.083
552.764 545.455 668.508
552.764 551.948 762.431
552.764 558.442 558.011
552.764 564.935 640.884
552.764 571.429 679.558
552.764 577.922 640.884
552.764 584.416 524.862
552.764 590.909 524.862
552.764 597.403 425.414
552.764 603.896 524.862
552.764 610.39 497.238
552.764 616.883 475.138
552.764 623.377 458.564
552.764 629.87 458.564
552.764 636.364 447.514
552.764 642.857 447.514
552.764 649.351 447.514
552.764 655.844 447.514
552.764 662.338 447.514
552.764 668.831 447.514
552.764 675.325 447.514
552.764 681.818 447.514
552.764 688.312 447.514
552.764 694.805 453.039
552.764 701.299 453.039
552.764 707.792 453.039
552.764 714.286 453.039
552.764 720.779 453.039
552.764 727.273 453.039
552.764 733.766 453.039
552.764 740.26 453.039
552.764 746.753 453.039
552.764 753.247 453.039
552.764 759.74 453.039
552.764 766.234 453.039
552.764 772.727 453.039
552.764 779.221 453.039
552.764 785.714 453.039
552.764 792.208 209.945
552.764 798.701 337.017
552.764 805.195 397.79
552.764 811.688 458.564
552.764 818.182 458.564
552.764 824.675 458.564
552.764 831.169 458.564
552.764 837.662 458.564
552.764 844.156 458.564
552.764 850.649 458.564
552.764 857.143 458.564
552.764 863.636 458.564
552.764 870.13 453.039
552.764 876.623 453.039
552.764 883.117 453.039
552.764 889.61 453.039
552.764 896.104 453.039
552.764 902.597 447.514
552.764 909.091 447.514
552.764 915.584 447.514
552.764 922.078 447.514
552.764 928.571 447.514
552.764 935.065 447.514
552.764 941.558 447.514
552.764 948.052 143.646
552.764 954.545 453.039
552.764 961.039 453.039
552.764 967.532 453.039
552.764 974.026 453.039
552.764 980.519 453.039
552.764 987.013 453.039
552.764 993.506 453.039
552.764 1000 453.039
557.789 110.39 447.514
557.789 116.883 447.514
557.789 123.377 447.514
557.789 129.87 447.514
557.789 136.364 458.564
557.789 142.857 204.42
557.789 149.351 265.193
557.789 155.844 453.039
557.789 162.338 453.039
557.789 168.831 447.514
557.789 175.325 138.122
557.789 181.818 447.514
557.789 188.312 546.961
557.789 194.805 580.11
557.789 201.299 574.586
557.789 207.792 646.409
557.789 214.286 580.11
557.789 220.779 453.039
557.789 227.273 386.74
557.789 233.766 441.989
557.789 240.26 320.442
557.789 246.753 453.039
557.789 253.247 55.2486
557.789 389.61 66.2983
557.789 396.104 209.945
557.789 402.597 458.564
557.789 409.091 458.564
557.789 415.584 458.564
557.789 422.078 458.564
557.789 428.571 464.088
557.789 435.065 464.088
557.789 441.558 464.088
557.789 448.052 458.564
557.789 454.545 458.564
557.789 461.039 204.42
557.789 467.532 480.663
557.789 474.026 469.613
557.789 480.519 458.564
557.789 487.013 458.564
557.789 493.506 480.663
557.789 500 386.74
557.789 506.494 508.287
557.789 512.987 668.508
557.789 519.481 563.536
557.789 525.974 613.26
557.789 532.468 662.983
557.789 538.961 651.934
557.789 545.455 679.558
557.789 551.948 651.934
557.789 558.442 679.558
557.789 564.935 607.735
557.789 571.429 646.409
557.789 577.922 640.884
557.789 584.416 640.884
557.789 590.909 640.884
557.789 597.403 464.088
557.789 603.896 596.685
557.789 610.39 640.884
557.789 616.883 640.884
557.789 623.377 524.862
557.789 629.87 524.862
557.789 636.364 497.238
557.789 642.857 475.138
557.789 649.351 458.564
557.789 655.844 458.564
557.789 662.338 458.564
557.789 668.831 458.564
557.789 675.325 458.564
557.789 681.818 447.514
557.789 688.312 447.514
557.789 694.805 447.514
557.789 701.299 453.039
557.789 707.792 453.039
557.789 714.286 453.039
557.789 720.779 453.039
557.789 727.273 453.039
557.789 733.766 447.514
557.789 740.26 447.514
557.789 746.753 447.514
557.789 753.247 453.039
557.789 759.74 453.039
557.789 766.234 453.039
557.789 772.727 453.039
557.789 779.221 453.039
557.789 785.714 453.039
557.789 792.208 453.039
557.789 798.701 475.138
557.789 805.195 270.718
557.789 811.688 397.79
557.789 818.182 458.564
557.789 824.675 458.564
557.789 831.169 458.564
557.789 837.662 458.564
557.789 844.156 458.564
557.789 850.649 458.564
557.789 857.143 453.039
557.789 863.636 453.039
557.789 870.13 453.039
557.789 876.623 453.039
557.789 883.117 453.039
557.789 889.61 447.514
557.789 896.104 447.514
557.789 902.597 447.514
557.789 909.091 447.514
557.789 915.584 447.514
557.789 922.078 447.514
557.789 928.571 447.514
557.789 935.065 447.514
557.789 941.558 447.514
557.789 948.052 143.646
557.789 954.545 453.039
557.789 961.039 453.039
557.789 967.532 453.039
557.789 974.026 453.039
557.789 980.519 453.039
557.789 987.013 453.039
557.789 993.506 453.039
557.789 1000 453.039
562.814 116.883 447.514
562.814 123.377 447.514
562.814 129.87 469.613
562.814 136.364 204.42
562.814 142.857 265.193
562.814 149.351 453.039
562.814 155.844 453.039
562.814 162.338 453.039
562.814 168.831 458.564
562.814 175.325 198.895
562.814 181.818 453.039
562.814 188.312 331.492
562.814 194.805 392.265
562.814 201.299 574.586
562.814 207.792 640.884
562.814 214.286 502.762
562.814 220.779 447.514
562.814 227.273 447.514
562.814 233.766 331.492
562.814 240.26 381.215
562.814 246.753 497.238
562.814 253.247 392.265
562.814 389.61 143.646
562.814 396.104 259.669
562.814 402.597 209.945
562.814 409.091 209.945
562.814 415.584 480.663
562.814 422.078 464.088
562.814 428.571 464.088
562.814 435.065 464.088
562.814 441.558 464.088
562.814 448.052 464.088
562.814 454.545 458.564
562.814 461.039 458.564
562.814 467.532 458.564
562.814 474.026 270.718
562.814 480.519 204.42
562.814 487.013 480.663
562.814 493.506 480.663
562.814 500 640.884
562.814 506.494 651.934
562.814 512.987 558.011
562.814 519.481 574.586
562.814 525.974 325.967
562.814 532.468 685.083
562.814 538.961 657.459
562.814 545.455 646.409
562.814 551.948 668.508
562.814 558.442 718.232
562.814 564.935 635.359
562.814 571.429 596.685
562.814 577.922 640.884
562.814 584.416 640.884
562.814 590.909 640.884
562.814 597.403 640.884
562.814 603.896 530.387
562.814 610.39 596.685
562.814 616.883 640.884
562.814 623.377 640.884
562.814 629.87 640.884
562.814 636.364 640.884
562.814 642.857 640.884
562.814 649.351 524.862
562.814 655.844 524.862
562.814 662.338 524.862
562.814 668.831 524.862
562.814 675.325 524.862
562.814 681.818 491.713
562.814 688.312 469.613
562.814 694.805 458.564
562.814 701.299 447.514
562.814 707.792 447.514
562.814 714.286 447.514
562.814 720.779 447.514
562.814 727.273 447.514
562.814 733.766 447.514
562.814 740.26 447.514
562.814 746.753 447.514
562.814 753.247 447.514
562.814 759.74 447.514
562.814 766.234 447.514
562.814 772.727 447.514
562.814 779.221 453.039
562.814 785.714 453.039
562.814 792.208 453.039
562.814 798.701 453.039
562.814 805.195 453.039
562.814 811.688 209.945
562.814 818.182 337.017
562.814 824.675 397.79
562.814 831.169 458.564
562.814 837.662 453.039
562.814 844.156 453.039
562.814 850.649 453.039
562.814 857.143 453.039
562.814 863.636 453.039
562.814 870.13 453.039
562.814 876.623 453.039
562.814 883.117 453.039
562.814 889.61 447.514
562.814 896.104 447.514
562.814 902.597 447.514
562.814 909.091 447.514
562.814 915.584 447.514
562.814 922.078 447.514
562.814 928.571 447.514
562.814 935.065 447.514
562.814 941.558 447.514
562.814 948.052 77.3481
562.814 954.545 392.265
562.814 961.039 453.039
562.814 967.532 453.039
562.814 974.026 453.039
562.814 980.519 392.265
562.814 987.013 325.967
562.814 993.506 325.967
562.814 1000 386.74
567.839 136.364 265.193
567.839 142.857 453.039
567.839 149.351 453.039
567.839 155.844 458.564
567.839 162.338 475.138
567.839 168.831 198.895
567.839 175.325 265.193
567.839 181.818 453.039
567.839 188.312 331.492
567.839 194.805 348.066
567.839 201.299 364.641
567.839 207.792 640.884
567.839 214.286 569.061
567.839 220.779 513.812
567.839 227.273 447.514
567.839 233.766 386.74
567.839 240.26 458.564
567.839 246.753 337.017
567.839 253.247 331.492
567.839 259.74 11.0497
567.839 383.117 66.2983
567.839 389.61 226.519
567.839 396.104 270.718
567.839 402.597 270.718
567.839 409.091 458.564
567.839 415.584 458.564
567.839 422.078 204.42
567.839 428.571 469.613
567.839 435.065 464.088
567.839 441.558 464.088
567.839 448.052 464.088
567.839 454.545 464.088
567.839 461.039 458.564
567.839 467.532 458.564
567.839 474.026 458.564
567.839 480.519 458.564
567.839 487.013 458.564
567.839 493.506 259.669
567.839 500 640.884
567.839 506.494 519.337
567.839 512.987 679.558
567.839 519.481 657.459
567.839 525.974 535.912
567.839 532.468 618.785
567.839 538.961 546.961
567.839 545.455 569.061
567.839 551.948 580.11
567.839 558.442 762.431
567.839 564.935 657.459
567.839 571.429 558.011
567.839 577.922 640.884
567.839 584.416 640.884
567.839 590.909 640.884
567.839 597.403 640.884
567.839 603.896 635.359
567.839 610.39 563.536
567.839 616.883 640.884
567.839 623.377 640.884
567.839 629.87 640.884
567.839 636.364 640.884
567.839 642.857 640.884
567.839 649.351 640.884
567.839 655.844 640.884
567.839 662.338 640.884
567.839 668.831 640.884
567.839 675.325 640.884
567.839 681.818 640.884
567.839 688.312 640.884
567.839 694.805 524.862
567.839 701.299 497.238
567.839 707.792 475.138
567.839 714.286 458.564
567.839 720.779 458.564
567.839 727.273 458.564
567.839 733.766 458.564
567.839 740.26 458.564
567.839 746.753 458.564
567.839 753.247 458.564
567.839 759.74 458.564
567.839 766.234 447.514
567.839 772.727 447.514
567.839 779.221 447.514
567.839 785.714 453.039
567.839 792.208 453.039
567.839 798.701 453.039
567.839 805.195 453.039
567.839 811.688 453.039
567.839 818.182 475.138
567.839 824.675 270.718
567.839 831.169 392.265
567.839 837.662 453.039
567.839 844.156 453.039
567.839 850.649 453.039
567.839 857.143 453.039
567.839 863.636 453.039
567.839 870.13 453.039
567.839 876.623 453.039
567.839 883.117 453.039
567.839 889.61 447.514
567.839 896.104 447.514
567.839 902.597 447.514
567.839 909.091 447.514
567.839 915.584 447.514
567.839 922.078 447.514
567.839 928.571 447.514
567.839 935.065 447.514
567.839 941.558 447.514
567.839 948.052 447.514
567.839 954.545 209.945
567.839 961.039 270.718
567.839 967.532 265.193
567.839 974.026 265.193
567.839 980.519 204.42
567.839 987.013 469.613
567.839 993.506 469.613
567.839 1000 265.193
572.864 162.338 259.669
572.864 168.831 259.669
572.864 175.325 447.514
572.864 181.818 453.039
572.864 188.312 331.492
572.864 194.805 530.387
572.864 201.299 342.541
572.864 207.792 464.088
572.864 214.286 574.586
572.864 220.779 325.967
572.864 227.273 447.514
572.864 233.766 386.74
572.864 240.26 265.193
572.864 246.753 436.464
572.864 253.247 436.464
572.864 259.74 220.994
572.864 376.623 77.3481
572.864 383.117 243.094
572.864 389.61 259.669
572.864 396.104 458.564
572.864 402.597 458.564
572.864 409.091 458.564
572.864 415.584 458.564
572.864 422.078 458.564
572.864 428.571 397.79
572.864 435.065 486.188
572.864 441.558 464.088
572.864 448.052 464.088
572.864 454.545 464.088
572.864 461.039 464.088
572.864 467.532 458.564
572.864 474.026 458.564
572.864 480.519 458.564
572.864 487.013 458.564
572.864 493.506 480.663
572.864 500 425.414
572.864 506.494 552.486
572.864 512.987 651.934
572.864 519.481 679.558
572.864 525.974 651.934
572.864 532.468 585.635
572.864 538.961 646.409
572.864 545.455 646.409
572.864 551.948 662.983
572.864 558.442 640.884
572.864 564.935 524.862
572.864 571.429 220.994
572.864 577.922 607.735
572.864 584.416 640.884
572.864 590.909 640.884
572.864 597.403 640.884
572.864 603.896 640.884
572.864 610.39 469.613
572.864 616.883 596.685
572.864 623.377 640.884
572.864 629.87 640.884
572.864 636.364 640.884
572.864 642.857 640.884
572.864 649.351 640.884
572.864 655.844 640.884
572.864 662.338 640.884
572.864 668.831 640.884
572.864 675.325 640.884
572.864 681.818 640.884
572.864 688.312 640.884
572.864 694.805 640.884
572.864 701.299 640.884
572.864 707.792 640.884
572.864 714.286 524.862
572.864 720.779 524.862
572.864 727.273 524.862
572.864 733.766 524.862
572.864 740.26 524.862
572.864 746.753 524.862
572.864 753.247 524.862
572.864 759.74 524.862
572.864 766.234 497.238
572.864 772.727 475.138
572.864 779.221 458.564
572.864 785.714 458.564
572.864 792.208 453.039
572.864 798.701 453.039
572.864 805.195 453.039
572.864 811.688 453.039
572.864 818.182 453.039
572.864 824.675 453.039
572.864 831.169 270.718
572.864 837.662 392.265
572.864 844.156 453.039
572.864 850.649 453.039
572.864 857.143 453.039
572.864 863.636 453.039
572.864 870.13 453.039
572.864 876.623 453.039
572.864 883.117 453.039
572.864 889.61 447.514
572.864 896.104 447.514
572.864 902.597 447.514
572.864 909.091 447.514
572.864 915.584 447.514
572.864 922.078 447.514
572.864 928.571 447.514
572.864 935.065 447.514
572.864 941.558 447.514
572.864 948.052 447.514
572.864 954.545 447.514
572.864 961.039 458.564
572.864 967.532 458.564
572.864 974.026 458.564
572.864 980.519 458.564
572.864 987.013 458.564
572.864 993.506 447.514
572.864 1000 447.514
577.889 181.818 447.514
577.889 188.312 331.492
577.889 194.805 530.387
577.889 201.299 325.967
577.889 207.792 546.961
577.889 214.286 580.11
577.889 220.779 325.967
577.889 227.273 497.238
577.889 233.766 325.967
577.889 240.26 475.138
577.889 246.753 414.365
577.889 253.247 392.265
577.889 259.74 138.122
577.889 363.636 27.6243
577.889 370.13 132.597
577.889 376.623 215.47
577.889 383.117 232.044
577.889 389.61 276.243
577.889 396.104 464.088
577.889 402.597 464.088
577.889 409.091 458.564
577.889 415.584 458.564
577.889 422.078 458.564
577.889 428.571 458.564
577.889 435.065 458.564
577.889 441.558 204.42
577.889 448.052 469.613
577.889 454.545 464.088
577.889 461.039 464.088
577.889 467.532 464.088
577.889 474.026 464.088
577.889 480.519 458.564
577.889 487.013 458.564
577.889 493.506 475.138
577.889 500 502.762
577.889 506.494 519.337
577.889 512.987 535.912
577.889 519.481 558.011
577.889 525.974 657.459
577.889 532.468 513.812
577.889 538.961 635.359
577.889 545.455 646.409
577.889 551.948 640.884
577.889 558.442 640.884
577.889 564.935 635.359
577.889 571.429 635.359
577.889 577.922 552.486
577.889 584.416 519.337
577.889 590.909 524.862
577.889 597.403 524.862
577.889 603.896 524.862
577.889 610.39 524.862
577.889 616.883 337.017
577.889 623.377 607.735
577.889 629.87 640.884
577.889 636.364 640.884
577.889 642.857 640.884
577.889 649.351 640.884
577.889 655.844 640.884
577.889 662.338 640.884
577.889 668.831 640.884
577.889 675.325 640.884
577.889 681.818 640.884
577.889 688.312 640.884
577.889 694.805 640.884
577.889 701.299 640.884
577.889 707.792 640.884
577.889 714.286 640.884
577.889 720.779 640.884
577.889 727.273 640.884
577.889 733.766 640.884
577.889 740.26 640.884
577.889 746.753 640.884
577.889 753.247 640.884
577.889 759.74 640.884
577.889 766.234 640.884
577.889 772.727 640.884
577.889 779.221 530.387
577.889 785.714 530.387
577.889 792.208 497.238
577.889 798.701 480.663
577.889 805.195 464.088
577.889 811.688 464.088
577.889 818.182 464.088
577.889 824.675 458.564
577.889 831.169 458.564
577.889 837.662 232.044
577.889 844.156 287.293
577.889 850.649 287.293
577.889 857.143 270.718
577.889 863.636 265.193
577.889 870.13 265.193
577.889 876.623 265.193
577.889 883.117 265.193
577.889 889.61 325.967
577.889 896.104 392.265
577.889 902.597 453.039
577.889 909.091 447.514
577.889 915.584 447.514
577.889 922.078 447.514
577.889 928.571 447.514
577.889 935.065 447.514
577.889 941.558 447.514
577.889 948.052 453.039
577.889 954.545 453.039
577.889 961.039 453.039
577.889 967.532 447.514
577.889 974.026 447.514
577.889 980.519 447.514
577.889 987.013 447.514
577.889 993.506 447.514
577.889 1000 447.514
582.915 194.805 530.387
582.915 201.299 325.967
582.915 207.792 541.436
582.915 214.286 596.685
582.915 220.779 325.967
582.915 227.273 491.713
582.915 233.766 386.74
582.915 240.26 436.464
582.915 246.753 392.265
582.915 253.247 397.79
582.915 259.74 77.3481
582.915 357.143 27.6243
582.915 363.636 160.221
582.915 370.13 314.917
582.915 376.623 353.591
582.915 383.117 232.044
582.915 389.61 464.088
582.915 396.104 464.088
582.915 402.597 464.088
582.915 409.091 464.088
582.915 415.584 464.088
582.915 422.078 458.564
582.915 428.571 458.564
582.915 435.065 458.564
582.915 441.558 458.564
582.915 448.052 397.79
582.915 454.545 486.188
582.915 461.039 464.088
582.915 467.532 464.088
582.915 474.026 464.088
582.915 480.519 464.088
582.915 487.013 458.564
582.915 493.506 480.663
582.915 500 486.188
582.915 506.494 546.961
582.915 512.987 662.983
582.915 519.481 662.983
582.915 525.974 646.409
582.915 532.468 270.718
582.915 538.961 602.21
582.915 545.455 635.359
582.915 551.948 635.359
582.915 558.442 640.884
582.915 564.935 635.359
582.915 571.429 635.359
582.915 577.922 475.138
582.915 584.416 635.359
582.915 590.909 635.359
582.915 597.403 635.359
582.915 603.896 635.359
582.915 610.39 640.884
582.915 616.883 635.359
582.915 623.377 558.011
582.915 629.87 519.337
582.915 636.364 519.337
582.915 642.857 491.713
582.915 649.351 646.409
582.915 655.844 640.884
582.915 662.338 640.884
582.915 668.831 640.884
582.915 675.325 640.884
582.915 681.818 640.884
582.915 688.312 640.884
582.915 694.805 640.884
582.915 701.299 640.884
582.915 707.792 640.884
582.915 714.286 640.884
582.915 720.779 640.884
582.915 727.273 640.884
582.915 733.766 640.884
582.915 740.26 640.884
582.915 746.753 640.884
582.915 753.247 640.884
582.915 759.74 640.884
582.915 766.234 640.884
582.915 772.727 640.884
582.915 779.221 640.884
582.915 785.714 640.884
582.915 792.208 646.409
582.915 798.701 646.409
582.915 805.195 530.387
582.915 811.688 530.387
582.915 818.182 530.387
582.915 824.675 530.387
582.915 831.169 530.387
582.915 837.662 530.387
582.915 844.156 530.387
582.915 850.649 530.387
582.915 857.143 502.762
582.915 863.636 480.663
582.915 870.13 464.088
582.915 876.623 464.088
582.915 883.117 464.088
582.915 889.61 475.138
582.915 896.104 198.895
582.915 902.597 265.193
582.915 909.091 325.967
582.915 915.584 386.74
582.915 922.078 453.039
582.915 928.571 453.039
582.915 935.065 453.039
582.915 941.558 453.039
582.915 948.052 453.039
582.915 954.545 453.039
582.915 961.039 453.039
582.915 967.532 453.039
582.915 974.026 447.514
582.915 980.519 447.514
582.915 987.013 447.514
582.915 993.506 447.514
582.915 1000 447.514
587.94 194.805 497.238
587.94 201.299 325.967
587.94 207.792 580.11
587.94 214.286 596.685
587.94 220.779 325.967
587.94 227.273 491.713
587.94 233.766 359.116
587.94 240.26 430.939
587.94 246.753 337.017
587.94 253.247 348.066
587.94 357.143 27.6243
587.94 363.636 160.221
587.94 370.13 486.188
587.94 376.623 480.663
587.94 383.117 425.414
587.94 389.61 469.613
587.94 396.104 464.088
587.94 402.597 464.088
587.94 409.091 464.088
587.94 415.584 464.088
587.94 422.078 458.564
587.94 428.571 458.564
587.94 435.065 458.564
587.94 441.558 458.564
587.94 448.052 458.564
587.94 454.545 458.564
587.94 461.039 204.42
587.94 467.532 469.613
587.94 474.026 464.088
587.94 480.519 464.088
587.94 487.013 464.088
587.94 493.506 469.613
587.94 500 491.713
587.94 506.494 497.238
587.94 512.987 651.934
587.94 519.481 679.558
587.94 525.974 640.884
587.94 532.468 640.884
587.94 538.961 558.011
587.94 545.455 513.812
587.94 551.948 646.409
587.94 558.442 635.359
587.94 564.935 635.359
587.94 571.429 635.359
587.94 577.922 497.238
587.94 584.416 635.359
587.94 590.909 635.359
587.94 597.403 635.359
587.94 603.896 640.884
587.94 610.39 640.884
587.94 616.883 640.884
587.94 623.377 464.088
587.94 629.87 596.685
587.94 636.364 635.359
587.94 642.857 635.359
587.94 649.351 635.359
587.94 655.844 524.862
587.94 662.338 497.238
587.94 668.831 651.934
587.94 675.325 640.884
587.94 681.818 640.884
587.94 688.312 640.884
587.94 694.805 640.884
587.94 701.299 640.884
587.94 707.792 640.884
587.94 714.286 640.884
587.94 720.779 640.884
587.94 727.273 640.884
587.94 733.766 640.884
587.94 740.26 640.884
587.94 746.753 640.884
587.94 753.247 640.884
587.94 759.74 640.884
587.94 766.234 640.884
587.94 772.727 640.884
587.94 779.221 640.884
587.94 785.714 646.409
587.94 792.208 646.409
587.94 798.701 646.409
587.94 805.195 646.409
587.94 811.688 640.884
587.94 818.182 640.884
587.94 824.675 640.884
587.94 831.169 640.884
587.94 837.662 640.884
587.94 844.156 640.884
587.94 850.649 640.884
587.94 857.143 640.884
587.94 863.636 640.884
587.94 870.13 530.387
587.94 876.623 530.387
587.94 883.117 530.387
587.94 889.61 502.762
587.94 896.104 480.663
587.94 902.597 469.613
587.94 909.091 475.138
587.94 915.584 265.193
587.94 922.078 386.74
587.94 928.571 453.039
587.94 935.065 453.039
587.94 941.558 453.039
587.94 948.052 453.039
587.94 954.545 453.039
587.94 961.039 453.039
587.94 967.532 453.039
587.94 974.026 447.514
587.94 980.519 447.514
587.94 987.013 447.514
587.94 993.506 447.514
587.94 1000 447.514
592.965 194.805 497.238
592.965 201.299 325.967
592.965 207.792 524.862
592.965 214.286 569.061
592.965 220.779 265.193
592.965 227.273 469.613
592.965 233.766 337.017
592.965 240.26 392.265
592.965 246.753 364.641
592.965 253.247 237.569
592.965 357.143 88.3978
592.965 363.636 237.569
592.965 370.13 502.762
592.965 376.623 486.188
592.965 383.117 486.188
592.965 389.61 397.79
592.965 396.104 469.613
592.965 402.597 464.088
592.965 409.091 464.088
592.965 415.584 464.088
592.965 422.078 458.564
592.965 428.571 458.564
592.965 435.065 458.564
592.965 441.558 458.564
592.965 448.052 458.564
592.965 454.545 458.564
592.965 461.039 458.564
592.965 467.532 397.79
592.965 474.026 486.188
592.965 480.519 464.088
592.965 487.013 464.088
592.965 493.506 464.088
592.965 500 497.238
592.965 506.494 502.762
592.965 512.987 651.934
592.965 519.481 767.956
592.965 525.974 640.884
592.965 532.468 646.409
592.965 538.961 491.713
592.965 545.455 646.409
592.965 551.948 640.884
592.965 558.442 497.238
592.965 564.935 640.884
592.965 571.429 480.663
592.965 577.922 519.337
592.965 584.416 635.359
592.965 590.909 635.359
592.965 597.403 635.359
592.965 603.896 635.359
592.965 610.39 640.884
592.965 616.883 640.884
592.965 623.377 640.884
592.965 629.87 524.862
592.965 636.364 596.685
592.965 642.857 635.359
592.965 649.351 635.359
592.965 655.844 635.359
592.965 662.338 640.884
592.965 668.831 640.884
592.965 675.325 497.238
592.965 681.818 651.934
592.965 688.312 640.884
592.965 694.805 646.409
592.965 701.299 640.884
592.965 707.792 646.409
592.965 714.286 646.409
592.965 720.779 646.409
592.965 727.273 646.409
592.965 733.766 646.409
592.965 740.26 646.409
592.965 746.753 646.409
592.965 753.247 646.409
592.965 759.74 646.409
592.965 766.234 646.409
592.965 772.727 646.409
592.965 779.221 646.409
592.965 785.714 646.409
592.965 792.208 646.409
592.965 798.701 640.884
592.965 805.195 640.884
592.965 811.688 640.884
592.965 818.182 640.884
592.965 824.675 640.884
592.965 831.169 640.884
592.965 837.662 640.884
592.965 844.156 640.884
592.965 850.649 640.884
592.965 857.143 640.884
592.965 863.636 640.884
592.965 870.13 640.884
592.965 876.623 640.884
592.965 883.117 640.884
592.965 889.61 640.884
592.965 896.104 640.884
592.965 902.597 530.387
592.965 909.091 497.238
592.965 915.584 475.138
592.965 922.078 342.541
592.965 928.571 464.088
592.965 935.065 458.564
592.965 941.558 458.564
592.965 948.052 453.039
592.965 954.545 453.039
592.965 961.039 453.039
592.965 967.532 447.514
592.965 974.026 447.514
592.965 980.519 447.514
592.965 987.013 447.514
592.965 993.506 447.514
592.965 1000 447.514
597.99 194.805 497.238
597.99 201.299 325.967
597.99 207.792 524.862
597.99 214.286 546.961
597.99 220.779 491.713
597.99 227.273 397.79
597.99 233.766 265.193
597.99 240.26 425.414
597.99 246.753 403.315
597.99 253.247 121.547
597.99 350.649 22.0994
597.99 357.143 154.696
597.99 363.636 314.917
597.99 370.13 535.912
597.99 376.623 519.337
597.99 383.117 486.188
597.99 389.61 458.564
597.99 396.104 397.79
597.99 402.597 469.613
597.99 409.091 458.564
597.99 415.584 458.564
597.99 422.078 458.564
597.99 428.571 458.564
597.99 435.065 458.564
597.99 441.558 458.564
597.99 448.052 458.564
597.99 454.545 458.564
597.99 461.039 458.564
597.99 467.532 458.564
597.99 474.026 458.564
597.99 480.519 204.42
597.99 487.013 469.613
597.99 493.506 464.088
597.99 500 497.238
597.99 506.494 502.762
597.99 512.987 651.934
597.99 519.481 762.431
597.99 525.974 651.934
597.99 532.468 646.409
597.99 538.961 480.663
597.99 545.455 607.735
597.99 551.948 640.884
597.99 558.442 640.884
597.99 564.935 635.359
597.99 571.429 309.392
597.99 577.922 497.238
597.99 584.416 646.409
597.99 590.909 635.359
597.99 597.403 635.359
597.99 603.896 635.359
597.99 610.39 635.359
597.99 616.883 640.884
597.99 623.377 640.884
597.99 629.87 640.884
597.99 636.364 453.039
597.99 642.857 596.685
597.99 649.351 635.359
597.99 655.844 640.884
597.99 662.338 640.884
597.99 668.831 640.884
597.99 675.325 640.884
597.99 681.818 640.884
597.99 688.312 530.387
597.99 694.805 530.387
597.99 701.299 502.762
597.99 707.792 651.934
597.99 714.286 646.409
597.99 720.779 646.409
597.99 727.273 646.409
597.99 733.766 646.409
597.99 740.26 646.409
597.99 746.753 646.409
597.99 753.247 646.409
597.99 759.74 646.409
597.99 766.234 646.409
597.99 772.727 646.409
597.99 779.221 646.409
597.99 785.714 646.409
597.99 792.208 640.884
597.99 798.701 640.884
597.99 805.195 640.884
597.99 811.688 640.884
597.99 818.182 640.884
597.99 824.675 640.884
597.99 831.169 640.884
597.99 837.662 640.884
597.99 844.156 640.884
597.99 850.649 640.884
597.99 857.143 640.884
597.99 863.636 640.884
597.99 870.13 640.884
597.99 876.623 640.884
597.99 883.117 640.884
597.99 889.61 640.884
597.99 896.104 640.884
597.99 902.597 640.884
597.99 909.091 640.884
597.99 915.584 635.359
597.99 922.078 281.768
597.99 928.571 475.138
597.99 935.065 530.387
597.99 941.558 524.862
597.99 948.052 497.238
597.99 954.545 475.138
597.99 961.039 458.564
597.99 967.532 453.039
597.99 974.026 447.514
597.99 980.519 447.514
597.99 987.013 447.514
597.99 993.506 447.514
597.99 1000 447.514
603.015 194.805 497.238
603.015 201.299 325.967
603.015 207.792 674.033
603.015 214.286 530.387
603.015 220.779 524.862
603.015 227.273 325.967
603.015 233.766 430.939
603.015 240.26 397.79
603.015 246.753 397.79
603.015 350.649 93.9227
603.015 357.143 209.945
603.015 363.636 259.669
603.015 370.13 486.188
603.015 376.623 546.961
603.015 383.117 502.762
603.015 389.61 458.564
603.015 396.104 458.564
603.015 402.597 331.492
603.015 409.091 458.564
603.015 415.584 458.564
603.015 422.078 458.564
603.015 428.571 458.564
603.015 435.065 458.564
603.015 441.558 458.564
603.015 448.052 458.564
603.015 454.545 458.564
603.015 461.039 458.564
603.015 467.532 458.564
603.015 474.026 458.564
603.015 480.519 458.564
603.015 487.013 397.79
603.015 493.506 464.088
603.015 500 497.238
603.015 506.494 497.238
603.015 512.987 651.934
603.015 519.481 762.431
603.015 525.974 662.983
603.015 532.468 646.409
603.015 538.961 646.409
603.015 545.455 574.586
603.015 551.948 640.884
603.015 558.442 640.884
603.015 564.935 635.359
603.015 571.429 480.663
603.015 577.922 640.884
603.015 584.416 640.884
603.015 590.909 491.713
603.015 597.403 646.409
603.015 603.896 635.359
603.015 610.39 635.359
603.015 616.883 640.884
603.015 623.377 640.884
603.015 629.87 640.884
603.015 636.364 640.884
603.015 642.857 458.564
603.015 649.351 596.685
603.015 655.844 640.884
603.015 662.338 646.409
603.015 668.831 646.409
603.015 675.325 646.409
603.015 681.818 646.409
603.015 688.312 646.409
603.015 694.805 646.409
603.015 701.299 646.409
603.015 707.792 646.409
603.015 714.286 530.387
603.015 720.779 530.387
603.015 727.273 530.387
603.015 733.766 502.762
603.015 740.26 657.459
603.015 746.753 646.409
603.015 753.247 646.409
603.015 759.74 646.409
603.015 766.234 646.409
603.015 772.727 646.409
603.015 779.221 646.409
603.015 785.714 646.409
603.015 792.208 646.409
603.015 798.701 646.409
603.015 805.195 646.409
603.015 811.688 640.884
603.015 818.182 640.884
603.015 824.675 646.409
603.015 831.169 646.409
603.015 837.662 640.884
603.015 844.156 640.884
603.015 850.649 640.884
603.015 857.143 640.884
603.015 863.636 640.884
603.015 870.13 640.884
603.015 876.623 640.884
603.015 883.117 640.884
603.015 889.61 640.884
603.015 896.104 640.884
603.015 902.597 640.884
603.015 909.091 640.884
603.015 915.584 640.884
603.015 922.078 635.359
603.015 928.571 563.536
603.015 935.065 640.884
603.015 941.558 640.884
603.015 948.052 640.884
603.015 954.545 640.884
603.015 961.039 519.337
603.015 967.532 519.337
603.015 974.026 491.713
603.015 980.519 469.613
603.015 987.013 447.514
603.015 993.506 447.514
603.015 1000 447.514
608.04 194.805 497.238
608.04 201.299 325.967
608.04 207.792 674.033
608.04 214.286 546.961
608.04 220.779 519.337
608.04 227.273 320.442
608.04 233.766 430.939
608.04 240.26 386.74
608.04 246.753 397.79
608.04 344.156 16.5746
608.04 350.649 143.646
608.04 357.143 270.718
608.04 363.636 480.663
608.04 370.13 419.89
608.04 376.623 486.188
608.04 383.117 530.387
608.04 389.61 458.564
608.04 396.104 458.564
608.04 402.597 397.79
608.04 409.091 530.387
608.04 415.584 458.564
608.04 422.078 458.564
608.04 428.571 458.564
608.04 435.065 458.564
608.04 441.558 458.564
608.04 448.052 458.564
608.04 454.545 458.564
608.04 461.039 458.564
608.04 467.532 458.564
608.04 474.026 458.564
608.04 480.519 458.564
608.04 487.013 458.564
608.04 493.506 397.79
608.04 500 497.238
608.04 506.494 502.762
608.04 512.987 640.884
608.04 519.481 657.459
608.04 525.974 685.083
608.04 532.468 651.934
608.04 538.961 646.409
608.04 545.455 502.762
608.04 551.948 640.884
608.04 558.442 640.884
608.04 564.935 640.884
608.04 571.429 464.088
608.04 577.922 596.685
608.04 584.416 640.884
608.04 590.909 640.884
608.04 597.403 640.884
608.04 603.896 491.713
608.04 610.39 646.409
608.04 616.883 635.359
608.04 623.377 635.359
608.04 629.87 640.884
608.04 636.364 640.884
608.04 642.857 640.884
608.04 649.351 464.088
608.04 655.844 563.536
608.04 662.338 602.21
608.04 668.831 646.409
608.04 675.325 646.409
608.04 681.818 646.409
608.04 688.312 646.409
608.04 694.805 646.409
608.04 701.299 646.409
608.04 707.792 646.409
608.04 714.286 646.409
608.04 720.779 646.409
608.04 727.273 646.409
608.04 733.766 646.409
608.04 740.26 646.409
608.04 746.753 530.387
608.04 753.247 502.762
608.04 759.74 657.459
608.04 766.234 646.409
608.04 772.727 646.409
608.04 779.221 646.409
608.04 785.714 646.409
608.04 792.208 646.409
608.04 798.701 646.409
608.04 805.195 646.409
608.04 811.688 646.409
608.04 818.182 646.409
608.04 824.675 646.409
608.04 831.169 646.409
608.04 837.662 646.409
608.04 844.156 640.884
608.04 850.649 640.884
608.04 857.143 640.884
608.04 863.636 635.359
608.04 870.13 635.359
608.04 876.623 640.884
608.04 883.117 640.884
608.04 889.61 640.884
608.04 896.104 640.884
608.04 902.597 640.884
608.04 909.091 640.884
608.04 915.584 640.884
608.04 922.078 635.359
608.04 928.571 480.663
608.04 935.065 640.884
608.04 941.558 640.884
608.04 948.052 640.884
608.04 954.545 640.884
608.04 961.039 635.359
608.04 967.532 635.359
608.04 974.026 635.359
608.04 980.519 635.359
608.04 987.013 491.713
608.04 993.506 464.088
608.04 1000 453.039
613.065 194.805 453.039
613.065 201.299 331.492
613.065 207.792 690.608
613.065 214.286 602.21
613.065 220.779 591.16
613.065 227.273 320.442
613.065 233.766 430.939
613.065 240.26 386.74
613.065 246.753 397.79
613.065 344.156 82.8729
613.065 350.649 204.42
613.065 357.143 464.088
613.065 363.636 497.238
613.065 370.13 480.663
613.065 376.623 364.641
613.065 383.117 458.564
613.065 389.61 458.564
613.065 396.104 458.564
613.065 402.597 458.564
613.065 409.091 397.79
613.065 415.584 469.613
613.065 422.078 458.564
613.065 428.571 458.564
613.065 435.065 458.564
613.065 441.558 458.564
613.065 448.052 458.564
613.065 454.545 458.564
613.065 461.039 458.564
613.065 467.532 458.564
613.065 474.026 458.564
613.065 480.519 458.564
613.065 487.013 458.564
613.065 493.506 458.564
613.065 500 441.989
613.065 506.494 508.287
613.065 512.987 762.431
613.065 519.481 651.934
613.065 525.974 646.409
613.065 532.468 651.934
613.065 538.961 640.884
613.065 545.455 486.188
613.065 551.948 640.884
613.065 558.442 640.884
613.065 564.935 640.884
613.065 571.429 635.359
613.065 577.922 563.536
613.065 584.416 640.884
613.065 590.909 640.884
613.065 597.403 640.884
613.065 603.896 640.884
613.065 610.39 640.884
613.065 616.883 524.862
613.065 623.377 497.238
613.065 629.87 651.934
613.065 636.364 640.884
613.065 642.857 646.409
613.065 649.351 646.409
613.065 655.844 646.409
613.065 662.338 464.088
613.065 668.831 607.735
613.065 675.325 646.409
613.065 681.818 646.409
613.065 688.312 646.409
613.065 694.805 646.409
613.065 701.299 646.409
613.065 707.792 646.409
613.065 714.286 646.409
613.065 720.779 646.409
613.065 727.273 646.409
613.065 733.766 646.409
613.065 740.26 646.409
613.065 746.753 646.409
613.065 753.247 646.409
613.065 759.74 646.409
613.065 766.234 502.762
613.065 772.727 657.459
613.065 779.221 646.409
613.065 785.714 646.409
613.065 792.208 640.884
613.065 798.701 646.409
613.065 805.195 646.409
613.065 811.688 646.409
613.065 818.182 646.409
613.065 824.675 646.409
613.065 831.169 646.409
613.065 837.662 640.884
613.065 844.156 640.884
613.065 850.649 640.884
613.065 857.143 640.884
613.065 863.636 640.884
613.065 870.13 640.884
613.065 876.623 640.884
613.065 883.117 640.884
613.065 889.61 640.884
613.065 896.104 640.884
613.065 902.597 640.884
613.065 909.091 640.884
613.065 915.584 640.884
613.065 922.078 640.884
613.065 928.571 502.762
613.065 935.065 646.409
613.065 941.558 640.884
613.065 948.052 640.884
613.065 954.545 640.884
613.065 961.039 640.884
613.065 967.532 635.359
613.065 974.026 635.359
613.065 980.519 635.359
613.065 987.013 635.359
613.065 993.506 635.359
613.065 1000 513.812
618.09 201.299 497.238
618.09 207.792 718.232
618.09 214.286 552.486
618.09 220.779 574.586
618.09 227.273 325.967
618.09 233.766 408.84
618.09 240.26 386.74
618.09 246.753 397.79
618.09 337.662 16.5746
618.09 344.156 143.646
618.09 350.649 270.718
618.09 357.143 480.663
618.09 363.636 530.387
618.09 370.13 502.762
618.09 376.623 447.514
618.09 383.117 530.387
618.09 389.61 458.564
618.09 396.104 458.564
618.09 402.597 458.564
618.09 409.091 458.564
618.09 415.584 397.79
618.09 422.078 469.613
618.09 428.571 464.088
618.09 435.065 464.088
618.09 441.558 458.564
618.09 448.052 458.564
618.09 454.545 458.564
618.09 461.039 458.564
618.09 467.532 458.564
618.09 474.026 458.564
618.09 480.519 458.564
618.09 487.013 458.564
618.09 493.506 458.564
618.09 500 497.238
618.09 506.494 441.989
618.09 512.987 756.906
618.09 519.481 651.934
618.09 525.974 646.409
618.09 532.468 651.934
618.09 538.961 640.884
618.09 545.455 486.188
618.09 551.948 640.884
618.09 558.442 640.884
618.09 564.935 640.884
618.09 571.429 640.884
618.09 577.922 480.663
618.09 584.416 640.884
618.09 590.909 640.884
618.09 597.403 640.884
618.09 603.896 640.884
618.09 610.39 640.884
618.09 616.883 640.884
618.09 623.377 640.884
618.09 629.87 640.884
618.09 636.364 502.762
618.09 642.857 651.934
618.09 649.351 646.409
618.09 655.844 646.409
618.09 662.338 646.409
618.09 668.831 464.088
618.09 675.325 569.061
618.09 681.818 607.735
618.09 688.312 646.409
618.09 694.805 646.409
618.09 701.299 646.409
618.09 707.792 646.409
618.09 714.286 646.409
618.09 720.779 646.409
618.09 727.273 646.409
618.09 733.766 646.409
618.09 740.26 646.409
618.09 746.753 646.409
618.09 753.247 646.409
618.09 759.74 646.409
618.09 766.234 646.409
618.09 772.727 646.409
618.09 779.221 535.912
618.09 785.714 535.912
618.09 792.208 508.287
618.09 798.701 657.459
618.09 805.195 646.409
618.09 811.688 646.409
618.09 818.182 640.884
618.09 824.675 646.409
618.09 831.169 640.884
618.09 837.662 640.884
618.09 844.156 640.884
618.09 850.649 640.884
618.09 857.143 640.884
618.09 863.636 640.884
618.09 870.13 640.884
618.09 876.623 640.884
618.09 883.117 640.884
618.09 889.61 640.884
618.09 896.104 640.884
618.09 902.597 640.884
618.09 909.091 640.884
618.09 915.584 635.359
618.09 922.078 480.663
618.09 928.571 530.387
618.09 935.065 646.409
618.09 941.558 640.884
618.09 948.052 640.884
618.09 954.545 640.884
618.09 961.039 635.359
618.09 967.532 635.359
618.09 974.026 635.359
618.09 980.519 635.359
618.09 987.013 635.359
618.09 993.506 635.359
618.09 1000 629.834
623.116 201.299 530.387
623.116 207.792 723.757
623.116 214.286 580.11
623.116 220.779 596.685
623.116 227.273 430.939
623.116 233.766 392.265
623.116 240.26 337.017
623.116 246.753 414.365
623.116 337.662 22.0994
623.116 344.156 143.646
623.116 350.649 458.564
623.116 357.143 480.663
623.116 363.636 480.663
623.116 370.13 480.663
623.116 376.623 530.387
623.116 383.117 331.492
623.116 389.61 458.564
623.116 396.104 458.564
623.116 402.597 458.564
623.116 409.091 458.564
623.116 415.584 458.564
623.116 422.078 331.492
623.116 428.571 464.088
623.116 435.065 464.088
623.116 441.558 464.088
623.116 448.052 458.564
623.116 454.545 458.564
623.116 461.039 458.564
623.116 467.532 458.564
623.116 474.026 458.564
623.116 480.519 458.564
623.116 487.013 458.564
623.116 493.506 458.564
623.116 500 491.713
623.116 506.494 497.238
623.116 512.987 729.282
623.116 519.481 646.409
623.116 525.974 640.884
623.116 532.468 651.934
623.116 538.961 640.884
623.116 545.455 475.138
623.116 551.948 602.21
623.116 558.442 640.884
623.116 564.935 640.884
623.116 571.429 640.884
623.116 577.922 469.613
623.116 584.416 596.685
623.116 590.909 640.884
623.116 597.403 640.884
623.116 603.896 640.884
623.116 610.39 640.884
623.116 616.883 640.884
623.116 623.377 640.884
623.116 629.87 640.884
623.116 636.364 640.884
623.116 642.857 640.884
623.116 649.351 502.762
623.116 655.844 646.409
623.116 662.338 646.409
623.116 668.831 646.409
623.116 675.325 646.409
623.116 681.818 464.088
623.116 688.312 607.735
623.116 694.805 646.409
623.116 701.299 646.409
623.116 707.792 646.409
623.116 714.286 646.409
623.116 720.779 646.409
623.116 727.273 646.409
623.116 733.766 646.409
623.116 740.26 646.409
623.116 746.753 646.409
623.116 753.247 646.409
623.116 759.74 646.409
623.116 766.234 646.409
623.116 772.727 646.409
623.116 779.221 646.409
623.116 785.714 646.409
623.116 792.208 646.409
623.116 798.701 646.409
623.116 805.195 530.387
623.116 811.688 530.387
623.116 818.182 502.762
623.116 824.675 651.934
623.116 831.169 646.409
623.116 837.662 646.409
623.116 844.156 646.409
623.116 850.649 640.884
623.116 857.143 635.359
623.116 863.636 640.884
623.116 870.13 640.884
623.116 876.623 640.884
623.116 883.117 640.884
623.116 889.61 640.884
623.116 896.104 640.884
623.116 902.597 640.884
623.116 909.091 640.884
623.116 915.584 635.359
623.116 922.078 480.663
623.116 928.571 640.884
623.116 935.065 640.884
623.116 941.558 646.409
623.116 948.052 640.884
623.116 954.545 635.359
623.116 961.039 635.359
623.116 967.532 635.359
623.116 974.026 635.359
623.116 980.519 635.359
623.116 987.013 635.359
623.116 993.506 629.834
623.116 1000 629.834
628.141 201.299 563.536
628.141 207.792 690.608
628.141 214.286 580.11
628.141 220.779 618.785
628.141 227.273 430.939
628.141 233.766 386.74
628.141 240.26 392.265
628.141 246.753 325.967
628.141 337.662 22.0994
628.141 344.156 143.646
628.141 350.649 464.088
628.141 357.143 497.238
628.141 363.636 480.663
628.141 370.13 486.188
628.141 376.623 635.359
628.141 383.117 397.79
628.141 389.61 530.387
628.141 396.104 480.663
628.141 402.597 502.762
628.141 409.091 464.088
628.141 415.584 458.564
628.141 422.078 397.79
628.141 428.571 535.912
628.141 435.065 464.088
628.141 441.558 464.088
628.141 448.052 458.564
628.141 454.545 458.564
628.141 461.039 458.564
628.141 467.532 458.564
628.141 474.026 458.564
628.141 480.519 458.564
628.141 487.013 458.564
628.141 493.506 458.564
628.141 500 469.613
628.141 506.494 497.238
628.141 512.987 762.431
628.141 519.481 607.735
628.141 525.974 646.409
628.141 532.468 646.409
628.141 538.961 646.409
628.141 545.455 646.409
628.141 551.948 569.061
628.141 558.442 646.409
628.141 564.935 646.409
628.141 571.429 640.884
628.141 577.922 640.884
628.141 584.416 563.536
628.141 590.909 640.884
628.141 597.403 640.884
628.141 603.896 640.884
628.141 610.39 640.884
628.141 616.883 640.884
628.141 623.377 640.884
628.141 629.87 640.884
628.141 636.364 640.884
628.141 642.857 640.884
628.141 649.351 640.884
628.141 655.844 602.21
628.141 662.338 657.459
628.141 668.831 646.409
628.141 675.325 646.409
628.141 681.818 646.409
628.141 688.312 464.088
628.141 694.805 464.088
628.141 701.299 464.088
628.141 707.792 646.409
628.141 714.286 646.409
628.141 720.779 646.409
628.141 727.273 646.409
628.141 733.766 646.409
628.141 740.26 646.409
628.141 746.753 646.409
628.141 753.247 646.409
628.141 759.74 646.409
628.141 766.234 646.409
628.141 772.727 646.409
628.141 779.221 646.409
628.141 785.714 646.409
628.141 792.208 646.409
628.141 798.701 646.409
628.141 805.195 646.409
628.141 811.688 646.409
628.141 818.182 646.409
628.141 824.675 646.409
628.141 831.169 530.387
628.141 837.662 530.387
628.141 844.156 530.387
628.141 850.649 530.387
628.141 857.143 497.238
628.141 863.636 651.934
628.141 870.13 635.359
628.141 876.623 640.884
628.141 883.117 640.884
628.141 889.61 640.884
628.141 896.104 640.884
628.141 902.597 640.884
628.141 909.091 640.884
628.141 915.584 640.884
628.141 922.078 209.945
628.141 928.571 458.564
628.141 935.065 458.564
628.141 941.558 458.564
628.141 948.052 453.039
628.141 954.545 453.039
628.141 961.039 453.039
628.141 967.532 453.039
628.141 974.026 453.039
628.141 980.519 447.514
628.141 987.013 447.514
628.141 993.506 447.514
628.141 1000 447.514
633.166 201.299 508.287
633.166 207.792 585.635
633.166 214.286 574.586
633.166 220.779 618.785
633.166 227.273 430.939
633.166 233.766 337.017
633.166 240.26 475.138
633.166 246.753 254.144
633.166 337.662 22.0994
633.166 344.156 149.171
633.166 350.649 480.663
633.166 357.143 524.862
633.166 363.636 480.663
633.166 370.13 497.238
633.166 376.623 640.884
633.166 383.117 458.564
633.166 389.61 348.066
633.166 396.104 497.238
633.166 402.597 530.387
633.166 409.091 480.663
633.166 415.584 458.564
633.166 422.078 458.564
633.166 428.571 331.492
633.166 435.065 464.088
633.166 441.558 464.088
633.166 448.052 464.088
633.166 454.545 464.088
633.166 461.039 464.088
633.166 467.532 464.088
633.166 474.026 464.088
633.166 480.519 458.564
633.166 487.013 458.564
633.166 493.506 458.564
633.166 500 480.663
633.166 506.494 469.613
633.166 512.987 696.133
633.166 519.481 646.409
633.166 525.974 607.735
633.166 532.468 640.884
633.166 538.961 646.409
633.166 545.455 646.409
633.166 551.948 513.812
633.166 558.442 646.409
633.166 564.935 646.409
633.166 571.429 646.409
633.166 577.922 640.884
633.166 584.416 469.613
633.166 590.909 602.21
633.166 597.403 640.884
633.166 603.896 640.884
633.166 610.39 640.884
633.166 616.883 640.884
633.166 623.377 640.884
633.166 629.87 640.884
633.166 636.364 640.884
633.166 642.857 640.884
633.166 649.351 640.884
633.166 655.844 646.409
633.166 662.338 646.409
633.166 668.831 502.762
633.166 675.325 657.459
633.166 681.818 646.409
633.166 688.312 464.088
633.166 694.805 464.088
633.166 701.299 464.088
633.166 707.792 464.088
633.166 714.286 464.088
633.166 720.779 646.409
633.166 727.273 646.409
633.166 733.766 646.409
633.166 740.26 646.409
633.166 746.753 646.409
633.166 753.247 646.409
633.166 759.74 646.409
633.166 766.234 646.409
633.166 772.727 646.409
633.166 779.221 646.409
633.166 785.714 646.409
633.166 792.208 646.409
633.166 798.701 640.884
633.166 805.195 640.884
633.166 811.688 640.884
633.166 818.182 646.409
633.166 824.675 646.409
633.166 831.169 646.409
633.166 837.662 646.409
633.166 844.156 646.409
633.166 850.649 646.409
633.166 857.143 640.884
633.166 863.636 640.884
633.166 870.13 497.238
633.166 876.623 651.934
633.166 883.117 640.884
633.166 889.61 640.884
633.166 896.104 640.884
633.166 902.597 640.884
633.166 909.091 651.934
633.166 915.584 265.193
633.166 922.078 386.74
633.166 928.571 640.884
633.166 935.065 640.884
633.166 941.558 635.359
633.166 948.052 453.039
633.166 954.545 453.039
633.166 961.039 453.039
633.166 967.532 453.039
633.166 974.026 453.039
633.166 980.519 453.039
633.166 987.013 447.514
633.166 993.506 447.514
633.166 1000 447.514
638.191 194.805 325.967
638.191 201.299 497.238
638.191 207.792 519.337
638.191 214.286 591.16
638.191 220.779 607.735
638.191 227.273 430.939
638.191 233.766 469.613
638.191 240.26 436.464
638.191 246.753 143.646
638.191 337.662 16.5746
638.191 344.156 176.796
638.191 350.649 502.762
638.191 357.143 635.359
638.191 363.636 502.762
638.191 370.13 480.663
638.191 376.623 458.564
638.191 383.117 458.564
638.191 389.61 392.265
638.191 396.104 513.812
638.191 402.597 530.387
638.191 409.091 480.663
638.191 415.584 524.862
638.191 422.078 458.564
638.191 428.571 397.79
638.191 435.065 535.912
638.191 441.558 464.088
638.191 448.052 464.088
638.191 454.545 464.088
638.191 461.039 464.088
638.191 467.532 464.088
638.191 474.026 464.088
638.191 480.519 464.088
638.191 487.013 458.564
638.191 493.506 458.564
638.191 500 480.663
638.191 506.494 491.713
638.191 512.987 635.359
638.191 519.481 646.409
638.191 525.974 640.884
638.191 532.468 591.16
638.191 538.961 646.409
638.191 545.455 491.713
638.191 551.948 541.436
638.191 558.442 646.409
638.191 564.935 646.409
638.191 571.429 646.409
638.191 577.922 646.409
638.191 584.416 640.884
638.191 590.909 563.536
638.191 597.403 640.884
638.191 603.896 640.884
638.191 610.39 640.884
638.191 616.883 640.884
638.191 623.377 640.884
638.191 629.87 640.884
638.191 636.364 640.884
638.191 642.857 640.884
638.191 649.351 640.884
638.191 655.844 640.884
638.191 662.338 646.409
638.191 668.831 646.409
638.191 675.325 646.409
638.191 681.818 502.762
638.191 688.312 657.459
638.191 694.805 464.088
638.191 701.299 464.088
638.191 707.792 464.088
638.191 714.286 464.088
638.191 720.779 464.088
638.191 727.273 464.088
638.191 733.766 646.409
638.191 740.26 646.409
638.191 746.753 646.409
638.191 753.247 646.409
638.191 759.74 646.409
638.191 766.234 646.409
638.191 772.727 646.409
638.191 779.221 646.409
638.191 785.714 646.409
638.191 792.208 646.409
638.191 798.701 640.884
638.191 805.195 640.884
638.191 811.688 640.884
638.191 818.182 646.409
638.191 824.675 646.409
638.191 831.169 646.409
638.191 837.662 646.409
638.191 844.156 646.409
638.191 850.649 646.409
638.191 857.143 646.409
638.191 863.636 640.884
638.191 870.13 640.884
638.191 876.623 640.884
638.191 883.117 524.862
638.191 889.61 524.862
638.191 896.104 530.387
638.191 902.597 530.387
638.191 909.091 530.387
638.191 915.584 270.718
638.191 922.078 458.564
638.191 928.571 640.884
638.191 935.065 640.884
638.191 941.558 635.359
638.191 948.052 635.359
638.191 954.545 635.359
638.191 961.039 635.359
638.191 967.532 635.359
638.191 974.026 453.039
638.191 980.519 453.039
638.191 987.013 447.514
638.191 993.506 447.514
643.216 194.805 325.967
643.216 201.299 530.387
643.216 207.792 469.613
643.216 214.286 662.983
643.216 220.779 596.685
643.216 227.273 430.939
643.216 233.766 464.088
643.216 240.26 436.464
643.216 246.753 77.3481
643.216 337.662 38.674
643.216 344.156 226.519
643.216 350.649 337.017
643.216 357.143 259.669
