548.837 440.367 610.811
548.837 458.716 713.514
548.837 467.89 151.351
548.837 477.064 713.514
548.837 486.239 729.73
548.837 504.587 735.135
548.837 522.936 751.351
548.837 541.284 751.351
548.837 559.633 783.784
548.837 577.982 783.784
548.837 596.33 778.378
548.837 605.505 0
548.837 614.679 778.378
548.837 633.028 675.676
548.837 642.202 135.135
548.837 651.376 697.297
548.837 669.725 518.919
548.837 678.899 518.919
548.837 688.073 632.432
553.488 422.018 556.757
553.488 431.193 275.676
553.488 440.367 572.973
553.488 458.716 708.108
553.488 467.89 172.973
553.488 477.064 713.514
553.488 486.239 729.73
553.488 504.587 729.73
553.488 522.936 745.946
553.488 541.284 745.946
553.488 559.633 783.784
553.488 577.982 783.784
553.488 596.33 778.378
553.488 605.505 5.40541
553.488 614.679 778.378
553.488 633.028 702.703
553.488 642.202 410.811
553.488 651.376 718.919
553.488 669.725 518.919
553.488 678.899 518.919
553.488 688.073 518.919
558.14 385.321 243.243
558.14 394.495 243.243
558.14 403.67 243.243
558.14 422.018 448.649
558.14 431.193 81.0811
558.14 440.367 556.757
558.14 458.716 697.297
558.14 467.89 135.135
558.14 477.064 702.703
558.14 486.239 724.324
558.14 504.587 729.73
558.14 522.936 735.135
558.14 541.284 745.946
558.14 559.633 783.784
558.14 577.982 783.784
558.14 596.33 783.784
558.14 605.505 75.6757
558.14 614.679 783.784
558.14 633.028 702.703
558.14 642.202 264.865
558.14 651.376 702.703
558.14 669.725 518.919
558.14 678.899 232.432
558.14 688.073 594.595
562.791 385.321 243.243
562.791 394.495 243.243
562.791 403.67 243.243
562.791 422.018 416.216
562.791 431.193 113.514
562.791 440.367 448.649
562.791 458.716 675.676
562.791 467.89 102.703
562.791 477.064 697.297
562.791 486.239 708.108
562.791 504.587 724.324
562.791 522.936 735.135
562.791 541.284 735.135
562.791 559.633 783.784
562.791 577.982 783.784
562.791 596.33 789.189
562.791 605.505 75.6757
562.791 614.679 789.189
562.791 633.028 713.514
562.791 642.202 286.486
562.791 651.376 713.514
562.791 669.725 594.595
562.791 678.899 524.324
562.791 688.073 594.595
567.442 385.321 356.757
567.442 394.495 356.757
567.442 403.67 356.757
567.442 422.018 443.243
567.442 431.193 200
567.442 440.367 443.243
567.442 458.716 670.27
567.442 467.89 43.2432
567.442 477.064 664.865
567.442 486.239 702.703
567.442 495.413 5.40541
567.442 504.587 708.108
567.442 522.936 724.324
567.442 541.284 729.73
567.442 559.633 783.784
567.442 577.982 783.784
567.442 596.33 794.595
567.442 605.505 113.514
567.442 614.679 794.595
567.442 633.028 729.73
567.442 642.202 189.189
567.442 651.376 729.73
567.442 669.725 594.595
567.442 678.899 378.378
567.442 688.073 594.595
567.442 706.422 378.378
567.442 715.596 378.378
567.442 724.771 378.378
572.093 385.321 356.757
572.093 394.495 356.757
572.093 403.67 356.757
572.093 422.018 443.243
572.093 431.193 108.108
572.093 440.367 443.243
572.093 458.716 670.27
572.093 467.89 178.378
572.093 477.064 664.865
572.093 486.239 697.297
572.093 495.413 64.8649
572.093 504.587 702.703
572.093 522.936 729.73
572.093 541.284 729.73
572.093 559.633 783.784
572.093 577.982 783.784
572.093 596.33 794.595
572.093 605.505 75.6757
572.093 614.679 794.595
572.093 633.028 708.108
572.093 642.202 324.324
572.093 651.376 729.73
572.093 669.725 589.189
572.093 678.899 378.378
572.093 688.073 594.595
572.093 706.422 378.378
572.093 715.596 378.378
572.093 724.771 378.378
576.744 385.321 259.459
576.744 394.495 259.459
576.744 403.67 356.757
576.744 422.018 254.054
576.744 431.193 254.054
576.744 440.367 443.243
576.744 458.716 708.108
576.744 467.89 59.4595
576.744 477.064 670.27
576.744 486.239 697.297
576.744 495.413 32.4324
576.744 504.587 691.892
576.744 522.936 735.135
576.744 541.284 729.73
576.744 559.633 783.784
576.744 577.982 783.784
576.744 596.33 794.595
576.744 614.679 794.595
576.744 633.028 697.297
576.744 642.202 362.162
576.744 651.376 708.108
576.744 669.725 594.595
576.744 678.899 378.378
576.744 688.073 589.189
576.744 706.422 378.378
576.744 715.596 378.378
576.744 724.771 378.378
581.395 403.67 259.459
581.395 440.367 254.054
581.395 458.716 686.486
581.395 467.89 32.4324
581.395 477.064 691.892
581.395 486.239 691.892
581.395 495.413 113.514
581.395 504.587 691.892
581.395 522.936 729.73
581.395 541.284 735.135
581.395 559.633 789.189
581.395 577.982 783.784
581.395 596.33 789.189
581.395 614.679 794.595
581.395 633.028 621.622
581.395 642.202 383.784
581.395 651.376 691.892
581.395 669.725 594.595
581.395 678.899 524.324
581.395 688.073 589.189
581.395 724.771 378.378
586.047 458.716 697.297
586.047 467.89 113.514
586.047 477.064 691.892
586.047 486.239 702.703
586.047 495.413 91.8919
586.047 504.587 691.892
586.047 522.936 718.919
586.047 541.284 729.73
586.047 559.633 789.189
586.047 577.982 789.189
586.047 596.33 783.784
586.047 605.505 37.8378
586.047 614.679 789.189
586.047 633.028 670.27
586.047 642.202 313.514
586.047 651.376 664.865
586.047 669.725 518.919
586.047 678.899 372.973
586.047 688.073 594.595
590.698 458.716 735.135
590.698 467.89 167.568
590.698 477.064 702.703
590.698 486.239 708.108
590.698 495.413 75.6757
590.698 504.587 702.703
590.698 522.936 718.919
590.698 541.284 718.919
590.698 559.633 789.189
590.698 577.982 789.189
590.698 596.33 772.973
590.698 605.505 5.40541
590.698 614.679 783.784
590.698 633.028 643.243
590.698 642.202 432.432
590.698 651.376 659.459
590.698 669.725 372.973
590.698 678.899 372.973
590.698 688.073 518.919
595.349 458.716 735.135
595.349 467.89 48.6486
595.349 477.064 735.135
595.349 486.239 713.514
595.349 495.413 108.108
595.349 504.587 708.108
595.349 522.936 718.919
595.349 541.284 718.919
595.349 559.633 789.189
595.349 577.982 789.189
595.349 596.33 756.757
595.349 605.505 37.8378
595.349 614.679 767.568
595.349 633.028 621.622
595.349 642.202 486.486
595.349 651.376 643.243
595.349 688.073 372.973
600 458.716 735.135
600 467.89 37.8378
600 477.064 735.135
600 486.239 724.324
600 495.413 167.568
600 504.587 713.514
600 522.936 724.324
600 541.284 718.919
600 559.633 789.189
600 577.982 789.189
600 596.33 751.351
600 605.505 5.40541
600 614.679 756.757
600 633.028 659.459
600 642.202 545.946
600 651.376 648.649
604.651 458.716 735.135
604.651 467.89 37.8378
604.651 477.064 735.135
604.651 486.239 740.541
604.651 495.413 140.541
604.651 504.587 724.324
604.651 522.936 729.73
604.651 541.284 724.324
604.651 559.633 783.784
604.651 577.982 789.189
604.651 596.33 751.351
604.651 605.505 5.40541
604.651 614.679 751.351
604.651 633.028 675.676
604.651 642.202 416.216
604.651 651.376 670.27
609.302 458.716 735.135
609.302 467.89 43.2432
609.302 477.064 735.135
609.302 486.239 756.757
609.302 495.413 37.8378
609.302 504.587 740.541
609.302 522.936 724.324
609.302 541.284 724.324
609.302 559.633 778.378
609.302 577.982 783.784
609.302 596.33 756.757
609.302 605.505 10.8108
609.302 614.679 751.351
609.302 633.028 691.892
609.302 642.202 383.784
609.302 651.376 686.486
613.953 458.716 735.135
613.953 467.89 43.2432
613.953 477.064 735.135
613.953 486.239 756.757
613.953 495.413 37.8378
613.953 504.587 756.757
613.953 522.936 718.919
613.953 541.284 724.324
613.953 559.633 767.568
613.953 577.982 778.378
613.953 596.33 756.757
613.953 605.505 27.027
613.953 614.679 756.757
613.953 633.028 713.514
613.953 642.202 432.432
613.953 651.376 702.703
613.953 669.725 378.378
613.953 678.899 378.378
613.953 688.073 378.378
618.605 458.716 735.135
618.605 467.89 43.2432
618.605 477.064 735.135
618.605 486.239 756.757
618.605 495.413 32.4324
618.605 504.587 756.757
618.605 522.936 718.919
618.605 532.11 43.2432
618.605 541.284 718.919
618.605 559.633 767.568
618.605 577.982 767.568
618.605 596.33 756.757
618.605 605.505 16.2162
618.605 614.679 756.757
618.605 633.028 718.919
618.605 642.202 383.784
618.605 651.376 718.919
618.605 669.725 540.541
618.605 678.899 540.541
618.605 688.073 540.541
623.256 458.716 729.73
623.256 467.89 48.6486
623.256 477.064 735.135
623.256 486.239 756.757
623.256 495.413 37.8378
623.256 504.587 756.757
623.256 522.936 713.514
623.256 541.284 713.514
623.256 559.633 767.568
623.256 577.982 767.568
623.256 596.33 756.757
623.256 605.505 48.6486
623.256 614.679 756.757
623.256 633.028 724.324
623.256 642.202 335.135
623.256 651.376 724.324
623.256 669.725 540.541
623.256 678.899 540.541
623.256 688.073 540.541
623.256 706.422 318.919
623.256 715.596 318.919
623.256 724.771 318.919
627.907 458.716 729.73
627.907 467.89 48.6486
627.907 477.064 729.73
627.907 486.239 756.757
627.907 495.413 37.8378
627.907 504.587 756.757
627.907 522.936 718.919
627.907 541.284 713.514
627.907 559.633 767.568
627.907 577.982 767.568
627.907 596.33 762.162
627.907 614.679 756.757
627.907 633.028 724.324
627.907 642.202 302.703
627.907 651.376 724.324
627.907 669.725 578.378
627.907 678.899 443.243
627.907 688.073 572.973
627.907 706.422 318.919
627.907 715.596 318.919
627.907 724.771 318.919
632.558 458.716 729.73
632.558 467.89 37.8378
632.558 477.064 729.73
632.558 486.239 756.757
632.558 495.413 37.8378
632.558 504.587 756.757
632.558 522.936 718.919
632.558 541.284 718.919
632.558 559.633 762.162
632.558 577.982 762.162
632.558 596.33 767.568
632.558 605.505 10.8108
632.558 614.679 762.162
632.558 633.028 729.73
632.558 642.202 291.892
632.558 651.376 724.324
632.558 669.725 578.378
632.558 678.899 286.486
632.558 688.073 578.378
632.558 706.422 448.649
632.558 715.596 448.649
632.558 724.771 448.649
637.209 458.716 724.324
637.209 467.89 59.4595
637.209 477.064 729.73
637.209 486.239 751.351
637.209 495.413 37.8378
637.209 504.587 756.757
637.209 522.936 713.514
637.209 541.284 713.514
637.209 559.633 762.162
637.209 577.982 767.568
637.209 596.33 767.568
637.209 605.505 75.6757
637.209 614.679 762.162
637.209 633.028 735.135
637.209 642.202 286.486
637.209 651.376 729.73
637.209 669.725 594.595
637.209 678.899 351.351
637.209 688.073 594.595
637.209 706.422 448.649
637.209 715.596 448.649
637.209 724.771 448.649
641.86 458.716 724.324
641.86 467.89 43.2432
641.86 477.064 724.324
641.86 486.239 751.351
641.86 495.413 48.6486
641.86 504.587 751.351
641.86 522.936 713.514
641.86 532.11 0
641.86 541.284 713.514
641.86 559.633 767.568
641.86 577.982 762.162
641.86 596.33 762.162
641.86 605.505 156.757
641.86 614.679 762.162
641.86 633.028 724.324
641.86 642.202 270.27
641.86 651.376 729.73
641.86 669.725 605.405
641.86 678.899 302.703
641.86 688.073 610.811
641.86 706.422 513.514
641.86 715.596 513.514
641.86 724.771 513.514
646.512 458.716 724.324
646.512 467.89 59.4595
646.512 477.064 724.324
646.512 486.239 751.351
646.512 495.413 37.8378
646.512 504.587 751.351
646.512 522.936 713.514
646.512 532.11 27.027
646.512 541.284 713.514
646.512 559.633 762.162
646.512 577.982 767.568
646.512 596.33 762.162
646.512 614.679 762.162
646.512 633.028 718.919
646.512 642.202 194.595
646.512 651.376 718.919
646.512 669.725 648.649
646.512 678.899 362.162
646.512 688.073 643.243
646.512 706.422 513.514
646.512 715.596 324.324
646.512 724.771 513.514
651.163 458.716 724.324
651.163 467.89 59.4595
651.163 477.064 724.324
651.163 486.239 745.946
651.163 495.413 48.6486
651.163 504.587 745.946
651.163 522.936 718.919
651.163 532.11 64.8649
651.163 541.284 713.514
651.163 559.633 756.757
651.163 577.982 762.162
651.163 596.33 767.568
651.163 614.679 762.162
651.163 633.028 724.324
651.163 642.202 21.6216
651.163 651.376 724.324
651.163 669.725 664.865
651.163 678.899 362.162
651.163 688.073 664.865
651.163 706.422 589.189
651.163 715.596 481.081
651.163 724.771 589.189
655.814 458.716 724.324
655.814 467.89 59.4595
655.814 477.064 724.324
655.814 486.239 745.946
655.814 495.413 75.6757
655.814 504.587 745.946
655.814 522.936 718.919
655.814 532.11 70.2703
655.814 541.284 718.919
655.814 559.633 762.162
655.814 577.982 762.162
655.814 596.33 772.973
655.814 614.679 767.568
655.814 633.028 729.73
655.814 642.202 27.027
655.814 651.376 718.919
655.814 669.725 686.486
655.814 678.899 297.297
655.814 688.073 686.486
655.814 706.422 605.405
655.814 715.596 329.73
655.814 724.771 605.405
655.814 743.119 324.324
655.814 752.294 324.324
655.814 761.468 324.324
660.465 458.716 724.324
660.465 467.89 59.4595
660.465 477.064 724.324
660.465 486.239 745.946
660.465 495.413 59.4595
660.465 504.587 745.946
660.465 522.936 735.135
660.465 532.11 178.378
660.465 541.284 713.514
660.465 559.633 762.162
660.465 577.982 762.162
660.465 596.33 778.378
660.465 614.679 772.973
660.465 633.028 724.324
660.465 642.202 124.324
660.465 651.376 729.73
660.465 669.725 686.486
660.465 678.899 21.6216
660.465 688.073 686.486
660.465 706.422 627.027
660.465 715.596 178.378
660.465 724.771 627.027
660.465 743.119 324.324
660.465 752.294 324.324
660.465 761.468 324.324
665.116 458.716 724.324
665.116 467.89 48.6486
665.116 477.064 724.324
665.116 486.239 745.946
665.116 495.413 48.6486
665.116 504.587 745.946
665.116 522.936 751.351
665.116 532.11 124.324
665.116 541.284 735.135
665.116 559.633 756.757
665.116 577.982 762.162
665.116 596.33 778.378
665.116 614.679 778.378
665.116 633.028 724.324
665.116 642.202 135.135
665.116 651.376 729.73
665.116 669.725 691.892
665.116 678.899 21.6216
665.116 688.073 686.486
665.116 706.422 654.054
665.116 715.596 270.27
665.116 724.771 654.054
665.116 743.119 443.243
665.116 752.294 443.243
665.116 761.468 443.243
669.767 458.716 718.919
669.767 467.89 59.4595
669.767 477.064 724.324
669.767 486.239 745.946
669.767 495.413 27.027
669.767 504.587 745.946
669.767 522.936 756.757
669.767 532.11 70.2703
669.767 541.284 751.351
669.767 559.633 740.541
669.767 577.982 756.757
669.767 596.33 778.378
669.767 614.679 778.378
669.767 633.028 729.73
669.767 642.202 0
669.767 651.376 724.324
669.767 669.725 702.703
669.767 678.899 118.919
669.767 688.073 697.297
669.767 706.422 670.27
669.767 715.596 221.622
669.767 724.771 670.27
669.767 743.119 502.703
669.767 752.294 502.703
669.767 761.468 502.703
674.419 458.716 697.297
674.419 467.89 91.8919
674.419 477.064 718.919
674.419 486.239 745.946
674.419 495.413 37.8378
674.419 504.587 745.946
674.419 522.936 751.351
674.419 532.11 70.2703
674.419 541.284 745.946
674.419 559.633 729.73
674.419 577.982 745.946
674.419 596.33 778.378
674.419 614.679 778.378
674.419 633.028 729.73
674.419 651.376 729.73
674.419 669.725 708.108
674.419 678.899 48.6486
674.419 688.073 702.703
674.419 706.422 675.676
674.419 715.596 75.6757
674.419 724.771 675.676
674.419 743.119 540.541
674.419 752.294 508.108
674.419 761.468 540.541
679.07 458.716 643.243
679.07 467.89 162.162
679.07 477.064 697.297
679.07 486.239 740.541
679.07 495.413 43.2432
679.07 504.587 745.946
679.07 522.936 751.351
679.07 532.11 70.2703
679.07 541.284 751.351
679.07 559.633 729.73
679.07 577.982 729.73
679.07 596.33 772.973
679.07 614.679 778.378
679.07 633.028 724.324
679.07 651.376 729.73
679.07 669.725 702.703
679.07 678.899 70.2703
679.07 688.073 708.108
679.07 706.422 675.676
679.07 724.771 675.676
679.07 743.119 540.541
679.07 752.294 248.649
679.07 761.468 567.568
683.721 458.716 643.243
683.721 467.89 167.568
683.721 477.064 643.243
683.721 486.239 735.135
683.721 495.413 43.2432
683.721 504.587 740.541
683.721 522.936 751.351
683.721 532.11 91.8919
683.721 541.284 751.351
683.721 559.633 724.324
683.721 577.982 729.73
683.721 596.33 772.973
683.721 614.679 778.378
683.721 633.028 724.324
683.721 651.376 729.73
683.721 669.725 702.703
683.721 688.073 708.108
683.721 706.422 675.676
683.721 724.771 675.676
683.721 743.119 567.568
683.721 752.294 200
683.721 761.468 567.568
688.372 458.716 605.405
688.372 467.89 167.568
688.372 477.064 643.243
688.372 486.239 735.135
688.372 495.413 54.0541
688.372 504.587 735.135
688.372 522.936 751.351
688.372 532.11 37.8378
688.372 541.284 751.351
688.372 559.633 724.324
688.372 577.982 724.324
688.372 596.33 772.973
688.372 614.679 772.973
688.372 633.028 724.324
688.372 651.376 724.324
688.372 669.725 708.108
688.372 688.073 702.703
688.372 706.422 675.676
688.372 715.596 27.027
688.372 724.771 675.676
688.372 743.119 600
688.372 752.294 324.324
688.372 761.468 600
693.023 458.716 643.243
693.023 467.89 297.297
693.023 477.064 643.243
693.023 486.239 735.135
693.023 495.413 54.0541
693.023 504.587 735.135
693.023 522.936 751.351
693.023 532.11 27.027
693.023 541.284 751.351
693.023 559.633 724.324
693.023 577.982 724.324
693.023 596.33 772.973
693.023 614.679 772.973
693.023 633.028 718.919
693.023 642.202 5.40541
693.023 651.376 724.324
693.023 669.725 713.514
693.023 688.073 708.108
693.023 706.422 675.676
693.023 715.596 27.027
693.023 724.771 675.676
693.023 743.119 627.027
693.023 752.294 367.568
693.023 761.468 627.027
693.023 779.817 313.514
693.023 788.991 313.514
693.023 798.165 313.514
697.674 458.716 643.243
697.674 467.89 118.919
697.674 477.064 643.243
697.674 486.239 735.135
697.674 495.413 43.2432
697.674 504.587 735.135
697.674 522.936 751.351
697.674 532.11 21.6216
697.674 541.284 751.351
697.674 559.633 729.73
697.674 577.982 724.324
697.674 596.33 767.568
697.674 614.679 772.973
697.674 633.028 718.919
697.674 651.376 718.919
697.674 669.725 713.514
697.674 688.073 708.108
697.674 706.422 686.486
697.674 715.596 75.6757
697.674 724.771 686.486
697.674 743.119 632.432
697.674 752.294 248.649
697.674 761.468 632.432
697.674 779.817 313.514
697.674 788.991 313.514
697.674 798.165 313.514
702.326 458.716 600
702.326 467.89 162.162
702.326 477.064 643.243
702.326 486.239 735.135
702.326 495.413 59.4595
702.326 504.587 735.135
702.326 522.936 751.351
702.326 532.11 37.8378
702.326 541.284 751.351
702.326 559.633 729.73
702.326 577.982 729.73
702.326 596.33 772.973
702.326 614.679 772.973
702.326 633.028 724.324
702.326 642.202 10.8108
702.326 651.376 718.919
702.326 669.725 708.108
702.326 688.073 713.514
702.326 706.422 691.892
702.326 724.771 686.486
702.326 743.119 627.027
702.326 752.294 248.649
702.326 761.468 632.432
702.326 779.817 432.432
702.326 788.991 432.432
702.326 798.165 432.432
706.977 458.716 524.324
706.977 467.89 237.838
706.977 477.064 600
706.977 486.239 724.324
706.977 495.413 54.0541
706.977 504.587 735.135
706.977 522.936 745.946
706.977 532.11 37.8378
706.977 541.284 751.351
706.977 559.633 729.73
706.977 577.982 729.73
706.977 596.33 772.973
706.977 614.679 772.973
706.977 633.028 729.73
706.977 651.376 724.324
706.977 669.725 713.514
706.977 688.073 713.514
706.977 706.422 697.297
706.977 724.771 691.892
706.977 743.119 605.405
706.977 752.294 367.568
706.977 761.468 621.622
706.977 779.817 432.432
706.977 788.991 313.514
706.977 798.165 432.432
711.628 477.064 524.324
711.628 486.239 708.108
711.628 495.413 91.8919
711.628 504.587 724.324
711.628 522.936 745.946
711.628 532.11 37.8378
711.628 541.284 745.946
711.628 559.633 724.324
711.628 577.982 729.73
711.628 596.33 778.378
711.628 614.679 772.973
711.628 633.028 735.135
711.628 651.376 729.73
711.628 669.725 718.919
711.628 688.073 713.514
711.628 706.422 702.703
711.628 715.596 5.40541
711.628 724.771 697.297
711.628 743.119 627.027
711.628 752.294 367.568
711.628 761.468 632.432
711.628 779.817 313.514
711.628 788.991 313.514
711.628 798.165 432.432
716.279 486.239 675.676
716.279 495.413 118.919
716.279 504.587 708.108
716.279 522.936 740.541
716.279 532.11 27.027
716.279 541.284 740.541
716.279 559.633 724.324
716.279 577.982 724.324
716.279 596.33 783.784
716.279 614.679 778.378
716.279 633.028 735.135
716.279 651.376 735.135
716.279 669.725 724.324
716.279 688.073 718.919
716.279 706.422 708.108
716.279 724.771 702.703
716.279 743.119 648.649
716.279 752.294 297.297
716.279 761.468 654.054
716.279 779.817 308.108
716.279 788.991 308.108
716.279 798.165 308.108
720.93 486.239 600
720.93 495.413 162.162
720.93 504.587 675.676
720.93 522.936 740.541
720.93 532.11 37.8378
720.93 541.284 740.541
720.93 559.633 724.324
720.93 577.982 724.324
720.93 596.33 783.784
720.93 614.679 783.784
720.93 633.028 735.135
720.93 651.376 735.135
720.93 669.725 729.73
720.93 688.073 724.324
720.93 706.422 713.514
720.93 715.596 5.40541
720.93 724.771 702.703
720.93 743.119 675.676
720.93 752.294 335.135
720.93 761.468 675.676
720.93 779.817 308.108
720.93 788.991 308.108
720.93 798.165 308.108
725.581 486.239 378.378
725.581 495.413 378.378
725.581 504.587 600
725.581 522.936 724.324
725.581 532.11 194.595
725.581 541.284 740.541
725.581 559.633 718.919
725.581 577.982 724.324
725.581 596.33 783.784
725.581 614.679 783.784
725.581 633.028 745.946
725.581 642.202 5.40541
725.581 651.376 740.541
725.581 669.725 729.73
725.581 688.073 729.73
725.581 706.422 713.514
725.581 715.596 37.8378
725.581 724.771 713.514
725.581 743.119 686.486
725.581 752.294 243.243
725.581 761.468 686.486
725.581 779.817 308.108
725.581 788.991 308.108
725.581 798.165 308.108
730.233 504.587 378.378
730.233 522.936 686.486
730.233 532.11 432.432
730.233 541.284 713.514
730.233 559.633 718.919
730.233 568.807 16.2162
730.233 577.982 718.919
730.233 596.33 783.784
730.233 614.679 783.784
730.233 633.028 756.757
730.233 651.376 745.946
730.233 669.725 724.324
730.233 688.073 724.324
730.233 706.422 713.514
730.233 715.596 32.4324
730.233 724.771 713.514
730.233 743.119 691.892
730.233 752.294 108.108
730.233 761.468 691.892
730.233 779.817 308.108
730.233 788.991 308.108
730.233 798.165 308.108
734.884 522.936 670.27
734.884 532.11 259.459
734.884 541.284 691.892
734.884 559.633 718.919
734.884 568.807 54.0541
734.884 577.982 713.514
734.884 596.33 783.784
734.884 614.679 783.784
734.884 633.028 762.162
734.884 651.376 751.351
734.884 669.725 724.324
734.884 678.899 16.2162
734.884 688.073 724.324
734.884 706.422 713.514
734.884 715.596 102.703
734.884 724.771 713.514
734.884 743.119 691.892
734.884 752.294 81.0811
734.884 761.468 691.892
734.884 779.817 578.378
734.884 788.991 578.378
734.884 798.165 578.378
734.884 816.514 308.108
734.884 825.688 308.108
734.884 834.862 308.108
739.535 522.936 670.27
739.535 532.11 259.459
739.535 541.284 670.27
739.535 559.633 718.919
739.535 568.807 27.027
739.535 577.982 718.919
739.535 596.33 783.784
739.535 614.679 783.784
739.535 633.028 762.162
739.535 651.376 762.162
739.535 669.725 729.73
739.535 688.073 729.73
739.535 706.422 713.514
739.535 715.596 64.8649
739.535 724.771 713.514
739.535 743.119 691.892
739.535 752.294 91.8919
739.535 761.468 691.892
739.535 779.817 600
739.535 788.991 383.784
739.535 798.165 600
739.535 816.514 308.108
739.535 825.688 308.108
739.535 834.862 308.108
744.186 522.936 670.27
744.186 532.11 340.541
744.186 541.284 670.27
744.186 559.633 718.919
744.186 568.807 21.6216
744.186 577.982 718.919
744.186 596.33 778.378
744.186 614.679 783.784
744.186 633.028 767.568
744.186 651.376 762.162
744.186 669.725 735.135
744.186 688.073 729.73
744.186 706.422 713.514
744.186 715.596 81.0811
744.186 724.771 713.514
744.186 743.119 691.892
744.186 752.294 81.0811
744.186 761.468 691.892
744.186 779.817 654.054
744.186 788.991 410.811
744.186 798.165 654.054
744.186 816.514 308.108
744.186 825.688 308.108
744.186 834.862 308.108
748.837 522.936 670.27
748.837 532.11 297.297
748.837 541.284 691.892
748.837 559.633 718.919
748.837 568.807 27.027
748.837 577.982 718.919
748.837 596.33 783.784
748.837 614.679 783.784
748.837 633.028 756.757
748.837 651.376 767.568
748.837 669.725 740.541
748.837 678.899 5.40541
748.837 688.073 735.135
748.837 706.422 718.919
748.837 715.596 91.8919
748.837 724.771 713.514
748.837 743.119 691.892
748.837 752.294 102.703
748.837 761.468 691.892
748.837 779.817 654.054
748.837 788.991 286.486
748.837 798.165 654.054
748.837 816.514 308.108
748.837 825.688 308.108
748.837 834.862 308.108
753.488 522.936 675.676
753.488 532.11 237.838
753.488 541.284 670.27
753.488 559.633 718.919
753.488 568.807 37.8378
753.488 577.982 718.919
753.488 596.33 783.784
753.488 614.679 778.378
753.488 633.028 762.162
753.488 651.376 762.162
753.488 669.725 745.946
753.488 678.899 16.2162
753.488 688.073 735.135
753.488 706.422 713.514
753.488 715.596 135.135
753.488 724.771 713.514
753.488 743.119 691.892
753.488 752.294 21.6216
753.488 761.468 691.892
753.488 779.817 664.865
753.488 788.991 329.73
753.488 798.165 659.459
753.488 816.514 302.703
753.488 825.688 302.703
753.488 834.862 302.703
758.14 522.936 675.676
758.14 532.11 118.919
758.14 541.284 675.676
758.14 559.633 724.324
758.14 568.807 48.6486
758.14 577.982 724.324
758.14 596.33 783.784
758.14 614.679 783.784
758.14 633.028 767.568
758.14 651.376 762.162
758.14 669.725 751.351
758.14 688.073 751.351
758.14 706.422 724.324
758.14 715.596 86.4865
758.14 724.771 718.919
758.14 743.119 691.892
758.14 752.294 10.8108
758.14 761.468 691.892
758.14 779.817 670.27
758.14 788.991 281.081
758.14 798.165 670.27
758.14 816.514 454.054
758.14 825.688 454.054
758.14 834.862 454.054
762.791 522.936 675.676
762.791 532.11 118.919
762.791 541.284 675.676
762.791 559.633 724.324
762.791 568.807 0
762.791 577.982 724.324
762.791 596.33 783.784
762.791 614.679 783.784
762.791 633.028 767.568
762.791 651.376 767.568
762.791 669.725 745.946
762.791 678.899 10.8108
762.791 688.073 745.946
762.791 706.422 735.135
762.791 715.596 43.2432
762.791 724.771 724.324
762.791 743.119 691.892
762.791 752.294 16.2162
762.791 761.468 697.297
762.791 779.817 664.865
762.791 788.991 167.568
762.791 798.165 670.27
762.791 816.514 481.081
762.791 825.688 481.081
762.791 834.862 524.324
767.442 522.936 600
767.442 532.11 237.838
767.442 541.284 675.676
767.442 559.633 724.324
767.442 568.807 70.2703
767.442 577.982 724.324
767.442 596.33 783.784
767.442 614.679 783.784
767.442 633.028 772.973
767.442 651.376 767.568
767.442 669.725 740.541
767.442 688.073 751.351
767.442 706.422 735.135
767.442 715.596 43.2432
767.442 724.771 729.73
767.442 743.119 686.486
767.442 752.294 156.757
767.442 761.468 697.297
767.442 779.817 681.081
767.442 788.991 118.919
767.442 798.165 681.081
767.442 816.514 589.189
767.442 825.688 589.189
767.442 834.862 583.784
772.093 522.936 529.73
772.093 532.11 237.838
772.093 541.284 600
772.093 559.633 735.135
772.093 568.807 81.0811
772.093 577.982 724.324
772.093 596.33 778.378
772.093 614.679 783.784
772.093 633.028 767.568
772.093 651.376 767.568
772.093 669.725 740.541
772.093 688.073 740.541
772.093 706.422 724.324
772.093 715.596 16.2162
772.093 724.771 729.73
772.093 743.119 686.486
772.093 752.294 189.189
772.093 761.468 686.486
772.093 779.817 686.486
772.093 788.991 81.0811
772.093 798.165 681.081
772.093 816.514 616.216
772.093 825.688 481.081
772.093 834.862 616.216
776.744 522.936 383.784
776.744 532.11 383.784
776.744 541.284 529.73
776.744 559.633 735.135
776.744 568.807 54.0541
776.744 577.982 735.135
776.744 596.33 772.973
776.744 614.679 778.378
776.744 633.028 762.162
776.744 642.202 0
776.744 651.376 772.973
776.744 669.725 740.541
776.744 688.073 740.541
776.744 706.422 713.514
776.744 715.596 16.2162
776.744 724.771 724.324
776.744 743.119 691.892
776.744 752.294 183.784
776.744 761.468 691.892
776.744 779.817 686.486
776.744 788.991 48.6486
776.744 798.165 686.486
776.744 816.514 616.216
776.744 825.688 616.216
776.744 834.862 632.432
781.395 541.284 383.784
781.395 559.633 740.541
781.395 568.807 113.514
781.395 577.982 735.135
781.395 596.33 767.568
781.395 614.679 772.973
781.395 633.028 756.757
781.395 642.202 16.2162
781.395 651.376 762.162
781.395 669.725 729.73
781.395 688.073 740.541
781.395 706.422 708.108
781.395 715.596 16.2162
781.395 724.771 713.514
781.395 743.119 691.892
781.395 752.294 48.6486
781.395 761.468 691.892
781.395 779.817 637.838
781.395 788.991 481.081
781.395 798.165 686.486
781.395 816.514 486.486
781.395 825.688 216.216
781.395 834.862 616.216
786.047 559.633 745.946
786.047 568.807 102.703
786.047 577.982 740.541
786.047 596.33 762.162
786.047 614.679 762.162
786.047 633.028 735.135
786.047 642.202 21.6216
786.047 651.376 745.946
786.047 669.725 713.514
786.047 678.899 27.027
786.047 688.073 729.73
786.047 706.422 708.108
786.047 715.596 37.8378
786.047 724.771 708.108
786.047 743.119 691.892
786.047 752.294 124.324
786.047 761.468 691.892
786.047 779.817 621.622
786.047 788.991 470.27
786.047 798.165 648.649
786.047 816.514 351.351
786.047 825.688 351.351
786.047 834.862 486.486
790.698 522.936 281.081
790.698 532.11 281.081
790.698 541.284 281.081
790.698 559.633 751.351
790.698 568.807 64.8649
790.698 577.982 745.946
790.698 596.33 745.946
790.698 614.679 756.757
790.698 633.028 729.73
790.698 651.376 740.541
790.698 669.725 718.919
790.698 678.899 27.027
790.698 688.073 713.514
790.698 706.422 708.108
790.698 715.596 37.8378
790.698 724.771 708.108
790.698 743.119 691.892
790.698 752.294 129.73
790.698 761.468 691.892
790.698 779.817 572.973
790.698 788.991 410.811
790.698 798.165 621.622
790.698 834.862 351.351
795.349 522.936 281.081
795.349 532.11 281.081
795.349 541.284 281.081
795.349 559.633 756.757
795.349 568.807 108.108
795.349 577.982 745.946
795.349 596.33 735.135
795.349 605.505 27.027
795.349 614.679 745.946
795.349 633.028 735.135
795.349 642.202 0
795.349 651.376 729.73
795.349 669.725 718.919
795.349 688.073 718.919
795.349 706.422 708.108
795.349 715.596 37.8378
795.349 724.771 708.108
795.349 743.119 691.892
795.349 752.294 145.946
795.349 761.468 686.486
795.349 779.817 529.73
795.349 788.991 529.73
795.349 798.165 572.973
795.349 816.514 302.703
795.349 825.688 302.703
795.349 834.862 302.703
800 541.284 281.081
800 559.633 756.757
800 568.807 172.973
800 577.982 756.757
800 596.33 735.135
800 605.505 5.40541
800 614.679 735.135
800 633.028 740.541
800 651.376 740.541
800 669.725 718.919
800 678.899 54.0541
800 688.073 713.514
800 706.422 713.514
800 715.596 5.40541
800 724.771 708.108
800 743.119 691.892
800 752.294 145.946
800 761.468 691.892
800 779.817 572.973
800 788.991 572.973
800 798.165 572.973
800 816.514 302.703
800 825.688 302.703
800 834.862 302.703
804.651 522.936 275.676
804.651 532.11 275.676
804.651 541.284 275.676
804.651 559.633 751.351
804.651 568.807 356.757
804.651 577.982 756.757
804.651 596.33 724.324
804.651 605.505 48.6486
804.651 614.679 735.135
804.651 633.028 751.351
804.651 651.376 740.541
804.651 669.725 724.324
804.651 688.073 724.324
804.651 706.422 718.919
804.651 724.771 713.514
804.651 743.119 681.081
804.651 752.294 178.378
804.651 761.468 686.486
804.651 779.817 621.622
804.651 788.991 524.324
804.651 798.165 621.622
804.651 816.514 524.324
804.651 825.688 524.324
804.651 834.862 524.324
809.302 522.936 275.676
809.302 532.11 275.676
809.302 541.284 275.676
809.302 559.633 729.73
809.302 568.807 281.081
809.302 577.982 745.946
809.302 596.33 729.73
809.302 605.505 81.0811
809.302 614.679 729.73
809.302 633.028 762.162
809.302 651.376 751.351
809.302 669.725 740.541
809.302 688.073 729.73
809.302 706.422 729.73
809.302 724.771 724.324
809.302 743.119 686.486
809.302 752.294 75.6757
809.302 761.468 686.486
809.302 779.817 659.459
809.302 788.991 432.432
809.302 798.165 664.865
809.302 816.514 556.757
809.302 825.688 324.324
809.302 834.862 556.757
809.302 862.385 486.486
809.302 871.56 486.486
809.302 880.734 486.486
813.953 541.284 275.676
813.953 559.633 708.108
813.953 568.807 140.541
813.953 577.982 735.135
813.953 596.33 751.351
813.953 605.505 118.919
813.953 614.679 729.73
813.953 633.028 756.757
813.953 651.376 756.757
813.953 669.725 756.757
813.953 688.073 740.541
813.953 706.422 740.541
813.953 724.771 729.73
813.953 743.119 691.892
813.953 752.294 113.514
813.953 761.468 686.486
813.953 779.817 670.27
813.953 788.991 297.297
813.953 798.165 664.865
813.953 816.514 594.595
813.953 825.688 372.973
813.953 834.862 594.595
813.953 862.385 486.486
813.953 871.56 129.73
813.953 880.734 486.486
818.605 559.633 735.135
818.605 568.807 172.973
818.605 577.982 708.108
818.605 596.33 756.757
818.605 605.505 135.135
818.605 614.679 745.946
818.605 633.028 745.946
818.605 642.202 5.40541
818.605 651.376 756.757
818.605 669.725 767.568
818.605 688.073 762.162
818.605 706.422 756.757
818.605 724.771 740.541
818.605 743.119 697.297
818.605 752.294 43.2432
818.605 761.468 691.892
818.605 779.817 670.27
818.605 788.991 302.703
818.605 798.165 675.676
818.605 816.514 594.595
818.605 825.688 572.973
818.605 834.862 605.405
818.605 862.385 486.486
818.605 871.56 189.189
818.605 880.734 486.486
823.256 559.633 735.135
823.256 568.807 129.73
823.256 577.982 735.135
823.256 596.33 762.162
823.256 605.505 108.108
823.256 614.679 745.946
823.256 633.028 751.351
823.256 642.202 124.324
823.256 651.376 751.351
823.256 669.725 772.973
823.256 688.073 767.568
823.256 706.422 762.162
823.256 724.771 756.757
823.256 743.119 708.108
823.256 752.294 10.8108
823.256 761.468 697.297
823.256 779.817 664.865
823.256 788.991 118.919
823.256 798.165 670.27
823.256 816.514 572.973
823.256 825.688 562.162
823.256 834.862 610.811
823.256 862.385 486.486
823.256 871.56 189.189
823.256 880.734 486.486
827.907 559.633 551.351
827.907 568.807 248.649
827.907 577.982 735.135
827.907 596.33 772.973
827.907 605.505 145.946
827.907 614.679 762.162
827.907 633.028 772.973
827.907 642.202 221.622
827.907 651.376 751.351
827.907 669.725 767.568
827.907 688.073 772.973
827.907 706.422 767.568
827.907 724.771 762.162
827.907 743.119 724.324
827.907 761.468 708.108
827.907 779.817 664.865
827.907 788.991 129.73
827.907 798.165 670.27
827.907 816.514 589.189
827.907 825.688 308.108
827.907 834.862 589.189
827.907 862.385 524.324
827.907 871.56 308.108
827.907 880.734 524.324
832.558 559.633 400
832.558 568.807 400
832.558 577.982 551.351
832.558 596.33 772.973
832.558 605.505 167.568
832.558 614.679 772.973
832.558 633.028 767.568
832.558 642.202 75.6757
832.558 651.376 772.973
832.558 669.725 756.757
832.558 678.899 27.027
832.558 688.073 767.568
832.558 706.422 772.973
832.558 724.771 767.568
832.558 743.119 724.324
832.558 761.468 718.919
832.558 779.817 654.054
832.558 788.991 216.216
832.558 798.165 664.865
832.558 816.514 605.405
832.558 825.688 308.108
832.558 834.862 610.811
832.558 862.385 551.351
832.558 871.56 313.514
832.558 880.734 551.351
832.558 899.083 308.108
832.558 908.257 308.108
832.558 917.431 308.108
837.209 577.982 400
837.209 596.33 783.784
837.209 605.505 129.73
837.209 614.679 772.973
837.209 633.028 772.973
837.209 642.202 27.027
837.209 651.376 767.568
837.209 669.725 767.568
837.209 678.899 59.4595
837.209 688.073 762.162
837.209 706.422 772.973
837.209 724.771 772.973
837.209 743.119 718.919
837.209 761.468 724.324
837.209 779.817 654.054
837.209 788.991 200
837.209 798.165 659.459
837.209 816.514 616.216
837.209 825.688 194.595
837.209 834.862 616.216
837.209 862.385 583.784
837.209 871.56 362.162
837.209 880.734 583.784
837.209 899.083 308.108
837.209 908.257 308.108
837.209 917.431 308.108
841.86 596.33 762.162
841.86 605.505 400
841.86 614.679 783.784
841.86 633.028 772.973
841.86 642.202 16.2162
841.86 651.376 772.973
841.86 669.725 772.973
841.86 678.899 118.919
841.86 688.073 767.568
841.86 706.422 778.378
841.86 724.771 778.378
841.86 743.119 718.919
841.86 761.468 718.919
841.86 779.817 654.054
841.86 788.991 108.108
841.86 798.165 654.054
841.86 816.514 610.811
841.86 825.688 97.2973
841.86 834.862 616.216
841.86 862.385 600
841.86 871.56 367.568
841.86 880.734 600
841.86 899.083 308.108
841.86 908.257 308.108
841.86 917.431 308.108
846.512 596.33 762.162
846.512 605.505 400
846.512 614.679 762.162
846.512 633.028 772.973
846.512 642.202 16.2162
846.512 651.376 772.973
846.512 669.725 772.973
846.512 678.899 172.973
846.512 688.073 772.973
846.512 706.422 778.378
846.512 724.771 778.378
846.512 743.119 718.919
846.512 761.468 718.919
846.512 779.817 654.054
846.512 788.991 59.4595
846.512 798.165 654.054
846.512 816.514 627.027
846.512 825.688 286.486
846.512 834.862 627.027
846.512 862.385 616.216
846.512 871.56 189.189
846.512 880.734 616.216
846.512 899.083 432.432
846.512 908.257 432.432
846.512 917.431 432.432
851.163 596.33 751.351
851.163 605.505 551.351
851.163 614.679 762.162
851.163 633.028 772.973
851.163 642.202 27.027
851.163 651.376 772.973
851.163 669.725 767.568
851.163 678.899 140.541
851.163 688.073 772.973
851.163 706.422 783.784
851.163 724.771 778.378
851.163 743.119 718.919
851.163 761.468 718.919
851.163 779.817 648.649
851.163 788.991 21.6216
851.163 798.165 648.649
851.163 816.514 632.432
851.163 825.688 221.622
851.163 834.862 637.838
851.163 862.385 621.622
851.163 871.56 189.189
851.163 880.734 621.622
851.163 899.083 432.432
851.163 908.257 308.108
851.163 917.431 432.432
855.814 596.33 751.351
855.814 605.505 248.649
855.814 614.679 751.351
855.814 633.028 772.973
855.814 642.202 129.73
855.814 651.376 772.973
855.814 669.725 772.973
855.814 678.899 140.541
855.814 688.073 767.568
855.814 706.422 783.784
855.814 724.771 783.784
855.814 743.119 713.514
855.814 761.468 718.919
855.814 779.817 654.054
855.814 788.991 27.027
855.814 798.165 654.054
855.814 816.514 637.838
855.814 825.688 91.8919
855.814 834.862 637.838
855.814 862.385 632.432
855.814 871.56 254.054
855.814 880.734 632.432
855.814 899.083 432.432
855.814 908.257 308.108
855.814 917.431 432.432
860.465 596.33 751.351
860.465 605.505 248.649
860.465 614.679 751.351
860.465 633.028 767.568
860.465 642.202 32.4324
860.465 651.376 772.973
860.465 669.725 772.973
860.465 678.899 135.135
860.465 688.073 772.973
860.465 706.422 783.784
860.465 724.771 783.784
860.465 743.119 713.514
860.465 761.468 718.919
860.465 779.817 659.459
860.465 798.165 648.649
860.465 816.514 637.838
860.465 825.688 97.2973
860.465 834.862 643.243
860.465 862.385 643.243
860.465 871.56 221.622
860.465 880.734 637.838
860.465 899.083 432.432
860.465 908.257 308.108
860.465 917.431 432.432
865.116 596.33 702.703
865.116 605.505 248.649
865.116 614.679 751.351
865.116 633.028 767.568
865.116 642.202 113.514
865.116 651.376 767.568
865.116 669.725 778.378
865.116 678.899 75.6757
865.116 688.073 772.973
865.116 706.422 783.784
865.116 724.771 783.784
865.116 743.119 708.108
865.116 761.468 713.514
865.116 779.817 659.459
865.116 798.165 659.459
865.116 816.514 637.838
865.116 825.688 32.4324
865.116 834.862 643.243
865.116 862.385 643.243
865.116 871.56 243.243
865.116 880.734 637.838
865.116 899.083 491.892
865.116 908.257 432.432
865.116 917.431 491.892
869.767 596.33 551.351
869.767 605.505 400
869.767 614.679 702.703
869.767 633.028 772.973
869.767 642.202 151.351
869.767 651.376 767.568
869.767 669.725 772.973
869.767 678.899 21.6216
869.767 688.073 778.378
869.767 706.422 783.784
869.767 724.771 783.784
869.767 743.119 702.703
869.767 752.294 27.027
869.767 761.468 713.514
869.767 779.817 654.054
869.767 788.991 16.2162
869.767 798.165 659.459
869.767 816.514 637.838
869.767 834.862 637.838
869.767 862.385 648.649
869.767 871.56 313.514
869.767 880.734 648.649
869.767 899.083 551.351
869.767 908.257 529.73
869.767 917.431 551.351
874.419 596.33 400
874.419 605.505 400
874.419 614.679 551.351
874.419 633.028 751.351
874.419 642.202 286.486
874.419 651.376 772.973
874.419 669.725 772.973
874.419 678.899 32.4324
874.419 688.073 772.973
874.419 706.422 789.189
874.419 724.771 789.189
874.419 743.119 702.703
874.419 752.294 32.4324
874.419 761.468 702.703
874.419 779.817 654.054
874.419 788.991 21.6216
874.419 798.165 659.459
874.419 816.514 643.243
874.419 834.862 643.243
874.419 862.385 648.649
874.419 871.56 183.784
874.419 880.734 654.054
874.419 899.083 610.811
874.419 908.257 432.432
874.419 917.431 610.811
879.07 614.679 400
879.07 633.028 702.703
879.07 642.202 129.73
879.07 651.376 751.351
879.07 669.725 767.568
879.07 678.899 37.8378
879.07 688.073 772.973
879.07 706.422 789.189
879.07 724.771 789.189
879.07 743.119 718.919
879.07 752.294 178.378
879.07 761.468 708.108
879.07 779.817 659.459
879.07 788.991 10.8108
879.07 798.165 654.054
879.07 816.514 643.243
879.07 834.862 643.243
879.07 862.385 648.649
879.07 880.734 648.649
879.07 899.083 632.432
879.07 908.257 313.514
879.07 917.431 632.432
883.721 651.376 702.703
883.721 669.725 762.162
883.721 678.899 54.0541
883.721 688.073 767.568
883.721 706.422 789.189
883.721 715.596 48.6486
883.721 724.771 789.189
883.721 743.119 740.541
883.721 752.294 70.2703
883.721 761.468 724.324
883.721 779.817 664.865
883.721 788.991 140.541
883.721 798.165 659.459
883.721 816.514 643.243
883.721 825.688 64.8649
883.721 834.862 643.243
883.721 862.385 643.243
883.721 880.734 643.243
883.721 899.083 637.838
883.721 908.257 189.189
883.721 917.431 637.838
883.721 944.954 567.568
883.721 954.128 567.568
883.721 963.303 567.568
888.372 669.725 762.162
888.372 678.899 43.2432
888.372 688.073 762.162
888.372 706.422 794.595
888.372 715.596 140.541
888.372 724.771 789.189
888.372 743.119 772.973
888.372 752.294 135.135
888.372 761.468 751.351
888.372 779.817 691.892
888.372 788.991 264.865
888.372 798.165 670.27
888.372 816.514 643.243
888.372 825.688 194.595
888.372 834.862 643.243
888.372 862.385 643.243
888.372 880.734 643.243
888.372 899.083 643.243
888.372 908.257 145.946
888.372 917.431 643.243
888.372 944.954 572.973
888.372 954.128 156.757
888.372 963.303 572.973
888.372 981.651 308.108
888.372 990.826 308.108
888.372 1000 308.108
893.023 669.725 702.703
893.023 678.899 405.405
893.023 688.073 762.162
893.023 706.422 789.189
893.023 715.596 216.216
893.023 724.771 794.595
893.023 743.119 778.378
893.023 752.294 59.4595
893.023 761.468 772.973
893.023 779.817 708.108
893.023 788.991 286.486
893.023 798.165 708.108
893.023 816.514 654.054
893.023 825.688 129.73
893.023 834.862 643.243
893.023 862.385 654.054
893.023 880.734 643.243
893.023 899.083 643.243
893.023 908.257 151.351
893.023 917.431 643.243
893.023 944.954 583.784
893.023 954.128 313.514
893.023 963.303 583.784
893.023 981.651 308.108
893.023 990.826 308.108
893.023 1000 308.108
897.674 669.725 400
897.674 678.899 400
897.674 688.073 702.703
897.674 706.422 789.189
897.674 715.596 281.081
897.674 724.771 789.189
897.674 743.119 783.784
897.674 761.468 778.378
897.674 779.817 729.73
897.674 788.991 378.378
897.674 798.165 729.73
897.674 816.514 691.892
897.674 825.688 167.568
897.674 834.862 664.865
897.674 862.385 654.054
897.674 880.734 654.054
897.674 899.083 643.243
897.674 908.257 64.8649
897.674 917.431 643.243
897.674 944.954 600
897.674 954.128 351.351
897.674 963.303 600
897.674 981.651 308.108
897.674 990.826 308.108
897.674 1000 308.108
902.326 688.073 400
902.326 706.422 789.189
902.326 715.596 194.595
902.326 724.771 789.189
902.326 743.119 783.784
902.326 761.468 783.784
902.326 779.817 745.946
902.326 788.991 194.595
902.326 798.165 740.541
902.326 816.514 724.324
902.326 825.688 394.595
902.326 834.862 708.108
902.326 862.385 659.459
902.326 871.56 48.6486
902.326 880.734 659.459
902.326 899.083 648.649
902.326 908.257 81.0811
902.326 917.431 648.649
902.326 944.954 594.595
902.326 954.128 351.351
902.326 963.303 600
902.326 981.651 308.108
902.326 990.826 308.108
902.326 1000 308.108
906.977 706.422 789.189
906.977 715.596 151.351
906.977 724.771 789.189
906.977 743.119 789.189
906.977 761.468 783.784
906.977 779.817 767.568
906.977 788.991 156.757
906.977 798.165 751.351
906.977 816.514 745.946
906.977 825.688 270.27
906.977 834.862 735.135
906.977 862.385 664.865
906.977 871.56 54.0541
906.977 880.734 654.054
906.977 899.083 648.649
906.977 908.257 21.6216
906.977 917.431 648.649
906.977 944.954 551.351
906.977 954.128 383.784
906.977 963.303 594.595
906.977 1000 308.108
911.628 706.422 772.973
911.628 715.596 302.703
911.628 724.771 789.189
911.628 743.119 789.189
911.628 761.468 789.189
911.628 779.817 767.568
911.628 788.991 10.8108
911.628 798.165 767.568
911.628 816.514 751.351
911.628 825.688 216.216
911.628 834.862 745.946
911.628 862.385 659.459
911.628 871.56 54.0541
911.628 880.734 664.865
911.628 899.083 643.243
911.628 908.257 21.6216
911.628 917.431 648.649
911.628 944.954 308.108
911.628 954.128 308.108
911.628 963.303 551.351
916.279 706.422 772.973
916.279 715.596 270.27
916.279 724.771 772.973
916.279 743.119 794.595
916.279 752.294 64.8649
916.279 761.468 794.595
916.279 779.817 772.973
916.279 798.165 767.568
916.279 816.514 745.946
916.279 825.688 91.8919
916.279 834.862 751.351
916.279 862.385 659.459
916.279 871.56 54.0541
916.279 880.734 664.865
916.279 899.083 637.838
916.279 908.257 48.6486
916.279 917.431 643.243
916.279 963.303 308.108
920.93 706.422 735.135
920.93 715.596 459.459
920.93 724.771 772.973
920.93 743.119 783.784
920.93 752.294 102.703
920.93 761.468 789.189
920.93 779.817 778.378
920.93 798.165 778.378
920.93 816.514 740.541
920.93 825.688 86.4865
920.93 834.862 740.541
920.93 862.385 670.27
920.93 871.56 0
920.93 880.734 664.865
920.93 899.083 632.432
920.93 908.257 21.6216
920.93 917.431 643.243
925.581 706.422 594.595
925.581 715.596 367.568
925.581 724.771 729.73
925.581 743.119 778.378
925.581 752.294 156.757
925.581 761.468 783.784
925.581 779.817 783.784
925.581 798.165 778.378
925.581 816.514 702.703
925.581 825.688 167.568
925.581 834.862 724.324
925.581 862.385 675.676
925.581 880.734 670.27
925.581 899.083 621.622
925.581 908.257 205.405
925.581 917.431 632.432
930.233 706.422 578.378
930.233 715.596 443.243
930.233 724.771 600
930.233 743.119 772.973
930.233 752.294 59.4595
930.233 761.468 772.973
930.233 779.817 789.189
930.233 798.165 783.784
930.233 816.514 681.081
930.233 825.688 32.4324
930.233 834.862 702.703
930.233 862.385 664.865
930.233 880.734 675.676
930.233 899.083 589.189
930.233 908.257 518.919
930.233 917.431 627.027
934.884 706.422 448.649
934.884 715.596 389.189
934.884 724.771 567.568
934.884 743.119 783.784
934.884 752.294 81.0811
934.884 761.468 778.378
934.884 779.817 767.568
934.884 788.991 21.6216
934.884 798.165 778.378
934.884 816.514 659.459
934.884 834.862 681.081
934.884 862.385 654.054
934.884 880.734 664.865
934.884 899.083 421.622
934.884 908.257 421.622
934.884 917.431 589.189
939.535 706.422 529.73
939.535 715.596 508.108
939.535 724.771 545.946
939.535 743.119 783.784
939.535 752.294 0
939.535 761.468 778.378
939.535 779.817 718.919
939.535 788.991 32.4324
939.535 798.165 756.757
939.535 816.514 654.054
939.535 834.862 659.459
939.535 862.385 637.838
939.535 871.56 167.568
939.535 880.734 659.459
939.535 917.431 421.622
944.186 706.422 605.405
944.186 715.596 524.324
944.186 724.771 605.405
944.186 743.119 789.189
944.186 761.468 789.189
944.186 779.817 686.486
944.186 788.991 21.6216
944.186 798.165 724.324
944.186 816.514 648.649
944.186 825.688 54.0541
944.186 834.862 654.054
944.186 862.385 470.27
944.186 871.56 470.27
944.186 880.734 637.838
948.837 706.422 659.459
948.837 715.596 518.919
948.837 724.771 654.054
948.837 743.119 794.595
948.837 761.468 789.189
948.837 779.817 670.27
948.837 788.991 16.2162
948.837 798.165 681.081
948.837 816.514 600
948.837 825.688 389.189
948.837 834.862 648.649
948.837 880.734 470.27
953.488 706.422 697.297
953.488 715.596 405.405
953.488 724.771 691.892
953.488 743.119 794.595
953.488 761.468 794.595
953.488 779.817 654.054
953.488 788.991 21.6216
953.488 798.165 675.676
953.488 816.514 497.297
953.488 825.688 497.297
953.488 834.862 605.405
958.14 669.725 443.243
958.14 678.899 443.243
958.14 688.073 443.243
958.14 706.422 724.324
958.14 715.596 372.973
958.14 724.771 724.324
958.14 743.119 789.189
958.14 761.468 794.595
958.14 779.817 616.216
958.14 788.991 259.459
958.14 798.165 654.054
958.14 816.514 286.486
958.14 825.688 286.486
958.14 834.862 497.297
962.791 633.028 567.568
962.791 642.202 567.568
962.791 651.376 567.568
962.791 669.725 664.865
962.791 678.899 664.865
962.791 688.073 664.865
962.791 706.422 751.351
962.791 715.596 145.946
962.791 724.771 745.946
962.791 743.119 767.568
962.791 752.294 16.2162
962.791 761.468 783.784
962.791 779.817 594.595
962.791 788.991 535.135
962.791 798.165 621.622
962.791 816.514 286.486
962.791 825.688 286.486
962.791 834.862 286.486
967.442 596.33 616.216
967.442 605.505 616.216
967.442 614.679 616.216
967.442 633.028 632.432
967.442 642.202 572.973
967.442 651.376 632.432
967.442 669.725 664.865
967.442 678.899 383.784
967.442 688.073 659.459
967.442 706.422 772.973
967.442 715.596 48.6486
967.442 724.771 751.351
967.442 743.119 745.946
967.442 752.294 43.2432
967.442 761.468 767.568
