570.093 60.6061 609.195
570.093 68.1818 626.437
570.093 75.7576 505.747
570.093 83.3333 540.23
570.093 90.9091 511.494
570.093 98.4848 568.966
570.093 106.061 511.494
570.093 113.636 511.494
570.093 121.212 471.264
570.093 128.788 333.333
570.093 136.364 482.759
570.093 143.939 304.598
570.093 393.939 11.4943
570.093 401.515 149.425
570.093 409.091 482.759
570.093 416.667 477.011
570.093 424.242 224.138
570.093 431.818 500
570.093 439.394 488.506
570.093 446.97 660.92
570.093 454.545 270.115
570.093 462.121 557.471
570.093 469.697 666.667
570.093 477.273 500
570.093 484.848 517.241
570.093 492.424 218.391
570.093 500 218.391
574.766 60.6061 465.517
574.766 68.1818 574.713
574.766 75.7576 568.966
574.766 83.3333 655.172
574.766 90.9091 477.011
574.766 98.4848 367.816
574.766 106.061 413.793
574.766 113.636 660.92
574.766 121.212 574.713
574.766 128.788 396.552
574.766 136.364 482.759
574.766 143.939 408.046
574.766 151.515 132.184
574.766 393.939 11.4943
574.766 401.515 143.678
574.766 409.091 482.759
574.766 416.667 471.264
574.766 424.242 224.138
574.766 431.818 494.253
574.766 439.394 494.253
574.766 446.97 528.736
574.766 454.545 298.851
574.766 462.121 626.437
574.766 469.697 666.667
574.766 477.273 235.632
574.766 484.848 442.529
574.766 492.424 281.609
574.766 500 275.862
579.439 68.1818 333.333
579.439 75.7576 511.494
579.439 83.3333 477.011
579.439 90.9091 419.54
579.439 98.4848 275.862
579.439 106.061 436.782
579.439 113.636 528.736
579.439 121.212 574.713
579.439 128.788 511.494
579.439 136.364 339.08
579.439 143.939 339.08
579.439 151.515 482.759
579.439 159.091 34.4828
579.439 393.939 11.4943
579.439 401.515 143.678
579.439 409.091 477.011
579.439 416.667 471.264
579.439 424.242 224.138
579.439 431.818 505.747
579.439 439.394 310.345
579.439 446.97 557.471
579.439 454.545 666.667
579.439 462.121 580.46
579.439 469.697 500
579.439 477.273 551.724
579.439 484.848 373.563
579.439 492.424 235.632
579.439 500 155.172
584.112 68.1818 258.621
584.112 75.7576 137.931
584.112 90.9091 362.069
584.112 98.4848 408.046
584.112 106.061 413.793
584.112 113.636 517.241
584.112 121.212 367.816
584.112 128.788 517.241
584.112 136.364 402.299
584.112 143.939 436.782
584.112 151.515 408.046
584.112 159.091 304.598
584.112 393.939 11.4943
584.112 401.515 143.678
584.112 409.091 477.011
584.112 416.667 471.264
584.112 424.242 224.138
584.112 431.818 218.391
584.112 439.394 396.552
584.112 446.97 666.667
584.112 454.545 666.667
584.112 462.121 500
584.112 469.697 528.736
584.112 477.273 522.989
584.112 484.848 287.356
584.112 492.424 264.368
584.112 500 149.425
588.785 75.7576 68.9655
588.785 98.4848 408.046
588.785 106.061 408.046
588.785 113.636 586.207
588.785 121.212 344.828
588.785 128.788 459.77
588.785 136.364 477.011
588.785 143.939 339.08
588.785 151.515 402.299
588.785 159.091 367.816
588.785 393.939 11.4943
588.785 401.515 149.425
588.785 409.091 477.011
588.785 416.667 471.264
588.785 424.242 224.138
588.785 431.818 218.391
588.785 439.394 666.667
588.785 446.97 666.667
588.785 454.545 666.667
588.785 462.121 321.839
588.785 469.697 522.989
588.785 477.273 522.989
588.785 484.848 264.368
588.785 492.424 155.172
588.785 500 149.425
593.458 98.4848 494.253
593.458 106.061 408.046
593.458 113.636 522.989
593.458 121.212 344.828
593.458 128.788 586.207
593.458 136.364 339.08
593.458 143.939 344.828
593.458 151.515 454.023
593.458 159.091 419.54
593.458 401.515 80.4598
593.458 409.091 408.046
593.458 416.667 477.011
593.458 424.242 218.391
593.458 431.818 178.161
593.458 439.394 620.69
593.458 446.97 660.92
593.458 454.545 235.632
593.458 462.121 362.069
593.458 469.697 528.736
593.458 477.273 471.264
593.458 484.848 149.425
593.458 492.424 155.172
593.458 500 149.425
598.131 98.4848 488.506
598.131 106.061 408.046
598.131 113.636 465.517
598.131 121.212 408.046
598.131 128.788 534.483
598.131 136.364 344.828
598.131 143.939 356.322
598.131 151.515 379.31
598.131 159.091 367.816
598.131 401.515 17.2414
598.131 409.091 344.828
598.131 416.667 477.011
598.131 424.242 218.391
598.131 431.818 477.011
598.131 439.394 534.483
598.131 446.97 660.92
598.131 454.545 235.632
598.131 462.121 517.241
598.131 469.697 471.264
598.131 477.273 482.759
598.131 484.848 212.644
598.131 492.424 155.172
598.131 500 149.425
602.804 98.4848 344.828
602.804 106.061 454.023
602.804 113.636 408.046
602.804 121.212 580.46
602.804 128.788 465.517
602.804 136.364 356.322
602.804 143.939 431.034
602.804 151.515 471.264
602.804 159.091 327.586
602.804 401.515 11.4943
602.804 409.091 149.425
602.804 416.667 477.011
602.804 424.242 126.437
602.804 431.818 413.793
602.804 439.394 373.563
602.804 446.97 494.253
602.804 454.545 218.391
602.804 462.121 500
602.804 469.697 471.264
602.804 477.273 143.678
602.804 484.848 275.862
602.804 492.424 149.425
602.804 500 149.425
607.477 98.4848 344.828
607.477 106.061 522.989
607.477 113.636 408.046
607.477 121.212 580.46
607.477 128.788 408.046
607.477 136.364 454.023
607.477 143.939 413.793
607.477 151.515 413.793
607.477 159.091 264.368
607.477 401.515 11.4943
607.477 409.091 143.678
607.477 416.667 477.011
607.477 424.242 477.011
607.477 431.818 488.506
607.477 439.394 183.908
607.477 446.97 436.782
607.477 454.545 206.897
607.477 462.121 436.782
607.477 469.697 471.264
607.477 477.273 143.678
607.477 484.848 471.264
607.477 492.424 143.678
607.477 500 155.172
612.15 98.4848 344.828
612.15 106.061 522.989
612.15 113.636 408.046
612.15 121.212 563.218
612.15 128.788 402.299
612.15 136.364 431.034
612.15 143.939 408.046
612.15 151.515 454.023
612.15 159.091 178.161
612.15 401.515 11.4943
612.15 409.091 143.678
612.15 416.667 477.011
612.15 424.242 477.011
612.15 431.818 218.391
612.15 439.394 494.253
612.15 446.97 373.563
612.15 454.545 494.253
612.15 462.121 379.31
612.15 469.697 471.264
612.15 477.273 74.7126
612.15 484.848 408.046
612.15 492.424 155.172
612.15 500 155.172
616.822 98.4848 281.609
616.822 106.061 465.517
616.822 113.636 379.31
616.822 121.212 517.241
616.822 128.788 471.264
616.822 136.364 413.793
616.822 143.939 408.046
616.822 151.515 454.023
616.822 159.091 74.7126
616.822 401.515 11.4943
616.822 409.091 143.678
616.822 416.667 477.011
616.822 424.242 477.011
616.822 431.818 218.391
616.822 439.394 494.253
616.822 446.97 264.368
616.822 454.545 494.253
616.822 462.121 143.678
616.822 469.697 471.264
616.822 477.273 471.264
616.822 484.848 339.08
616.822 492.424 155.172
616.822 500 155.172
621.495 98.4848 580.46
621.495 106.061 459.77
621.495 113.636 580.46
621.495 121.212 528.736
621.495 128.788 459.77
621.495 136.364 408.046
621.495 143.939 408.046
621.495 151.515 454.023
621.495 401.515 11.4943
621.495 409.091 143.678
621.495 416.667 477.011
621.495 424.242 477.011
621.495 431.818 218.391
621.495 439.394 218.391
621.495 446.97 293.103
621.495 454.545 494.253
621.495 462.121 143.678
621.495 469.697 471.264
621.495 477.273 471.264
621.495 484.848 149.425
621.495 492.424 155.172
621.495 500 149.425
626.168 98.4848 603.448
626.168 106.061 454.023
626.168 113.636 632.184
626.168 121.212 522.989
626.168 128.788 459.77
626.168 136.364 408.046
626.168 143.939 356.322
626.168 151.515 413.793
626.168 409.091 80.4598
626.168 416.667 408.046
626.168 424.242 482.759
626.168 431.818 264.368
626.168 439.394 178.161
626.168 446.97 431.034
626.168 454.545 494.253
626.168 462.121 143.678
626.168 469.697 471.264
626.168 477.273 471.264
626.168 484.848 149.425
626.168 492.424 155.172
626.168 500 149.425
626.168 507.576 471.264
630.841 98.4848 454.023
630.841 106.061 454.023
630.841 113.636 522.989
630.841 121.212 517.241
630.841 128.788 459.77
630.841 136.364 408.046
630.841 143.939 488.506
630.841 151.515 379.31
630.841 409.091 11.4943
630.841 416.667 344.828
630.841 424.242 160.92
630.841 431.818 316.092
630.841 439.394 500
630.841 446.97 402.299
630.841 454.545 494.253
630.841 462.121 143.678
630.841 469.697 471.264
630.841 477.273 471.264
630.841 484.848 149.425
630.841 492.424 149.425
630.841 500 149.425
630.841 507.576 471.264
635.514 98.4848 488.506
635.514 106.061 454.023
635.514 113.636 402.299
635.514 121.212 580.46
635.514 128.788 408.046
635.514 136.364 408.046
635.514 143.939 488.506
635.514 151.515 373.563
635.514 409.091 11.4943
635.514 416.667 143.678
635.514 424.242 109.195
635.514 431.818 436.782
635.514 439.394 494.253
635.514 446.97 333.333
635.514 454.545 494.253
635.514 462.121 143.678
635.514 469.697 471.264
635.514 477.273 471.264
635.514 484.848 149.425
635.514 492.424 143.678
635.514 500 155.172
640.187 98.4848 442.529
640.187 106.061 454.023
640.187 113.636 402.299
640.187 121.212 609.195
640.187 128.788 408.046
640.187 136.364 408.046
640.187 143.939 454.023
640.187 151.515 367.816
640.187 280.303 91.954
640.187 287.879 155.172
640.187 295.455 132.184
640.187 303.03 11.4943
640.187 416.667 80.4598
640.187 424.242 408.046
640.187 431.818 379.31
640.187 439.394 500
640.187 446.97 224.138
640.187 454.545 494.253
640.187 462.121 137.931
640.187 469.697 471.264
640.187 477.273 471.264
640.187 484.848 143.678
640.187 492.424 91.954
640.187 500 155.172
644.86 106.061 488.506
644.86 113.636 402.299
644.86 121.212 568.966
644.86 128.788 408.046
644.86 136.364 408.046
644.86 143.939 454.023
644.86 151.515 419.54
644.86 250 11.4943
644.86 257.576 34.4828
644.86 265.152 86.2069
644.86 272.727 45.977
644.86 280.303 155.172
644.86 287.879 287.356
644.86 295.455 350.575
644.86 303.03 149.425
644.86 310.606 11.4943
644.86 416.667 11.4943
644.86 424.242 344.828
644.86 431.818 224.138
644.86 439.394 517.241
644.86 446.97 224.138
644.86 454.545 494.253
644.86 462.121 137.931
644.86 469.697 471.264
644.86 477.273 471.264
644.86 484.848 143.678
644.86 492.424 471.264
644.86 500 155.172
649.533 106.061 540.23
649.533 113.636 482.759
649.533 121.212 540.23
649.533 128.788 459.77
649.533 136.364 356.322
649.533 143.939 431.034
649.533 151.515 396.552
649.533 242.424 11.4943
649.533 250 149.425
649.533 257.576 149.425
649.533 265.152 287.356
649.533 272.727 160.92
649.533 280.303 160.92
649.533 287.879 488.506
649.533 295.455 350.575
649.533 303.03 465.517
649.533 310.606 281.609
649.533 416.667 11.4943
649.533 424.242 155.172
649.533 431.818 189.655
649.533 439.394 459.77
649.533 446.97 281.609
649.533 454.545 500
649.533 462.121 74.7126
649.533 469.697 408.046
649.533 477.273 471.264
649.533 484.848 143.678
649.533 492.424 471.264
649.533 500 149.425
654.206 106.061 522.989
654.206 113.636 494.253
654.206 121.212 471.264
654.206 128.788 431.034
654.206 136.364 431.034
654.206 143.939 454.023
654.206 151.515 379.31
654.206 242.424 11.4943
654.206 250 149.425
654.206 257.576 149.425
654.206 265.152 482.759
654.206 272.727 419.54
654.206 280.303 327.586
654.206 287.879 488.506
654.206 295.455 350.575
654.206 303.03 522.989
654.206 310.606 350.575
654.206 318.182 40.2299
654.206 416.667 11.4943
654.206 424.242 155.172
654.206 431.818 494.253
654.206 439.394 402.299
654.206 446.97 218.391
654.206 454.545 482.759
654.206 462.121 477.011
654.206 469.697 339.08
654.206 477.273 471.264
654.206 484.848 149.425
654.206 492.424 477.011
654.206 500 91.954
654.206 507.576 149.425
658.879 98.4848 339.08
658.879 106.061 517.241
658.879 113.636 494.253
658.879 121.212 459.77
658.879 128.788 494.253
658.879 136.364 413.793
658.879 143.939 454.023
658.879 151.515 373.563
658.879 242.424 11.4943
658.879 250 155.172
658.879 257.576 149.425
658.879 265.152 488.506
658.879 272.727 482.759
658.879 280.303 385.057
658.879 287.879 488.506
658.879 295.455 350.575
658.879 303.03 528.736
658.879 310.606 350.575
658.879 318.182 362.069
658.879 416.667 11.4943
658.879 424.242 155.172
658.879 431.818 500
658.879 439.394 235.632
658.879 446.97 132.184
658.879 454.545 574.713
658.879 462.121 477.011
658.879 469.697 143.678
658.879 477.273 477.011
658.879 484.848 143.678
658.879 492.424 477.011
658.879 500 155.172
658.879 507.576 149.425
663.551 98.4848 344.828
663.551 106.061 488.506
663.551 113.636 494.253
663.551 121.212 459.77
663.551 128.788 494.253
663.551 136.364 356.322
663.551 143.939 402.299
663.551 151.515 373.563
663.551 242.424 11.4943
663.551 250 155.172
663.551 257.576 149.425
663.551 265.152 488.506
663.551 272.727 500
663.551 280.303 419.54
663.551 287.879 534.483
663.551 295.455 356.322
663.551 303.03 528.736
663.551 310.606 350.575
663.551 318.182 413.793
663.551 325.758 11.4943
663.551 416.667 11.4943
663.551 424.242 155.172
663.551 431.818 500
663.551 439.394 235.632
663.551 446.97 580.46
663.551 454.545 488.506
663.551 462.121 477.011
663.551 469.697 143.678
663.551 477.273 477.011
663.551 484.848 143.678
663.551 492.424 477.011
663.551 500 155.172
668.224 98.4848 528.736
668.224 106.061 459.77
668.224 113.636 459.77
668.224 121.212 459.77
668.224 128.788 494.253
668.224 136.364 557.471
668.224 143.939 362.069
668.224 151.515 373.563
668.224 242.424 11.4943
668.224 250 155.172
668.224 257.576 149.425
668.224 265.152 488.506
668.224 272.727 511.494
668.224 280.303 454.023
668.224 287.879 534.483
668.224 295.455 356.322
668.224 303.03 528.736
668.224 310.606 350.575
668.224 318.182 413.793
668.224 325.758 218.391
668.224 416.667 11.4943
668.224 424.242 155.172
668.224 431.818 500
668.224 439.394 218.391
668.224 446.97 500
668.224 454.545 224.138
668.224 462.121 500
668.224 469.697 143.678
668.224 477.273 477.011
668.224 484.848 143.678
668.224 492.424 477.011
668.224 500 178.161
672.897 98.4848 557.471
672.897 106.061 459.77
672.897 113.636 459.77
672.897 121.212 494.253
672.897 128.788 494.253
672.897 136.364 580.46
672.897 143.939 339.08
672.897 151.515 373.563
672.897 242.424 11.4943
672.897 250 155.172
672.897 257.576 149.425
672.897 265.152 488.506
672.897 272.727 511.494
672.897 280.303 597.701
672.897 287.879 534.483
672.897 295.455 356.322
672.897 303.03 534.483
672.897 310.606 350.575
672.897 318.182 419.54
672.897 325.758 321.839
672.897 333.333 183.908
672.897 340.909 126.437
672.897 416.667 11.4943
672.897 424.242 155.172
672.897 431.818 500
672.897 439.394 235.632
672.897 446.97 500
672.897 454.545 206.897
672.897 462.121 419.54
672.897 469.697 143.678
672.897 477.273 477.011
672.897 484.848 143.678
672.897 492.424 477.011
672.897 500 183.908
677.57 83.3333 11.4943
677.57 98.4848 488.506
677.57 106.061 454.023
677.57 113.636 454.023
677.57 121.212 494.253
677.57 128.788 494.253
677.57 136.364 402.299
677.57 143.939 275.862
677.57 151.515 339.08
677.57 242.424 11.4943
677.57 250 155.172
677.57 257.576 149.425
677.57 265.152 500
677.57 272.727 528.736
677.57 280.303 632.184
677.57 287.879 557.471
677.57 295.455 356.322
677.57 303.03 534.483
677.57 310.606 373.563
677.57 318.182 511.494
677.57 325.758 500
677.57 333.333 454.023
677.57 340.909 356.322
677.57 348.485 34.4828
677.57 416.667 11.4943
677.57 424.242 160.92
677.57 431.818 494.253
677.57 439.394 224.138
677.57 446.97 505.747
677.57 454.545 505.747
677.57 462.121 408.046
677.57 469.697 143.678
677.57 477.273 477.011
677.57 484.848 143.678
677.57 492.424 477.011
677.57 500 505.747
682.243 83.3333 206.897
682.243 98.4848 344.828
682.243 106.061 500
682.243 113.636 494.253
682.243 121.212 540.23
682.243 128.788 488.506
682.243 136.364 454.023
682.243 143.939 408.046
682.243 151.515 235.632
682.243 242.424 11.4943
682.243 250 155.172
682.243 257.576 206.897
682.243 265.152 540.23
682.243 272.727 505.747
682.243 280.303 482.759
682.243 287.879 540.23
682.243 295.455 477.011
682.243 303.03 591.954
682.243 310.606 390.805
682.243 318.182 528.736
682.243 325.758 350.575
682.243 333.333 344.828
682.243 340.909 402.299
682.243 348.485 304.598
682.243 416.667 11.4943
682.243 424.242 160.92
682.243 431.818 494.253
682.243 439.394 224.138
682.243 446.97 500
682.243 454.545 500
682.243 462.121 149.425
682.243 469.697 143.678
682.243 477.273 477.011
682.243 484.848 143.678
682.243 492.424 477.011
682.243 500 218.391
686.916 106.061 494.253
686.916 113.636 494.253
686.916 121.212 586.207
686.916 128.788 408.046
686.916 136.364 408.046
686.916 143.939 431.034
686.916 151.515 126.437
686.916 242.424 11.4943
686.916 250 189.655
686.916 257.576 287.356
686.916 265.152 534.483
686.916 272.727 333.333
686.916 280.303 505.747
686.916 287.879 614.943
686.916 295.455 563.218
686.916 303.03 597.701
686.916 310.606 482.759
686.916 318.182 563.218
686.916 325.758 350.575
686.916 333.333 413.793
686.916 340.909 522.989
686.916 348.485 367.816
686.916 416.667 11.4943
686.916 424.242 183.908
686.916 431.818 500
686.916 439.394 235.632
686.916 446.97 500
686.916 454.545 500
686.916 462.121 178.161
686.916 469.697 212.644
686.916 477.273 482.759
686.916 484.848 212.644
686.916 492.424 477.011
686.916 500 143.678
691.589 106.061 574.713
691.589 113.636 494.253
691.589 121.212 586.207
691.589 128.788 344.828
691.589 136.364 517.241
691.589 143.939 419.54
691.589 242.424 40.2299
691.589 250 189.655
691.589 257.576 344.828
691.589 265.152 540.23
691.589 272.727 327.586
691.589 280.303 540.23
691.589 287.879 413.793
691.589 295.455 683.908
691.589 303.03 385.057
691.589 310.606 551.724
691.589 318.182 356.322
691.589 325.758 350.575
691.589 333.333 413.793
691.589 340.909 488.506
691.589 348.485 505.747
691.589 416.667 40.2299
691.589 424.242 224.138
691.589 431.818 505.747
691.589 439.394 275.862
691.589 446.97 500
691.589 454.545 511.494
691.589 462.121 143.678
691.589 469.697 281.609
691.589 477.273 143.678
691.589 484.848 281.609
691.589 492.424 477.011
696.262 90.9091 11.4943
696.262 106.061 448.276
696.262 113.636 482.759
696.262 121.212 557.471
696.262 128.788 344.828
696.262 136.364 545.977
696.262 143.939 425.287
696.262 242.424 57.4713
696.262 250 229.885
696.262 257.576 517.241
696.262 265.152 574.713
696.262 272.727 316.092
696.262 280.303 333.333
696.262 287.879 385.057
696.262 295.455 603.448
696.262 303.03 408.046
696.262 310.606 551.724
696.262 318.182 419.54
696.262 325.758 454.023
696.262 333.333 465.517
696.262 340.909 448.276
696.262 348.485 454.023
696.262 356.061 51.7241
696.262 416.667 40.2299
696.262 424.242 224.138
696.262 431.818 224.138
696.262 439.394 327.586
696.262 446.97 500
696.262 454.545 218.391
696.262 462.121 143.678
696.262 469.697 477.011
696.262 477.273 143.678
696.262 484.848 477.011
696.262 492.424 160.92
700.935 106.061 350.575
700.935 113.636 574.713
700.935 121.212 557.471
700.935 128.788 408.046
700.935 136.364 528.736
700.935 143.939 454.023
700.935 242.424 57.4713
700.935 250 229.885
700.935 257.576 522.989
700.935 265.152 275.862
700.935 272.727 408.046
700.935 280.303 321.839
700.935 287.879 563.218
700.935 295.455 672.414
700.935 303.03 436.782
700.935 310.606 568.966
700.935 318.182 488.506
700.935 325.758 356.322
700.935 333.333 551.724
700.935 340.909 344.828
700.935 348.485 568.966
700.935 356.061 408.046
700.935 416.667 91.954
700.935 424.242 270.115
700.935 431.818 189.655
700.935 439.394 505.747
700.935 446.97 500
700.935 454.545 218.391
700.935 462.121 80.4598
700.935 469.697 408.046
700.935 477.273 80.4598
700.935 484.848 408.046
700.935 492.424 155.172
705.607 113.636 540.23
705.607 121.212 551.724
705.607 128.788 459.77
705.607 136.364 459.77
705.607 143.939 517.241
705.607 151.515 17.2414
705.607 242.424 137.931
705.607 250 298.851
705.607 257.576 522.989
705.607 265.152 379.31
705.607 272.727 540.23
705.607 280.303 390.805
705.607 287.879 505.747
705.607 295.455 568.966
705.607 303.03 448.276
705.607 310.606 626.437
705.607 318.182 488.506
705.607 325.758 356.322
705.607 333.333 419.54
705.607 340.909 413.793
705.607 348.485 448.276
705.607 356.061 505.747
705.607 363.636 11.4943
705.607 409.091 11.4943
705.607 416.667 149.425
705.607 424.242 321.839
705.607 431.818 183.908
705.607 439.394 448.276
705.607 446.97 500
705.607 454.545 143.678
705.607 462.121 477.011
705.607 469.697 344.828
705.607 477.273 477.011
705.607 484.848 344.828
705.607 492.424 149.425
710.28 113.636 580.46
710.28 121.212 632.184
710.28 128.788 517.241
710.28 136.364 488.506
710.28 143.939 482.759
710.28 151.515 218.391
710.28 234.848 91.954
710.28 242.424 247.126
710.28 250 350.575
710.28 257.576 321.839
710.28 265.152 339.08
710.28 272.727 367.816
710.28 280.303 373.563
710.28 287.879 241.379
710.28 295.455 471.264
710.28 303.03 597.701
710.28 310.606 419.54
710.28 318.182 488.506
710.28 325.758 356.322
710.28 333.333 419.54
710.28 340.909 522.989
710.28 348.485 344.828
710.28 356.061 517.241
710.28 363.636 218.391
710.28 409.091 11.4943
710.28 416.667 155.172
710.28 424.242 500
710.28 431.818 488.506
710.28 439.394 379.31
710.28 446.97 505.747
710.28 454.545 143.678
710.28 462.121 482.759
710.28 469.697 143.678
710.28 477.273 477.011
710.28 484.848 149.425
710.28 492.424 149.425
714.953 113.636 522.989
714.953 121.212 454.023
714.953 128.788 344.828
714.953 136.364 402.299
714.953 143.939 402.299
714.953 151.515 367.816
714.953 227.273 11.4943
714.953 234.848 160.92
714.953 242.424 350.575
714.953 250 275.862
714.953 257.576 419.54
714.953 265.152 270.115
714.953 272.727 339.08
714.953 280.303 149.425
714.953 287.879 344.828
714.953 295.455 258.621
714.953 303.03 620.69
714.953 310.606 356.322
714.953 318.182 568.966
714.953 325.758 356.322
714.953 333.333 471.264
714.953 340.909 551.724
714.953 348.485 344.828
714.953 356.061 488.506
714.953 363.636 367.816
714.953 409.091 11.4943
714.953 416.667 160.92
714.953 424.242 500
714.953 431.818 500
714.953 439.394 224.138
714.953 446.97 500
714.953 454.545 143.678
714.953 462.121 482.759
714.953 469.697 143.678
714.953 477.273 477.011
714.953 484.848 149.425
714.953 492.424 160.92
719.626 113.636 528.736
719.626 121.212 528.736
719.626 128.788 465.517
719.626 136.364 545.977
719.626 143.939 454.023
719.626 151.515 454.023
719.626 227.273 34.4828
719.626 234.848 166.667
719.626 242.424 258.621
719.626 250 367.816
719.626 257.576 522.989
719.626 265.152 379.31
719.626 272.727 517.241
719.626 280.303 206.897
719.626 287.879 189.655
719.626 303.03 563.218
719.626 310.606 477.011
719.626 318.182 649.425
719.626 325.758 477.011
719.626 333.333 563.218
719.626 340.909 350.575
719.626 348.485 413.793
719.626 356.061 448.276
719.626 363.636 477.011
719.626 409.091 11.4943
719.626 416.667 166.667
719.626 424.242 500
719.626 431.818 517.241
719.626 439.394 241.379
719.626 446.97 511.494
719.626 454.545 218.391
719.626 462.121 488.506
719.626 469.697 206.897
719.626 477.273 482.759
719.626 484.848 235.632
719.626 492.424 235.632
724.299 113.636 574.713
724.299 121.212 551.724
724.299 128.788 522.989
724.299 136.364 517.241
724.299 143.939 454.023
724.299 151.515 454.023
724.299 227.273 91.954
724.299 234.848 258.621
724.299 242.424 229.885
724.299 250 574.713
724.299 257.576 287.356
724.299 265.152 339.08
724.299 272.727 545.977
724.299 280.303 166.667
724.299 287.879 149.425
724.299 303.03 471.264
724.299 310.606 568.966
724.299 318.182 350.575
724.299 325.758 534.483
724.299 333.333 350.575
724.299 340.909 356.322
724.299 348.485 528.736
724.299 356.061 350.575
724.299 363.636 563.218
724.299 371.212 11.4943
724.299 409.091 11.4943
724.299 416.667 166.667
724.299 424.242 505.747
724.299 431.818 534.483
724.299 439.394 241.379
724.299 446.97 275.862
724.299 454.545 281.609
724.299 462.121 137.931
724.299 469.697 275.862
724.299 477.273 149.425
724.299 484.848 149.425
724.299 492.424 218.391
728.972 113.636 557.471
728.972 121.212 454.023
728.972 128.788 465.517
728.972 136.364 448.276
728.972 143.939 442.529
728.972 151.515 454.023
728.972 219.697 11.4943
728.972 227.273 160.92
728.972 234.848 350.575
728.972 242.424 321.839
728.972 250 517.241
728.972 257.576 275.862
728.972 265.152 522.989
728.972 272.727 224.138
728.972 280.303 270.115
728.972 303.03 471.264
728.972 310.606 603.448
728.972 318.182 356.322
728.972 325.758 626.437
728.972 333.333 356.322
728.972 340.909 477.011
728.972 348.485 557.471
728.972 356.061 350.575
728.972 363.636 563.218
728.972 371.212 212.644
728.972 409.091 11.4943
728.972 416.667 166.667
728.972 424.242 505.747
728.972 431.818 500
728.972 439.394 229.885
728.972 446.97 143.678
728.972 454.545 482.759
728.972 462.121 143.678
728.972 469.697 482.759
728.972 477.273 212.644
728.972 484.848 166.667
733.645 113.636 344.828
733.645 121.212 517.241
733.645 128.788 465.517
733.645 136.364 563.218
733.645 143.939 494.253
733.645 151.515 454.023
733.645 219.697 11.4943
733.645 227.273 166.667
733.645 234.848 229.885
733.645 242.424 408.046
733.645 250 241.379
733.645 257.576 367.816
733.645 265.152 505.747
733.645 272.727 166.667
733.645 280.303 149.425
733.645 303.03 471.264
733.645 310.606 603.448
733.645 318.182 419.54
733.645 325.758 632.184
733.645 333.333 356.322
733.645 340.909 540.23
733.645 348.485 356.322
733.645 356.061 350.575
733.645 363.636 551.724
733.645 371.212 356.322
733.645 409.091 11.4943
733.645 416.667 166.667
733.645 424.242 505.747
733.645 431.818 500
733.645 439.394 229.885
733.645 446.97 143.678
733.645 454.545 488.506
733.645 462.121 212.644
733.645 469.697 143.678
733.645 477.273 298.851
733.645 484.848 252.874
738.318 121.212 568.966
738.318 128.788 494.253
738.318 136.364 586.207
738.318 143.939 471.264
738.318 151.515 459.77
738.318 219.697 5.74713
738.318 227.273 166.667
738.318 234.848 229.885
738.318 242.424 678.161
738.318 250 229.885
738.318 257.576 522.989
738.318 265.152 500
738.318 272.727 229.885
738.318 303.03 425.287
738.318 310.606 425.287
738.318 318.182 425.287
738.318 325.758 626.437
738.318 333.333 356.322
738.318 340.909 540.23
738.318 348.485 356.322
738.318 356.061 477.011
738.318 363.636 528.736
738.318 371.212 482.759
738.318 378.788 11.4943
738.318 409.091 5.74713
738.318 416.667 189.655
738.318 424.242 505.747
738.318 431.818 505.747
738.318 439.394 229.885
738.318 446.97 149.425
738.318 454.545 143.678
738.318 462.121 281.609
738.318 469.697 155.172
738.318 477.273 166.667
738.318 484.848 172.414
742.991 121.212 528.736
742.991 128.788 568.966
742.991 136.364 586.207
742.991 143.939 459.77
742.991 151.515 459.77
742.991 219.697 34.4828
742.991 227.273 189.655
742.991 234.848 224.138
742.991 242.424 683.908
742.991 250 287.356
742.991 257.576 511.494
742.991 265.152 252.874
742.991 272.727 149.425
742.991 303.03 465.517
742.991 310.606 471.264
742.991 318.182 477.011
742.991 325.758 649.425
742.991 333.333 356.322
742.991 340.909 540.23
742.991 348.485 356.322
742.991 356.061 534.483
742.991 363.636 350.575
742.991 371.212 517.241
742.991 378.788 218.391
742.991 409.091 40.2299
742.991 416.667 229.885
742.991 424.242 500
742.991 431.818 505.747
742.991 439.394 229.885
742.991 446.97 149.425
742.991 454.545 143.678
742.991 462.121 477.011
742.991 469.697 155.172
742.991 477.273 183.908
747.664 121.212 557.471
747.664 128.788 614.943
747.664 136.364 436.782
747.664 143.939 494.253
747.664 151.515 459.77
747.664 219.697 51.7241
747.664 227.273 224.138
747.664 234.848 229.885
747.664 242.424 517.241
747.664 250 390.805
747.664 257.576 500
747.664 265.152 166.667
747.664 303.03 356.322
747.664 310.606 471.264
747.664 318.182 522.989
747.664 325.758 666.667
747.664 333.333 356.322
747.664 340.909 540.23
747.664 348.485 356.322
747.664 356.061 534.483
747.664 363.636 356.322
747.664 371.212 471.264
747.664 378.788 373.563
747.664 409.091 22.9885
747.664 416.667 195.402
747.664 424.242 442.529
747.664 431.818 505.747
747.664 439.394 229.885
747.664 446.97 149.425
747.664 454.545 143.678
747.664 462.121 477.011
747.664 469.697 160.92
747.664 477.273 183.908
752.336 121.212 534.483
752.336 128.788 500
752.336 136.364 465.517
752.336 143.939 545.977
752.336 151.515 454.023
752.336 219.697 57.4713
752.336 227.273 224.138
752.336 234.848 229.885
752.336 242.424 229.885
752.336 250 574.713
752.336 257.576 241.379
752.336 265.152 275.862
752.336 303.03 356.322
752.336 310.606 511.494
752.336 318.182 540.23
752.336 325.758 540.23
752.336 333.333 356.322
752.336 340.909 540.23
752.336 348.485 425.287
752.336 356.061 563.218
752.336 363.636 356.322
752.336 371.212 471.264
752.336 378.788 459.77
752.336 409.091 22.9885
752.336 416.667 166.667
752.336 424.242 367.816
752.336 431.818 494.253
752.336 439.394 189.655
752.336 446.97 149.425
752.336 454.545 143.678
752.336 462.121 477.011
752.336 469.697 166.667
752.336 477.273 155.172
757.009 121.212 540.23
757.009 128.788 494.253
757.009 136.364 482.759
757.009 143.939 568.966
757.009 151.515 482.759
757.009 219.697 103.448
757.009 227.273 258.621
757.009 234.848 275.862
757.009 242.424 229.885
757.009 250 505.747
757.009 257.576 229.885
757.009 310.606 471.264
757.009 318.182 540.23
757.009 325.758 591.954
757.009 333.333 482.759
757.009 340.909 568.966
757.009 348.485 494.253
757.009 356.061 356.322
757.009 363.636 356.322
757.009 371.212 471.264
757.009 378.788 488.506
757.009 409.091 22.9885
757.009 416.667 166.667
757.009 424.242 528.736
757.009 431.818 488.506
757.009 439.394 505.747
757.009 446.97 74.7126
757.009 454.545 80.4598
757.009 462.121 413.793
757.009 469.697 166.667
757.009 477.273 155.172
761.682 121.212 459.77
761.682 128.788 626.437
761.682 136.364 419.54
761.682 143.939 568.966
761.682 151.515 442.529
761.682 212.121 11.4943
761.682 219.697 189.655
761.682 227.273 241.379
761.682 234.848 327.586
761.682 242.424 241.379
761.682 250 517.241
761.682 257.576 206.897
761.682 310.606 517.241
761.682 318.182 580.46
761.682 325.758 425.287
761.682 333.333 534.483
761.682 340.909 356.322
761.682 348.485 494.253
761.682 356.061 356.322
761.682 363.636 419.54
761.682 371.212 471.264
761.682 378.788 517.241
761.682 409.091 22.9885
761.682 416.667 195.402
761.682 424.242 551.724
761.682 431.818 505.747
761.682 439.394 505.747
761.682 446.97 155.172
761.682 454.545 344.828
761.682 462.121 350.575
761.682 469.697 166.667
761.682 477.273 155.172
766.355 121.212 465.517
766.355 128.788 591.954
766.355 136.364 362.069
766.355 143.939 597.701
766.355 151.515 454.023
766.355 212.121 91.954
766.355 219.697 224.138
766.355 227.273 275.862
766.355 234.848 517.241
766.355 242.424 304.598
766.355 250 275.862
766.355 257.576 212.644
766.355 310.606 517.241
766.355 318.182 580.46
766.355 325.758 482.759
766.355 333.333 655.172
766.355 340.909 356.322
766.355 348.485 540.23
766.355 356.061 350.575
766.355 363.636 419.54
766.355 371.212 471.264
766.355 378.788 580.46
766.355 386.364 17.2414
766.355 409.091 40.2299
766.355 416.667 229.885
766.355 424.242 574.713
766.355 431.818 505.747
766.355 439.394 500
766.355 446.97 149.425
766.355 454.545 149.425
766.355 462.121 155.172
766.355 469.697 166.667
766.355 477.273 155.172
771.028 121.212 465.517
771.028 128.788 568.966
771.028 136.364 459.77
771.028 143.939 517.241
771.028 151.515 385.057
771.028 204.545 11.4943
771.028 212.121 206.897
771.028 219.697 281.609
771.028 227.273 367.816
771.028 234.848 241.379
771.028 242.424 379.31
771.028 250 212.644
771.028 310.606 545.977
771.028 318.182 580.46
771.028 325.758 540.23
771.028 333.333 511.494
771.028 340.909 425.287
771.028 348.485 568.966
771.028 356.061 350.575
771.028 363.636 419.54
771.028 371.212 505.747
771.028 378.788 465.517
771.028 386.364 218.391
771.028 409.091 11.4943
771.028 416.667 212.644
771.028 424.242 643.678
771.028 431.818 511.494
771.028 439.394 505.747
771.028 446.97 212.644
771.028 454.545 149.425
771.028 462.121 155.172
771.028 469.697 166.667
771.028 477.273 155.172
775.701 121.212 522.989
775.701 128.788 568.966
775.701 136.364 557.471
775.701 143.939 557.471
775.701 151.515 333.333
775.701 204.545 103.448
775.701 212.121 287.356
775.701 219.697 241.379
775.701 227.273 517.241
775.701 234.848 287.356
775.701 242.424 500
775.701 250 149.425
775.701 310.606 540.23
775.701 318.182 568.966
775.701 325.758 494.253
775.701 333.333 511.494
775.701 340.909 540.23
775.701 348.485 356.322
775.701 356.061 419.54
775.701 363.636 459.77
775.701 371.212 419.54
775.701 378.788 471.264
775.701 386.364 448.276
775.701 409.091 40.2299
775.701 416.667 229.885
775.701 424.242 500
775.701 431.818 505.747
775.701 439.394 287.356
775.701 446.97 293.103
775.701 454.545 212.644
775.701 462.121 149.425
775.701 469.697 160.92
775.701 477.273 103.448
780.374 121.212 344.828
780.374 128.788 563.218
780.374 136.364 517.241
780.374 143.939 551.724
780.374 151.515 304.598
780.374 196.97 17.2414
780.374 204.545 166.667
780.374 212.121 362.069
780.374 219.697 287.356
780.374 227.273 224.138
780.374 234.848 367.816
780.374 242.424 247.126
780.374 318.182 425.287
780.374 325.758 540.23
780.374 333.333 545.977
780.374 340.909 540.23
780.374 348.485 356.322
780.374 356.061 534.483
780.374 363.636 350.575
780.374 371.212 454.023
780.374 378.788 614.943
780.374 386.364 448.276
780.374 393.939 34.4828
780.374 409.091 34.4828
780.374 416.667 224.138
780.374 424.242 511.494
780.374 431.818 500
780.374 439.394 149.425
780.374 446.97 143.678
780.374 454.545 298.851
780.374 462.121 212.644
780.374 469.697 160.92
780.374 477.273 166.667
785.047 128.788 626.437
785.047 136.364 505.747
785.047 143.939 557.471
785.047 151.515 304.598
785.047 196.97 17.2414
785.047 204.545 166.667
785.047 212.121 270.115
785.047 219.697 252.874
785.047 227.273 321.839
785.047 234.848 505.747
785.047 242.424 298.851
785.047 318.182 568.966
785.047 325.758 632.184
785.047 333.333 545.977
785.047 340.909 540.23
785.047 348.485 356.322
785.047 356.061 534.483
785.047 363.636 350.575
785.047 371.212 419.54
785.047 378.788 413.793
785.047 386.364 413.793
785.047 393.939 356.322
785.047 409.091 34.4828
785.047 416.667 224.138
785.047 424.242 500
785.047 431.818 500
785.047 439.394 137.931
785.047 446.97 91.954
785.047 454.545 143.678
785.047 462.121 281.609
785.047 469.697 183.908
785.047 477.273 235.632
789.72 128.788 655.172
789.72 136.364 534.483
789.72 143.939 528.736
789.72 151.515 218.391
789.72 204.545 103.448
789.72 212.121 241.379
789.72 219.697 229.885
789.72 227.273 339.08
789.72 234.848 522.989
789.72 242.424 218.391
789.72 318.182 356.322
789.72 325.758 534.483
789.72 333.333 534.483
789.72 340.909 540.23
789.72 348.485 356.322
789.72 356.061 540.23
789.72 363.636 419.54
789.72 371.212 459.77
789.72 378.788 545.977
789.72 386.364 551.724
789.72 393.939 459.77
789.72 401.515 17.2414
789.72 409.091 17.2414
789.72 416.667 183.908
789.72 424.242 442.529
789.72 431.818 540.23
789.72 439.394 74.7126
789.72 446.97 408.046
789.72 454.545 143.678
789.72 462.121 477.011
789.72 469.697 160.92
789.72 477.273 321.839
794.393 128.788 603.448
794.393 136.364 511.494
794.393 143.939 511.494
794.393 151.515 252.874
794.393 212.121 149.425
794.393 219.697 229.885
794.393 227.273 522.989
794.393 234.848 356.322
794.393 325.758 649.425
794.393 333.333 637.931
794.393 340.909 568.966
794.393 348.485 425.287
794.393 356.061 568.966
794.393 363.636 488.506
794.393 371.212 350.575
794.393 378.788 459.77
794.393 386.364 344.828
794.393 393.939 408.046
794.393 401.515 143.678
794.393 409.091 11.4943
794.393 416.667 166.667
794.393 424.242 402.299
794.393 431.818 477.011
794.393 439.394 477.011
794.393 446.97 344.828
794.393 454.545 149.425
794.393 462.121 477.011
794.393 469.697 160.92
794.393 477.273 172.414
799.065 128.788 591.954
799.065 136.364 511.494
799.065 143.939 488.506
799.065 151.515 149.425
799.065 212.121 68.9655
799.065 219.697 465.517
799.065 227.273 431.034
799.065 234.848 471.264
799.065 325.758 505.747
799.065 333.333 626.437
799.065 340.909 356.322
799.065 348.485 494.253
799.065 356.061 356.322
799.065 363.636 488.506
799.065 371.212 350.575
799.065 378.788 419.54
799.065 386.364 362.069
799.065 393.939 488.506
799.065 401.515 80.4598
799.065 409.091 34.4828
799.065 416.667 189.655
799.065 424.242 270.115
799.065 431.818 477.011
799.065 439.394 477.011
799.065 446.97 74.7126
799.065 454.545 80.4598
799.065 462.121 413.793
799.065 469.697 166.667
803.738 128.788 597.701
803.738 136.364 488.506
803.738 143.939 425.287
803.738 151.515 80.4598
803.738 212.121 34.4828
803.738 219.697 218.391
803.738 227.273 482.759
803.738 234.848 431.034
803.738 318.182 425.287
803.738 325.758 477.011
803.738 333.333 620.69
803.738 340.909 425.287
803.738 348.485 540.23
803.738 356.061 350.575
803.738 363.636 534.483
803.738 371.212 350.575
803.738 378.788 419.54
803.738 386.364 500
803.738 393.939 459.77
803.738 409.091 51.7241
803.738 416.667 166.667
803.738 424.242 224.138
803.738 431.818 477.011
803.738 439.394 477.011
803.738 446.97 477.011
803.738 454.545 339.08
803.738 462.121 344.828
803.738 469.697 114.943
808.411 113.636 206.897
808.411 128.788 580.46
808.411 136.364 517.241
808.411 143.939 327.586
808.411 212.121 45.977
808.411 219.697 235.632
808.411 227.273 580.46
808.411 234.848 281.609
808.411 318.182 425.287
808.411 325.758 505.747
808.411 333.333 568.966
808.411 340.909 425.287
808.411 348.485 540.23
808.411 356.061 350.575
808.411 363.636 534.483
808.411 371.212 350.575
808.411 378.788 419.54
808.411 386.364 517.241
808.411 393.939 385.057
808.411 409.091 51.7241
808.411 416.667 166.667
808.411 424.242 270.115
808.411 431.818 477.011
808.411 439.394 477.011
808.411 446.97 477.011
808.411 454.545 149.425
808.411 462.121 149.425
808.411 469.697 471.264
808.411 477.273 143.678
813.084 113.636 143.678
813.084 128.788 534.483
813.084 136.364 465.517
813.084 143.939 252.874
813.084 219.697 149.425
813.084 227.273 436.782
813.084 234.848 252.874
813.084 318.182 425.287
813.084 325.758 649.425
813.084 333.333 551.724
813.084 340.909 431.034
813.084 348.485 540.23
813.084 356.061 350.575
813.084 363.636 534.483
813.084 371.212 356.322
813.084 378.788 419.54
813.084 386.364 534.483
813.084 393.939 264.368
813.084 409.091 34.4828
813.084 416.667 166.667
813.084 424.242 241.379
813.084 431.818 632.184
813.084 439.394 477.011
813.084 446.97 477.011
813.084 454.545 149.425
813.084 462.121 500
813.084 469.697 477.011
813.084 477.273 86.2069
817.757 113.636 80.4598
817.757 128.788 482.759
817.757 136.364 465.517
817.757 143.939 218.391
817.757 219.697 63.2184
817.757 227.273 385.057
817.757 234.848 258.621
817.757 318.182 431.034
817.757 325.758 614.943
817.757 333.333 591.954
817.757 340.909 396.552
817.757 348.485 540.23
817.757 356.061 350.575
817.757 363.636 534.483
817.757 371.212 356.322
817.757 378.788 419.54
817.757 386.364 540.23
817.757 393.939 132.184
817.757 409.091 11.4943
817.757 416.667 166.667
817.757 424.242 270.115
817.757 431.818 591.954
817.757 439.394 477.011
817.757 446.97 477.011
817.757 454.545 80.4598
817.757 462.121 419.54
817.757 469.697 408.046
817.757 477.273 114.943
822.43 128.788 385.057
822.43 136.364 436.782
822.43 143.939 212.644
822.43 219.697 17.2414
822.43 227.273 155.172
822.43 234.848 189.655
822.43 242.424 183.908
822.43 318.182 545.977
822.43 325.758 620.69
822.43 333.333 563.218
822.43 340.909 373.563
822.43 348.485 540.23
822.43 356.061 350.575
822.43 363.636 534.483
822.43 371.212 356.322
822.43 378.788 419.54
822.43 386.364 528.736
822.43 409.091 11.4943
822.43 416.667 166.667
822.43 424.242 241.379
822.43 431.818 436.782
822.43 439.394 477.011
822.43 446.97 477.011
822.43 454.545 477.011
822.43 462.121 344.828
822.43 469.697 344.828
822.43 477.273 471.264
827.103 113.636 11.4943
827.103 121.212 500
827.103 128.788 454.023
827.103 136.364 419.54
827.103 143.939 218.391
827.103 227.273 126.437
827.103 234.848 241.379
827.103 242.424 166.667
827.103 318.182 597.701
827.103 325.758 649.425
827.103 333.333 545.977
827.103 340.909 356.322
827.103 348.485 540.23
827.103 356.061 350.575
827.103 363.636 540.23
827.103 371.212 356.322
827.103 378.788 419.54
827.103 386.364 511.494
827.103 409.091 11.4943
827.103 416.667 183.908
827.103 424.242 189.655
827.103 431.818 408.046
827.103 439.394 477.011
827.103 446.97 477.011
827.103 454.545 477.011
827.103 462.121 155.172
827.103 469.697 143.678
827.103 477.273 471.264
827.103 484.848 218.391
831.776 121.212 500
831.776 128.788 494.253
831.776 136.364 419.54
831.776 143.939 218.391
831.776 227.273 80.4598
831.776 234.848 189.655
831.776 242.424 241.379
831.776 318.182 517.241
831.776 325.758 678.161
831.776 333.333 517.241
831.776 340.909 425.287
831.776 348.485 568.966
831.776 356.061 356.322
831.776 363.636 540.23
831.776 371.212 356.322
831.776 378.788 545.977
831.776 386.364 500
831.776 409.091 34.4828
831.776 416.667 189.655
831.776 424.242 160.92
831.776 431.818 327.586
831.776 439.394 482.759
831.776 446.97 477.011
831.776 454.545 477.011
831.776 462.121 155.172
831.776 469.697 143.678
831.776 477.273 471.264
831.776 484.848 218.391
836.449 121.212 350.575
836.449 128.788 511.494
836.449 136.364 367.816
836.449 143.939 149.425
836.449 227.273 80.4598
836.449 234.848 201.149
836.449 242.424 281.609
836.449 318.182 356.322
836.449 325.758 591.954
836.449 333.333 500
836.449 340.909 494.253
836.449 348.485 356.322
836.449 356.061 356.322
836.449 363.636 540.23
836.449 371.212 356.322
836.449 378.788 540.23
836.449 386.364 557.471
836.449 409.091 40.2299
836.449 416.667 189.655
836.449 424.242 160.92
836.449 431.818 511.494
836.449 439.394 482.759
836.449 446.97 482.759
836.449 454.545 477.011
836.449 462.121 149.425
836.449 469.697 80.4598
836.449 477.273 402.299
841.121 128.788 488.506
841.121 136.364 431.034
841.121 143.939 80.4598
841.121 227.273 80.4598
841.121 234.848 195.402
841.121 242.424 293.103
841.121 325.758 614.943
841.121 333.333 540.23
841.121 340.909 494.253
841.121 348.485 356.322
841.121 356.061 482.759
841.121 363.636 568.966
841.121 371.212 356.322
841.121 378.788 603.448
841.121 386.364 534.483
841.121 393.939 57.4713
841.121 409.091 40.2299
841.121 416.667 224.138
841.121 424.242 97.7011
841.121 431.818 448.276
841.121 439.394 482.759
841.121 446.97 482.759
841.121 454.545 482.759
841.121 462.121 149.425
841.121 469.697 86.2069
841.121 477.273 339.08
845.794 128.788 465.517
845.794 136.364 419.54
845.794 227.273 80.4598
845.794 234.848 201.149
845.794 242.424 281.609
845.794 325.758 655.172
845.794 333.333 540.23
845.794 340.909 494.253
845.794 348.485 356.322
845.794 356.061 540.23
845.794 363.636 356.322
845.794 371.212 425.287
845.794 378.788 568.966
845.794 386.364 356.322
845.794 393.939 379.31
845.794 416.667 143.678
845.794 424.242 114.943
845.794 431.818 143.678
845.794 439.394 482.759
845.794 446.97 482.759
845.794 454.545 482.759
845.794 462.121 143.678
845.794 469.697 482.759
845.794 477.273 166.667
850.467 128.788 396.552
850.467 136.364 356.322
850.467 227.273 86.2069
850.467 234.848 206.897
850.467 242.424 247.126
850.467 325.758 695.402
850.467 333.333 603.448
850.467 340.909 494.253
850.467 348.485 356.322
850.467 356.061 540.23
850.467 363.636 356.322
850.467 371.212 540.23
850.467 378.788 505.747
850.467 386.364 419.54
850.467 393.939 471.264
850.467 416.667 80.4598
850.467 424.242 172.414
850.467 431.818 143.678
850.467 439.394 482.759
850.467 446.97 488.506
850.467 454.545 488.506
850.467 462.121 149.425
850.467 469.697 482.759
850.467 477.273 166.667
855.14 121.212 660.92
855.14 128.788 362.069
855.14 136.364 275.862
855.14 227.273 68.9655
855.14 234.848 201.149
855.14 242.424 281.609
855.14 325.758 689.655
855.14 333.333 643.678
855.14 340.909 494.253
855.14 348.485 356.322
855.14 356.061 540.23
855.14 363.636 425.287
855.14 371.212 609.195
855.14 378.788 356.322
855.14 386.364 563.218
855.14 393.939 471.264
855.14 416.667 80.4598
855.14 424.242 166.667
855.14 431.818 143.678
855.14 439.394 488.506
855.14 446.97 488.506
855.14 454.545 488.506
855.14 462.121 143.678
855.14 469.697 482.759
855.14 477.273 166.667
855.14 484.848 143.678
859.813 121.212 649.425
859.813 128.788 465.517
859.813 136.364 149.425
859.813 227.273 17.2414
859.813 234.848 137.931
859.813 242.424 258.621
859.813 325.758 545.977
859.813 333.333 551.724
859.813 340.909 494.253
859.813 348.485 431.034
859.813 356.061 574.713
859.813 363.636 494.253
859.813 371.212 356.322
859.813 378.788 425.287
859.813 386.364 540.23
859.813 393.939 459.77
859.813 416.667 86.2069
859.813 424.242 189.655
859.813 431.818 143.678
859.813 439.394 488.506
859.813 446.97 488.506
859.813 454.545 488.506
859.813 462.121 143.678
859.813 469.697 482.759
859.813 477.273 160.92
859.813 484.848 178.161
864.486 121.212 660.92
864.486 128.788 545.977
864.486 136.364 103.448
864.486 227.273 17.2414
864.486 234.848 149.425
864.486 242.424 270.115
864.486 325.758 362.069
864.486 333.333 586.207
864.486 340.909 545.977
864.486 348.485 494.253
864.486 356.061 362.069
864.486 363.636 494.253
864.486 371.212 356.322
864.486 378.788 540.23
864.486 386.364 356.322
864.486 393.939 528.736
864.486 416.667 149.425
864.486 424.242 241.379
864.486 431.818 149.425
864.486 439.394 488.506
864.486 446.97 488.506
864.486 454.545 488.506
864.486 462.121 149.425
864.486 469.697 482.759
864.486 477.273 160.92
864.486 484.848 270.115
869.159 121.212 695.402
869.159 128.788 574.713
869.159 136.364 316.092
869.159 227.273 17.2414
869.159 234.848 149.425
869.159 242.424 275.862
869.159 250 155.172
869.159 333.333 603.448
869.159 340.909 545.977
869.159 348.485 494.253
869.159 356.061 362.069
869.159 363.636 540.23
869.159 371.212 425.287
869.159 378.788 568.966
869.159 386.364 425.287
869.159 393.939 683.908
869.159 401.515 11.4943
869.159 409.091 40.2299
869.159 416.667 224.138
869.159 424.242 155.172
869.159 431.818 149.425
869.159 439.394 488.506
869.159 446.97 488.506
869.159 454.545 488.506
869.159 462.121 149.425
869.159 469.697 488.506
869.159 477.273 109.195
869.159 484.848 264.368
873.832 113.636 425.287
873.832 121.212 672.414
873.832 128.788 580.46
873.832 136.364 477.011
873.832 227.273 17.2414
873.832 234.848 143.678
873.832 242.424 310.345
873.832 250 229.885
873.832 333.333 660.92
873.832 340.909 574.713
873.832 348.485 494.253
873.832 356.061 431.034
873.832 363.636 574.713
873.832 371.212 494.253
873.832 378.788 356.322
873.832 386.364 494.253
873.832 393.939 614.943
873.832 401.515 310.345
873.832 409.091 57.4713
873.832 416.667 241.379
873.832 424.242 11.4943
873.832 431.818 149.425
873.832 439.394 488.506
873.832 446.97 488.506
873.832 454.545 488.506
873.832 462.121 149.425
873.832 469.697 488.506
873.832 477.273 166.667
873.832 484.848 264.368
873.832 492.424 149.425
878.505 113.636 431.034
878.505 121.212 643.678
878.505 128.788 522.989
878.505 136.364 477.011
878.505 227.273 17.2414
878.505 234.848 126.437
878.505 242.424 281.609
878.505 250 224.138
878.505 325.758 356.322
878.505 333.333 683.908
878.505 340.909 436.782
878.505 348.485 494.253
878.505 356.061 494.253
878.505 363.636 362.069
878.505 371.212 494.253
878.505 378.788 356.322
878.505 386.364 540.23
878.505 393.939 603.448
878.505 401.515 695.402
878.505 409.091 126.437
878.505 416.667 310.345
878.505 424.242 11.4943
878.505 431.818 149.425
878.505 439.394 488.506
878.505 446.97 488.506
878.505 454.545 488.506
878.505 462.121 80.4598
878.505 469.697 419.54
878.505 477.273 114.943
878.505 484.848 270.115
878.505 492.424 143.678
883.178 113.636 436.782
883.178 121.212 545.977
883.178 128.788 528.736
883.178 136.364 477.011
883.178 234.848 97.7011
883.178 242.424 235.632
883.178 325.758 609.195
883.178 333.333 689.655
883.178 340.909 431.034
883.178 348.485 545.977
883.178 356.061 494.253
883.178 363.636 362.069
883.178 371.212 540.23
883.178 378.788 356.322
883.178 386.364 540.23
883.178 393.939 494.253
883.178 401.515 643.678
883.178 409.091 373.563
883.178 416.667 224.138
883.178 424.242 11.4943
883.178 431.818 149.425
883.178 439.394 488.506
883.178 446.97 488.506
883.178 454.545 488.506
883.178 462.121 488.506
883.178 469.697 350.575
883.178 477.273 482.759
883.178 484.848 281.609
887.85 106.061 436.782
887.85 113.636 586.207
887.85 121.212 522.989
887.85 128.788 494.253
887.85 136.364 344.828
887.85 227.273 17.2414
887.85 234.848 126.437
887.85 242.424 281.609
887.85 325.758 614.943
887.85 333.333 695.402
887.85 340.909 402.299
887.85 348.485 545.977
887.85 356.061 494.253
887.85 363.636 362.069
887.85 371.212 540.23
887.85 378.788 356.322
887.85 386.364 545.977
887.85 393.939 545.977
887.85 401.515 580.46
887.85 409.091 379.31
887.85 416.667 149.425
887.85 424.242 11.4943
887.85 431.818 149.425
887.85 439.394 488.506
887.85 446.97 488.506
887.85 454.545 488.506
887.85 462.121 488.506
887.85 469.697 149.425
887.85 477.273 482.759
887.85 484.848 310.345
892.523 106.061 367.816
892.523 113.636 568.966
892.523 121.212 522.989
892.523 128.788 494.253
892.523 136.364 212.644
892.523 234.848 80.4598
