86.5385 634.783 358.289
86.5385 643.478 117.647
86.5385 652.174 352.941
86.5385 660.87 401.07
86.5385 669.565 401.07
86.5385 678.261 401.07
86.5385 686.957 401.07
86.5385 695.652 401.07
86.5385 704.348 267.38
86.5385 713.043 374.332
86.5385 721.739 427.807
86.5385 730.435 427.807
86.5385 739.13 90.9091
86.5385 747.826 374.332
86.5385 782.609 438.503
86.5385 791.304 438.503
86.5385 800 438.503
86.5385 808.696 438.503
86.5385 817.391 438.503
86.5385 826.087 438.503
86.5385 834.783 438.503
86.5385 843.478 433.155
91.3462 95.6522 358.289
91.3462 104.348 358.289
91.3462 113.043 310.16
91.3462 121.739 443.85
91.3462 130.435 262.032
91.3462 139.13 390.374
91.3462 147.826 358.289
91.3462 156.522 310.16
91.3462 165.217 213.904
91.3462 173.913 379.679
91.3462 182.609 363.636
91.3462 191.304 363.636
91.3462 200 267.38
91.3462 208.696 278.075
91.3462 217.391 390.374
91.3462 226.087 454.545
91.3462 234.783 454.545
91.3462 243.478 481.283
91.3462 252.174 256.684
91.3462 260.87 534.759
91.3462 269.565 497.326
91.3462 278.261 433.155
91.3462 286.957 534.759
91.3462 295.652 347.594
91.3462 304.348 550.802
91.3462 313.043 657.754
91.3462 321.739 620.321
91.3462 330.435 395.722
91.3462 339.13 593.583
91.3462 347.826 545.455
91.3462 356.522 641.711
91.3462 365.217 497.326
91.3462 373.913 550.802
91.3462 382.609 491.979
91.3462 391.304 556.15
91.3462 400 465.241
91.3462 408.696 192.513
91.3462 417.391 395.722
91.3462 426.087 385.027
91.3462 434.783 385.027
91.3462 443.478 385.027
91.3462 452.174 80.2139
91.3462 460.87 336.898
91.3462 469.565 299.465
91.3462 478.261 513.369
91.3462 486.957 374.332
91.3462 495.652 550.802
91.3462 504.348 326.203
91.3462 513.043 401.07
91.3462 521.739 144.385
91.3462 547.826 358.289
91.3462 556.522 358.289
91.3462 565.217 358.289
91.3462 573.913 358.289
91.3462 582.609 358.289
91.3462 591.304 358.289
91.3462 600 358.289
91.3462 608.696 358.289
91.3462 617.391 358.289
91.3462 626.087 358.289
91.3462 634.783 358.289
91.3462 643.478 363.636
91.3462 652.174 304.813
91.3462 660.87 401.07
91.3462 669.565 401.07
91.3462 678.261 401.07
91.3462 686.957 401.07
91.3462 695.652 401.07
91.3462 704.348 406.417
91.3462 713.043 320.856
91.3462 721.739 427.807
91.3462 730.435 427.807
91.3462 739.13 427.807
91.3462 747.826 315.508
91.3462 756.522 427.807
91.3462 782.609 433.155
91.3462 791.304 438.503
91.3462 800 438.503
91.3462 808.696 438.503
91.3462 817.391 438.503
91.3462 826.087 438.503
91.3462 834.783 438.503
91.3462 843.478 433.155
96.1538 95.6522 358.289
96.1538 104.348 358.289
96.1538 113.043 310.16
96.1538 121.739 278.075
96.1538 130.435 262.032
96.1538 139.13 395.722
96.1538 147.826 358.289
96.1538 156.522 262.032
96.1538 165.217 395.722
96.1538 173.913 368.984
96.1538 182.609 363.636
96.1538 191.304 315.508
96.1538 200 219.251
96.1538 208.696 422.46
96.1538 217.391 379.679
96.1538 226.087 379.679
96.1538 234.783 379.679
96.1538 243.478 417.112
96.1538 252.174 417.112
96.1538 260.87 497.326
96.1538 269.565 459.893
96.1538 278.261 545.455
96.1538 286.957 529.412
96.1538 295.652 465.241
96.1538 304.348 614.973
96.1538 313.043 652.406
96.1538 321.739 604.278
96.1538 330.435 508.021
96.1538 339.13 534.759
96.1538 347.826 631.016
96.1538 356.522 620.321
96.1538 365.217 443.85
96.1538 373.913 566.845
96.1538 382.609 513.369
96.1538 391.304 486.631
96.1538 400 411.765
96.1538 408.696 160.428
96.1538 417.391 385.027
96.1538 426.087 385.027
96.1538 434.783 385.027
96.1538 443.478 385.027
96.1538 452.174 390.374
96.1538 460.87 288.77
96.1538 469.565 133.69
96.1538 478.261 449.198
96.1538 486.957 310.16
96.1538 495.652 524.064
96.1538 504.348 128.342
96.1538 513.043 347.594
96.1538 521.739 165.775
96.1538 547.826 358.289
96.1538 556.522 358.289
96.1538 565.217 358.289
96.1538 573.913 358.289
96.1538 582.609 358.289
96.1538 591.304 358.289
96.1538 600 358.289
96.1538 608.696 358.289
96.1538 617.391 358.289
96.1538 626.087 358.289
96.1538 634.783 363.636
96.1538 643.478 358.289
96.1538 652.174 112.299
96.1538 660.87 352.941
96.1538 669.565 401.07
96.1538 678.261 401.07
96.1538 686.957 401.07
96.1538 695.652 401.07
96.1538 704.348 401.07
96.1538 713.043 106.952
96.1538 721.739 374.332
96.1538 730.435 427.807
96.1538 739.13 427.807
96.1538 747.826 149.733
96.1538 756.522 427.807
96.1538 782.609 433.155
96.1538 791.304 433.155
96.1538 800 438.503
96.1538 808.696 438.503
96.1538 817.391 438.503
96.1538 826.087 438.503
96.1538 834.783 438.503
96.1538 843.478 438.503
100.962 104.348 358.289
100.962 113.043 262.032
100.962 121.739 385.027
100.962 130.435 224.599
100.962 139.13 374.332
100.962 147.826 310.16
100.962 156.522 213.904
100.962 165.217 379.679
100.962 173.913 363.636
100.962 182.609 363.636
100.962 191.304 267.38
100.962 200 315.508
100.962 208.696 411.765
100.962 217.391 374.332
100.962 226.087 368.984
100.962 234.783 454.545
100.962 243.478 379.679
100.962 252.174 540.107
100.962 260.87 465.241
100.962 269.565 459.893
100.962 278.261 550.802
100.962 286.957 497.326
100.962 295.652 438.503
100.962 304.348 556.15
100.962 313.043 598.93
100.962 321.739 550.802
100.962 330.435 582.888
100.962 339.13 497.326
100.962 347.826 604.278
100.962 356.522 604.278
100.962 365.217 550.802
100.962 373.913 561.497
100.962 382.609 481.283
100.962 391.304 449.198
100.962 400 395.722
100.962 408.696 80.2139
100.962 417.391 336.898
100.962 426.087 385.027
100.962 434.783 385.027
100.962 443.478 385.027
100.962 452.174 385.027
100.962 460.87 90.9091
100.962 469.565 133.69
100.962 478.261 390.374
100.962 486.957 401.07
100.962 495.652 422.46
100.962 504.348 411.765
100.962 513.043 299.465
100.962 521.739 192.513
100.962 547.826 358.289
100.962 556.522 358.289
100.962 565.217 358.289
100.962 573.913 358.289
100.962 582.609 358.289
100.962 591.304 358.289
100.962 600 358.289
100.962 608.696 358.289
100.962 617.391 358.289
100.962 626.087 363.636
100.962 634.783 363.636
100.962 643.478 363.636
100.962 652.174 363.636
100.962 660.87 304.813
100.962 669.565 401.07
100.962 678.261 401.07
100.962 686.957 401.07
100.962 695.652 401.07
100.962 704.348 401.07
100.962 713.043 401.07
100.962 721.739 267.38
100.962 730.435 374.332
100.962 739.13 427.807
100.962 747.826 90.9091
100.962 756.522 374.332
100.962 765.217 427.807
100.962 773.913 262.032
100.962 782.609 374.332
100.962 791.304 433.155
100.962 800 433.155
100.962 808.696 433.155
100.962 817.391 438.503
100.962 826.087 438.503
100.962 834.783 438.503
100.962 843.478 438.503
100.962 852.174 433.155
105.769 104.348 358.289
105.769 113.043 262.032
105.769 121.739 352.941
105.769 130.435 395.722
105.769 139.13 363.636
105.769 147.826 262.032
105.769 156.522 395.722
105.769 165.217 368.984
105.769 173.913 363.636
105.769 182.609 315.508
105.769 191.304 219.251
105.769 200 294.118
105.769 208.696 406.417
105.769 217.391 374.332
105.769 226.087 368.984
105.769 234.783 331.551
105.769 243.478 256.684
105.769 252.174 529.412
105.769 260.87 395.722
105.769 269.565 459.893
105.769 278.261 550.802
105.769 286.957 465.241
105.769 295.652 556.15
105.769 304.348 647.059
105.769 313.043 550.802
105.769 321.739 614.973
105.769 330.435 663.102
105.769 339.13 422.46
105.769 347.826 582.888
105.769 356.522 684.492
105.769 365.217 550.802
105.769 373.913 475.936
105.769 382.609 513.369
105.769 391.304 417.112
105.769 400 385.027
105.769 408.696 385.027
105.769 417.391 283.422
105.769 426.087 385.027
105.769 434.783 385.027
105.769 443.478 385.027
105.769 452.174 385.027
105.769 460.87 390.374
105.769 469.565 133.69
105.769 478.261 395.722
105.769 486.957 395.722
105.769 495.652 454.545
105.769 504.348 534.759
105.769 513.043 213.904
105.769 539.13 358.289
105.769 547.826 358.289
105.769 556.522 358.289
105.769 565.217 358.289
105.769 573.913 358.289
105.769 582.609 358.289
105.769 591.304 358.289
105.769 600 358.289
105.769 608.696 358.289
105.769 617.391 358.289
105.769 626.087 363.636
105.769 634.783 363.636
105.769 643.478 363.636
105.769 652.174 368.984
105.769 660.87 160.428
105.769 669.565 401.07
105.769 678.261 401.07
105.769 686.957 401.07
105.769 695.652 401.07
105.769 704.348 401.07
105.769 713.043 401.07
105.769 721.739 406.417
105.769 730.435 320.856
105.769 739.13 427.807
105.769 747.826 427.807
105.769 756.522 315.508
105.769 765.217 427.807
105.769 773.913 427.807
105.769 782.609 320.856
105.769 791.304 433.155
105.769 800 433.155
105.769 808.696 433.155
105.769 817.391 433.155
105.769 826.087 433.155
105.769 834.783 438.503
105.769 843.478 438.503
105.769 852.174 438.503
110.577 95.6522 358.289
110.577 104.348 310.16
110.577 113.043 213.904
110.577 121.739 299.465
110.577 130.435 379.679
110.577 139.13 358.289
110.577 147.826 262.032
110.577 156.522 395.722
110.577 165.217 363.636
110.577 173.913 363.636
110.577 182.609 267.38
110.577 191.304 401.07
110.577 200 278.075
110.577 208.696 406.417
110.577 217.391 368.984
110.577 226.087 368.984
110.577 234.783 272.727
110.577 243.478 427.807
110.577 252.174 524.064
110.577 260.87 336.898
110.577 269.565 395.722
110.577 278.261 540.107
110.577 286.957 465.241
110.577 295.652 550.802
110.577 304.348 652.406
110.577 313.043 513.369
110.577 321.739 614.973
110.577 330.435 668.449
110.577 339.13 411.765
110.577 347.826 513.369
110.577 356.522 641.711
110.577 365.217 524.064
110.577 373.913 475.936
110.577 382.609 486.631
110.577 391.304 395.722
110.577 400 385.027
110.577 408.696 390.374
110.577 417.391 133.69
110.577 426.087 390.374
110.577 434.783 390.374
110.577 443.478 390.374
110.577 452.174 390.374
110.577 460.87 390.374
110.577 469.565 133.69
110.577 478.261 395.722
110.577 486.957 497.326
110.577 495.652 497.326
110.577 504.348 438.503
110.577 513.043 368.984
110.577 539.13 358.289
110.577 547.826 358.289
110.577 556.522 358.289
110.577 565.217 358.289
110.577 573.913 358.289
110.577 582.609 358.289
110.577 591.304 358.289
110.577 600 358.289
110.577 608.696 358.289
110.577 617.391 363.636
110.577 626.087 363.636
110.577 634.783 363.636
110.577 643.478 363.636
110.577 652.174 368.984
110.577 660.87 160.428
110.577 669.565 401.07
110.577 678.261 401.07
110.577 686.957 401.07
110.577 695.652 401.07
110.577 704.348 401.07
110.577 713.043 401.07
110.577 721.739 406.417
110.577 730.435 160.428
110.577 739.13 427.807
110.577 747.826 427.807
110.577 756.522 149.733
110.577 765.217 427.807
110.577 773.913 427.807
110.577 782.609 149.733
110.577 791.304 433.155
110.577 800 433.155
110.577 808.696 433.155
110.577 817.391 433.155
110.577 826.087 433.155
110.577 834.783 438.503
110.577 843.478 438.503
110.577 852.174 438.503
110.577 869.565 368.984
110.577 878.261 427.807
110.577 886.957 427.807
110.577 895.652 427.807
115.385 95.6522 310.16
115.385 104.348 213.904
115.385 113.043 288.77
115.385 121.739 417.112
115.385 130.435 368.984
115.385 139.13 358.289
115.385 147.826 262.032
115.385 156.522 395.722
115.385 165.217 363.636
115.385 173.913 315.508
115.385 182.609 219.251
115.385 191.304 385.027
115.385 200 267.38
115.385 208.696 406.417
115.385 217.391 368.984
115.385 226.087 368.984
115.385 234.783 272.727
115.385 243.478 417.112
115.385 252.174 491.979
115.385 260.87 459.893
115.385 269.565 491.979
115.385 278.261 529.412
115.385 286.957 465.241
115.385 295.652 550.802
115.385 304.348 561.497
115.385 313.043 529.412
115.385 321.739 614.973
115.385 330.435 668.449
115.385 339.13 545.455
115.385 347.826 657.754
115.385 356.522 604.278
115.385 365.217 572.193
115.385 373.913 582.888
115.385 382.609 433.155
115.385 391.304 385.027
115.385 400 385.027
115.385 408.696 390.374
115.385 417.391 133.69
115.385 426.087 390.374
115.385 434.783 395.722
115.385 443.478 395.722
115.385 452.174 395.722
115.385 460.87 390.374
115.385 469.565 133.69
115.385 478.261 395.722
115.385 486.957 502.674
115.385 495.652 502.674
115.385 504.348 358.289
115.385 513.043 385.027
115.385 521.739 315.508
115.385 539.13 358.289
115.385 547.826 358.289
115.385 556.522 358.289
115.385 565.217 358.289
115.385 573.913 358.289
115.385 582.609 358.289
115.385 591.304 358.289
115.385 600 358.289
115.385 608.696 358.289
115.385 617.391 363.636
115.385 626.087 363.636
115.385 634.783 363.636
115.385 643.478 363.636
115.385 652.174 368.984
115.385 660.87 160.428
115.385 669.565 401.07
115.385 678.261 401.07
115.385 686.957 401.07
115.385 695.652 401.07
115.385 704.348 401.07
115.385 713.043 401.07
115.385 721.739 401.07
115.385 730.435 106.952
115.385 739.13 374.332
115.385 747.826 427.807
115.385 756.522 149.733
115.385 765.217 427.807
115.385 773.913 427.807
115.385 782.609 90.9091
115.385 791.304 374.332
115.385 800 433.155
115.385 808.696 433.155
115.385 817.391 433.155
115.385 826.087 433.155
115.385 834.783 433.155
115.385 843.478 438.503
115.385 852.174 438.503
115.385 860.87 433.155
115.385 869.565 315.508
115.385 878.261 433.155
115.385 886.957 427.807
115.385 895.652 427.807
115.385 904.348 427.807
120.192 86.9565 358.289
120.192 95.6522 267.38
120.192 104.348 352.941
120.192 113.043 229.947
120.192 121.739 385.027
120.192 130.435 363.636
120.192 139.13 358.289
120.192 147.826 262.032
120.192 156.522 401.07
120.192 165.217 363.636
120.192 173.913 267.38
120.192 182.609 401.07
120.192 191.304 374.332
120.192 200 267.38
120.192 208.696 406.417
120.192 217.391 368.984
120.192 226.087 368.984
120.192 234.783 320.856
120.192 243.478 443.85
120.192 252.174 459.893
120.192 260.87 459.893
120.192 269.565 422.46
120.192 278.261 497.326
120.192 286.957 465.241
120.192 295.652 550.802
120.192 304.348 545.455
120.192 313.043 572.193
120.192 321.739 614.973
120.192 330.435 668.449
120.192 339.13 545.455
120.192 347.826 620.321
120.192 356.522 609.626
120.192 365.217 593.583
120.192 373.913 609.626
120.192 382.609 304.813
120.192 391.304 385.027
120.192 400 385.027
120.192 408.696 390.374
120.192 417.391 133.69
120.192 426.087 395.722
120.192 434.783 395.722
120.192 443.478 395.722
120.192 452.174 395.722
120.192 460.87 395.722
120.192 469.565 133.69
120.192 478.261 502.674
120.192 486.957 502.674
120.192 495.652 502.674
120.192 504.348 358.289
120.192 513.043 385.027
120.192 521.739 315.508
120.192 539.13 358.289
120.192 547.826 358.289
120.192 556.522 358.289
120.192 565.217 358.289
120.192 573.913 358.289
120.192 582.609 358.289
120.192 591.304 358.289
120.192 600 358.289
120.192 608.696 358.289
120.192 617.391 363.636
120.192 626.087 363.636
120.192 634.783 363.636
120.192 643.478 363.636
120.192 652.174 368.984
120.192 660.87 160.428
120.192 669.565 401.07
120.192 678.261 401.07
120.192 686.957 401.07
120.192 695.652 401.07
120.192 704.348 401.07
120.192 713.043 401.07
120.192 721.739 401.07
120.192 730.435 406.417
120.192 739.13 320.856
120.192 747.826 427.807
120.192 756.522 149.733
120.192 765.217 433.155
120.192 773.913 433.155
120.192 782.609 427.807
120.192 791.304 320.856
120.192 800 433.155
120.192 808.696 433.155
120.192 817.391 433.155
120.192 826.087 433.155
120.192 834.783 433.155
120.192 843.478 438.503
120.192 852.174 438.503
120.192 860.87 438.503
120.192 869.565 144.385
120.192 878.261 433.155
120.192 886.957 427.807
120.192 895.652 427.807
120.192 904.348 427.807
120.192 913.043 427.807
125 86.9565 315.508
125 95.6522 219.251
125 104.348 294.118
125 113.043 411.765
125 121.739 368.984
125 130.435 363.636
125 139.13 363.636
125 147.826 262.032
125 156.522 401.07
125 165.217 363.636
125 173.913 267.38
125 182.609 401.07
125 191.304 363.636
125 200 315.508
125 208.696 427.807
125 217.391 368.984
125 226.087 368.984
125 234.783 368.984
125 243.478 283.422
125 252.174 385.027
125 260.87 454.545
125 269.565 561.497
125 278.261 465.241
125 286.957 497.326
125 295.652 566.845
125 304.348 529.412
125 313.043 545.455
125 321.739 614.973
125 330.435 647.059
125 339.13 524.064
125 347.826 614.973
125 356.522 609.626
125 365.217 625.668
125 373.913 631.016
125 382.609 288.77
125 391.304 385.027
125 400 385.027
125 408.696 390.374
125 417.391 133.69
125 426.087 395.722
125 434.783 395.722
125 443.478 395.722
125 452.174 395.722
125 460.87 401.07
125 469.565 336.898
125 478.261 502.674
125 486.957 502.674
125 495.652 502.674
125 504.348 379.679
125 513.043 347.594
125 521.739 315.508
125 539.13 358.289
125 547.826 358.289
125 556.522 358.289
125 565.217 358.289
125 573.913 358.289
125 582.609 358.289
125 591.304 358.289
125 600 358.289
125 608.696 358.289
125 617.391 363.636
125 626.087 363.636
125 634.783 363.636
125 643.478 363.636
125 652.174 368.984
125 660.87 160.428
125 669.565 401.07
125 678.261 401.07
125 686.957 401.07
125 695.652 401.07
125 704.348 401.07
125 713.043 401.07
125 721.739 401.07
125 730.435 406.417
125 739.13 160.428
125 747.826 427.807
125 756.522 96.2567
125 765.217 374.332
125 773.913 433.155
125 782.609 433.155
125 791.304 149.733
125 800 433.155
125 808.696 433.155
125 817.391 433.155
125 826.087 433.155
125 834.783 433.155
125 843.478 438.503
125 852.174 438.503
125 860.87 438.503
125 869.565 144.385
125 878.261 433.155
125 886.957 427.807
125 895.652 427.807
125 904.348 427.807
125 913.043 427.807
129.808 86.9565 294.118
129.808 95.6522 395.722
129.808 104.348 272.727
129.808 113.043 406.417
129.808 121.739 363.636
129.808 130.435 363.636
129.808 139.13 363.636
129.808 147.826 267.38
129.808 156.522 401.07
129.808 165.217 363.636
129.808 173.913 267.38
129.808 182.609 401.07
129.808 191.304 368.984
129.808 200 368.984
129.808 208.696 267.38
129.808 217.391 368.984
129.808 226.087 368.984
129.808 234.783 368.984
129.808 243.478 272.727
129.808 252.174 481.283
129.808 260.87 438.503
129.808 269.565 422.46
129.808 278.261 385.027
129.808 286.957 497.326
129.808 295.652 465.241
129.808 304.348 529.412
129.808 313.043 524.064
129.808 321.739 625.668
129.808 330.435 625.668
129.808 339.13 588.235
129.808 347.826 631.016
129.808 356.522 609.626
129.808 365.217 625.668
129.808 373.913 502.674
129.808 382.609 326.203
129.808 391.304 385.027
129.808 400 385.027
129.808 408.696 395.722
129.808 417.391 187.166
129.808 426.087 395.722
129.808 434.783 395.722
129.808 443.478 395.722
129.808 452.174 395.722
129.808 460.87 336.898
129.808 469.565 336.898
129.808 478.261 502.674
129.808 486.957 502.674
129.808 495.652 513.369
129.808 504.348 411.765
129.808 513.043 358.289
129.808 521.739 315.508
129.808 539.13 315.508
129.808 547.826 358.289
129.808 556.522 358.289
129.808 565.217 358.289
129.808 573.913 358.289
129.808 582.609 358.289
129.808 591.304 358.289
129.808 600 358.289
129.808 608.696 358.289
129.808 617.391 363.636
129.808 626.087 363.636
129.808 634.783 363.636
129.808 643.478 363.636
129.808 652.174 368.984
129.808 660.87 160.428
129.808 669.565 401.07
129.808 678.261 401.07
129.808 686.957 401.07
129.808 695.652 401.07
129.808 704.348 401.07
129.808 713.043 401.07
129.808 721.739 401.07
129.808 730.435 406.417
129.808 739.13 160.428
129.808 747.826 427.807
129.808 756.522 427.807
129.808 765.217 320.856
129.808 773.913 438.503
129.808 782.609 438.503
129.808 791.304 90.9091
129.808 800 374.332
129.808 808.696 433.155
129.808 817.391 433.155
129.808 826.087 433.155
129.808 834.783 438.503
129.808 843.478 438.503
129.808 852.174 438.503
129.808 860.87 443.85
129.808 869.565 197.861
129.808 878.261 427.807
129.808 886.957 427.807
129.808 895.652 427.807
129.808 904.348 427.807
129.808 913.043 427.807
134.615 78.2609 401.07
134.615 86.9565 278.075
134.615 95.6522 395.722
134.615 104.348 262.032
134.615 113.043 401.07
134.615 121.739 363.636
134.615 130.435 363.636
134.615 139.13 363.636
134.615 147.826 315.508
134.615 156.522 422.46
134.615 165.217 363.636
134.615 173.913 315.508
134.615 182.609 422.46
134.615 191.304 368.984
134.615 200 368.984
134.615 208.696 320.856
134.615 217.391 427.807
134.615 226.087 368.984
134.615 234.783 368.984
134.615 243.478 331.551
134.615 252.174 459.893
134.615 260.87 395.722
134.615 269.565 390.374
134.615 278.261 545.455
134.615 286.957 465.241
134.615 295.652 465.241
134.615 304.348 550.802
134.615 313.043 556.15
134.615 321.739 545.455
134.615 330.435 641.711
134.615 339.13 534.759
134.615 347.826 572.193
134.615 356.522 604.278
134.615 365.217 625.668
134.615 373.913 438.503
134.615 382.609 486.631
134.615 391.304 390.374
134.615 400 390.374
134.615 408.696 133.69
134.615 417.391 240.642
134.615 426.087 395.722
134.615 434.783 395.722
134.615 443.478 395.722
134.615 452.174 497.326
134.615 460.87 336.898
134.615 469.565 342.246
134.615 478.261 502.674
134.615 486.957 508.021
134.615 495.652 529.412
134.615 504.348 368.984
134.615 513.043 342.246
134.615 521.739 315.508
134.615 530.435 315.508
134.615 539.13 272.727
134.615 547.826 358.289
134.615 556.522 358.289
134.615 565.217 358.289
134.615 573.913 358.289
134.615 582.609 358.289
134.615 591.304 358.289
134.615 600 358.289
134.615 608.696 358.289
134.615 617.391 363.636
134.615 626.087 363.636
134.615 634.783 363.636
134.615 643.478 363.636
134.615 652.174 368.984
134.615 660.87 160.428
134.615 669.565 401.07
134.615 678.261 401.07
134.615 686.957 401.07
134.615 695.652 401.07
134.615 704.348 401.07
134.615 713.043 401.07
134.615 721.739 401.07
134.615 730.435 406.417
134.615 739.13 160.428
134.615 747.826 427.807
134.615 756.522 427.807
134.615 765.217 96.2567
134.615 773.913 379.679
134.615 782.609 438.503
134.615 791.304 433.155
134.615 800 315.508
134.615 808.696 433.155
134.615 817.391 438.503
134.615 826.087 438.503
134.615 834.783 438.503
134.615 843.478 438.503
134.615 852.174 438.503
134.615 860.87 139.037
134.615 869.565 256.684
134.615 878.261 427.807
134.615 886.957 427.807
134.615 895.652 427.807
134.615 904.348 427.807
134.615 913.043 427.807
134.615 921.739 427.807
139.423 78.2609 417.112
139.423 86.9565 262.032
139.423 95.6522 395.722
139.423 104.348 315.508
139.423 113.043 422.46
139.423 121.739 363.636
139.423 130.435 363.636
139.423 139.13 363.636
139.423 147.826 363.636
139.423 156.522 267.38
139.423 165.217 368.984
139.423 173.913 363.636
139.423 182.609 267.38
139.423 191.304 368.984
139.423 200 368.984
139.423 208.696 368.984
139.423 217.391 267.38
139.423 226.087 368.984
139.423 234.783 374.332
139.423 243.478 390.374
139.423 252.174 352.941
139.423 260.87 401.07
139.423 269.565 374.332
139.423 278.261 566.845
139.423 286.957 417.112
139.423 295.652 465.241
139.423 304.348 550.802
139.423 313.043 556.15
139.423 321.739 572.193
139.423 330.435 689.84
139.423 339.13 422.46
139.423 347.826 668.449
139.423 356.522 636.364
139.423 365.217 625.668
139.423 373.913 449.198
139.423 382.609 545.455
139.423 391.304 390.374
139.423 400 390.374
139.423 408.696 133.69
139.423 417.391 395.722
139.423 426.087 395.722
139.423 434.783 395.722
139.423 443.478 395.722
139.423 452.174 497.326
139.423 460.87 342.246
139.423 469.565 342.246
139.423 478.261 502.674
139.423 486.957 513.369
139.423 495.652 417.112
139.423 504.348 374.332
139.423 513.043 326.203
139.423 521.739 326.203
139.423 530.435 315.508
139.423 539.13 144.385
139.423 547.826 358.289
139.423 556.522 358.289
139.423 565.217 358.289
139.423 573.913 358.289
139.423 582.609 358.289
139.423 591.304 358.289
139.423 600 358.289
139.423 608.696 358.289
139.423 617.391 363.636
139.423 626.087 363.636
139.423 634.783 363.636
139.423 643.478 363.636
139.423 652.174 368.984
139.423 660.87 160.428
139.423 669.565 401.07
139.423 678.261 401.07
139.423 686.957 401.07
139.423 695.652 401.07
139.423 704.348 401.07
139.423 713.043 401.07
139.423 721.739 401.07
139.423 730.435 406.417
139.423 739.13 160.428
139.423 747.826 427.807
139.423 756.522 427.807
139.423 765.217 427.807
139.423 773.913 326.203
139.423 782.609 438.503
139.423 791.304 438.503
139.423 800 144.385
139.423 808.696 438.503
139.423 817.391 438.503
139.423 826.087 438.503
139.423 834.783 438.503
139.423 843.478 438.503
139.423 852.174 438.503
139.423 860.87 85.5615
139.423 869.565 374.332
139.423 878.261 427.807
139.423 886.957 427.807
139.423 895.652 427.807
139.423 904.348 427.807
139.423 913.043 427.807
139.423 921.739 427.807
144.231 78.2609 267.38
144.231 86.9565 315.508
144.231 95.6522 417.112
144.231 104.348 363.636
144.231 113.043 267.38
144.231 121.739 363.636
144.231 130.435 363.636
144.231 139.13 363.636
144.231 147.826 363.636
144.231 156.522 315.508
144.231 165.217 422.46
144.231 173.913 363.636
144.231 182.609 267.38
144.231 191.304 406.417
144.231 200 368.984
144.231 208.696 368.984
144.231 217.391 320.856
144.231 226.087 427.807
144.231 234.783 374.332
144.231 243.478 390.374
144.231 252.174 454.545
144.231 260.87 427.807
144.231 269.565 438.503
144.231 278.261 304.813
144.231 286.957 438.503
144.231 295.652 465.241
144.231 304.348 550.802
144.231 313.043 556.15
144.231 321.739 625.668
144.231 330.435 636.364
144.231 339.13 422.46
144.231 347.826 631.016
144.231 356.522 572.193
144.231 365.217 524.064
144.231 373.913 491.979
144.231 382.609 566.845
144.231 391.304 390.374
144.231 400 390.374
144.231 408.696 133.69
144.231 417.391 395.722
144.231 426.087 395.722
144.231 434.783 395.722
144.231 443.478 497.326
144.231 452.174 502.674
144.231 460.87 368.984
144.231 469.565 368.984
144.231 478.261 508.021
144.231 486.957 534.759
144.231 495.652 374.332
144.231 504.348 401.07
144.231 513.043 326.203
144.231 521.739 326.203
144.231 530.435 326.203
144.231 539.13 96.2567
144.231 547.826 315.508
144.231 556.522 358.289
144.231 565.217 358.289
144.231 573.913 358.289
144.231 582.609 358.289
144.231 591.304 358.289
144.231 600 358.289
144.231 608.696 358.289
144.231 617.391 363.636
144.231 626.087 363.636
144.231 634.783 363.636
144.231 643.478 363.636
144.231 652.174 368.984
144.231 660.87 155.08
144.231 669.565 401.07
144.231 678.261 401.07
144.231 686.957 401.07
144.231 695.652 401.07
144.231 704.348 401.07
144.231 713.043 401.07
144.231 721.739 401.07
144.231 730.435 401.07
144.231 739.13 160.428
144.231 747.826 427.807
144.231 756.522 427.807
144.231 765.217 427.807
144.231 773.913 155.08
144.231 782.609 438.503
144.231 791.304 438.503
144.231 800 149.733
144.231 808.696 438.503
144.231 817.391 438.503
144.231 826.087 438.503
144.231 834.783 438.503
144.231 843.478 438.503
144.231 852.174 438.503
144.231 860.87 438.503
144.231 869.565 315.508
144.231 878.261 427.807
144.231 886.957 427.807
144.231 895.652 433.155
144.231 904.348 433.155
144.231 913.043 433.155
144.231 921.739 427.807
149.038 86.9565 401.07
149.038 95.6522 262.032
149.038 104.348 363.636
149.038 113.043 267.38
149.038 121.739 401.07
149.038 130.435 363.636
149.038 139.13 363.636
149.038 147.826 363.636
149.038 156.522 363.636
149.038 165.217 267.38
149.038 173.913 368.984
149.038 182.609 315.508
149.038 191.304 427.807
149.038 200 368.984
149.038 208.696 368.984
149.038 217.391 368.984
149.038 226.087 267.38
149.038 234.783 374.332
149.038 243.478 390.374
149.038 252.174 310.16
149.038 260.87 443.85
149.038 269.565 529.412
149.038 278.261 304.813
149.038 286.957 550.802
149.038 295.652 470.588
149.038 304.348 556.15
149.038 313.043 406.417
149.038 321.739 657.754
149.038 330.435 545.455
149.038 339.13 449.198
149.038 347.826 631.016
149.038 356.522 620.321
149.038 365.217 459.893
149.038 373.913 566.845
149.038 382.609 550.802
149.038 391.304 433.155
149.038 400 395.722
149.038 408.696 187.166
149.038 417.391 395.722
149.038 426.087 395.722
149.038 434.783 395.722
149.038 443.478 497.326
149.038 452.174 336.898
149.038 460.87 342.246
149.038 469.565 401.07
149.038 478.261 524.064
149.038 486.957 550.802
149.038 495.652 379.679
149.038 504.348 326.203
149.038 513.043 326.203
149.038 521.739 326.203
149.038 530.435 326.203
149.038 539.13 331.551
149.038 547.826 272.727
149.038 556.522 358.289
149.038 565.217 358.289
149.038 573.913 358.289
149.038 582.609 358.289
149.038 591.304 358.289
149.038 600 358.289
149.038 608.696 358.289
149.038 617.391 363.636
149.038 626.087 363.636
149.038 634.783 363.636
149.038 643.478 363.636
149.038 652.174 368.984
149.038 660.87 155.08
149.038 669.565 401.07
149.038 678.261 395.722
149.038 686.957 395.722
149.038 695.652 401.07
149.038 704.348 401.07
149.038 713.043 401.07
149.038 721.739 401.07
149.038 730.435 401.07
149.038 739.13 160.428
149.038 747.826 427.807
149.038 756.522 427.807
149.038 765.217 427.807
149.038 773.913 96.2567
149.038 782.609 379.679
149.038 791.304 438.503
149.038 800 149.733
149.038 808.696 438.503
149.038 817.391 438.503
149.038 826.087 438.503
149.038 834.783 438.503
149.038 843.478 438.503
149.038 852.174 438.503
149.038 860.87 438.503
149.038 869.565 139.037
149.038 878.261 427.807
149.038 886.957 427.807
149.038 895.652 433.155
149.038 904.348 433.155
149.038 913.043 433.155
149.038 921.739 427.807
153.846 86.9565 417.112
153.846 95.6522 262.032
153.846 104.348 401.07
153.846 113.043 315.508
153.846 121.739 422.46
153.846 130.435 363.636
153.846 139.13 363.636
153.846 147.826 363.636
153.846 156.522 363.636
153.846 165.217 267.38
153.846 173.913 401.07
153.846 182.609 363.636
153.846 191.304 267.38
153.846 200 368.984
153.846 208.696 368.984
153.846 217.391 368.984
153.846 226.087 272.727
153.846 234.783 406.417
153.846 243.478 390.374
153.846 252.174 299.465
153.846 260.87 465.241
153.846 269.565 529.412
153.846 278.261 310.16
153.846 286.957 556.15
153.846 295.652 470.588
153.846 304.348 556.15
153.846 313.043 406.417
153.846 321.739 625.668
153.846 330.435 524.064
153.846 339.13 454.545
153.846 347.826 604.278
153.846 356.522 620.321
153.846 365.217 459.893
153.846 373.913 540.107
153.846 382.609 529.412
153.846 391.304 465.241
153.846 400 133.69
153.846 408.696 240.642
153.846 417.391 395.722
153.846 426.087 395.722
153.846 434.783 395.722
153.846 443.478 406.417
153.846 452.174 368.984
153.846 460.87 368.984
153.846 469.565 508.021
153.846 478.261 524.064
153.846 486.957 625.668
153.846 495.652 379.679
153.846 504.348 326.203
153.846 513.043 326.203
153.846 521.739 326.203
153.846 530.435 326.203
153.846 539.13 331.551
153.846 547.826 139.037
153.846 556.522 358.289
153.846 565.217 358.289
153.846 573.913 358.289
153.846 582.609 358.289
153.846 591.304 358.289
153.846 600 358.289
153.846 608.696 358.289
153.846 617.391 363.636
153.846 626.087 363.636
153.846 634.783 363.636
153.846 643.478 363.636
153.846 652.174 368.984
153.846 660.87 155.08
153.846 669.565 395.722
153.846 678.261 395.722
153.846 686.957 395.722
153.846 695.652 395.722
153.846 704.348 401.07
153.846 713.043 401.07
153.846 721.739 401.07
153.846 730.435 401.07
153.846 739.13 160.428
153.846 747.826 427.807
153.846 756.522 427.807
153.846 765.217 427.807
153.846 773.913 427.807
153.846 782.609 326.203
153.846 791.304 438.503
153.846 800 149.733
153.846 808.696 438.503
153.846 817.391 438.503
153.846 826.087 438.503
153.846 834.783 438.503
153.846 843.478 438.503
153.846 852.174 438.503
153.846 860.87 438.503
153.846 869.565 139.037
153.846 878.261 427.807
153.846 886.957 427.807
153.846 895.652 433.155
153.846 904.348 433.155
153.846 913.043 433.155
153.846 921.739 433.155
158.654 86.9565 267.38
158.654 95.6522 315.508
158.654 104.348 422.46
158.654 113.043 363.636
158.654 121.739 267.38
158.654 130.435 363.636
158.654 139.13 363.636
158.654 147.826 363.636
158.654 156.522 363.636
158.654 165.217 315.508
158.654 173.913 422.46
158.654 182.609 363.636
158.654 191.304 267.38
158.654 200 406.417
158.654 208.696 368.984
158.654 217.391 320.856
158.654 226.087 224.599
158.654 234.783 390.374
158.654 243.478 379.679
158.654 252.174 288.77
158.654 260.87 518.717
158.654 269.565 534.759
158.654 278.261 315.508
158.654 286.957 556.15
158.654 295.652 470.588
158.654 304.348 561.497
158.654 313.043 556.15
158.654 321.739 577.54
158.654 330.435 593.583
158.654 339.13 540.107
158.654 347.826 534.759
158.654 356.522 561.497
158.654 365.217 427.807
158.654 373.913 545.455
158.654 382.609 486.631
158.654 391.304 438.503
158.654 400 187.166
158.654 408.696 395.722
158.654 417.391 395.722
158.654 426.087 395.722
158.654 434.783 395.722
158.654 443.478 139.037
158.654 452.174 347.594
158.654 460.87 401.07
158.654 469.565 513.369
158.654 478.261 534.759
158.654 486.957 379.679
158.654 495.652 374.332
158.654 504.348 326.203
158.654 513.043 326.203
158.654 521.739 326.203
158.654 530.435 331.551
158.654 539.13 331.551
158.654 547.826 96.2567
158.654 556.522 315.508
158.654 565.217 358.289
158.654 573.913 358.289
158.654 582.609 358.289
158.654 591.304 358.289
158.654 600 358.289
158.654 608.696 358.289
158.654 617.391 363.636
158.654 626.087 363.636
158.654 634.783 363.636
158.654 643.478 363.636
158.654 652.174 368.984
158.654 660.87 155.08
158.654 669.565 395.722
158.654 678.261 395.722
158.654 686.957 395.722
158.654 695.652 395.722
158.654 704.348 395.722
158.654 713.043 401.07
158.654 721.739 401.07
158.654 730.435 401.07
158.654 739.13 106.952
158.654 747.826 374.332
158.654 756.522 427.807
158.654 765.217 427.807
158.654 773.913 433.155
158.654 782.609 213.904
158.654 791.304 438.503
158.654 800 149.733
158.654 808.696 438.503
158.654 817.391 438.503
158.654 826.087 438.503
158.654 834.783 438.503
158.654 843.478 438.503
158.654 852.174 438.503
158.654 860.87 438.503
158.654 869.565 139.037
158.654 878.261 427.807
158.654 886.957 427.807
158.654 895.652 433.155
158.654 904.348 433.155
158.654 913.043 433.155
158.654 921.739 433.155
158.654 930.435 139.037
158.654 939.13 422.46
158.654 947.826 422.46
158.654 956.522 422.46
163.462 86.9565 315.508
163.462 95.6522 422.46
163.462 104.348 267.38
163.462 113.043 363.636
163.462 121.739 315.508
163.462 130.435 422.46
163.462 139.13 363.636
163.462 147.826 363.636
163.462 156.522 363.636
163.462 165.217 363.636
163.462 173.913 267.38
163.462 182.609 368.984
163.462 191.304 267.38
163.462 200 406.417
163.462 208.696 368.984
163.462 217.391 272.727
163.462 226.087 406.417
163.462 234.783 385.027
163.462 243.478 326.203
163.462 252.174 240.642
163.462 260.87 481.283
163.462 269.565 502.674
163.462 278.261 245.989
163.462 286.957 481.283
163.462 295.652 443.85
163.462 304.348 550.802
163.462 313.043 631.016
163.462 321.739 497.326
163.462 330.435 513.369
163.462 339.13 518.717
163.462 347.826 614.973
163.462 356.522 524.064
163.462 365.217 352.941
163.462 373.913 449.198
163.462 382.609 465.241
163.462 391.304 181.818
163.462 400 240.642
163.462 408.696 395.722
163.462 417.391 395.722
163.462 426.087 395.722
163.462 434.783 406.417
163.462 443.478 208.556
163.462 452.174 368.984
163.462 460.87 508.021
163.462 469.565 524.064
163.462 478.261 556.15
163.462 486.957 363.636
163.462 495.652 336.898
163.462 504.348 326.203
163.462 513.043 326.203
163.462 521.739 331.551
163.462 530.435 331.551
163.462 539.13 331.551
163.462 547.826 331.551
163.462 556.522 272.727
163.462 565.217 358.289
163.462 573.913 358.289
163.462 582.609 358.289
163.462 591.304 358.289
163.462 600 358.289
163.462 608.696 363.636
163.462 617.391 363.636
163.462 626.087 363.636
163.462 634.783 363.636
163.462 643.478 363.636
163.462 652.174 368.984
163.462 660.87 155.08
163.462 669.565 395.722
163.462 678.261 395.722
163.462 686.957 395.722
163.462 695.652 395.722
163.462 704.348 395.722
163.462 713.043 401.07
163.462 721.739 401.07
163.462 730.435 401.07
163.462 739.13 401.07
163.462 747.826 320.856
163.462 756.522 427.807
163.462 765.217 427.807
163.462 773.913 149.733
163.462 782.609 262.032
163.462 791.304 433.155
163.462 800 149.733
163.462 808.696 438.503
163.462 817.391 438.503
163.462 826.087 438.503
163.462 834.783 438.503
163.462 843.478 438.503
163.462 852.174 438.503
163.462 860.87 438.503
163.462 869.565 139.037
163.462 878.261 427.807
163.462 886.957 427.807
163.462 895.652 433.155
163.462 904.348 433.155
163.462 913.043 433.155
163.462 921.739 438.503
163.462 930.435 192.513
163.462 939.13 422.46
163.462 947.826 422.46
163.462 956.522 422.46
163.462 965.217 422.46
168.269 95.6522 267.38
168.269 104.348 315.508
168.269 113.043 422.46
168.269 121.739 363.636
168.269 130.435 267.38
168.269 139.13 363.636
168.269 147.826 363.636
168.269 156.522 363.636
168.269 165.217 315.508
168.269 173.913 213.904
168.269 182.609 336.898
168.269 191.304 219.251
168.269 200 390.374
168.269 208.696 326.203
168.269 217.391 224.599
168.269 226.087 401.07
168.269 234.783 331.551
168.269 243.478 224.599
168.269 252.174 406.417
168.269 260.87 352.941
168.269 269.565 401.07
168.269 278.261 513.369
168.269 286.957 379.679
168.269 295.652 556.15
168.269 304.348 636.364
168.269 313.043 556.15
168.269 321.739 363.636
168.269 330.435 465.241
168.269 339.13 620.321
168.269 347.826 572.193
168.269 356.522 497.326
168.269 365.217 411.765
168.269 373.913 411.765
168.269 382.609 427.807
168.269 391.304 133.69
168.269 400 395.722
168.269 408.696 395.722
168.269 417.391 395.722
168.269 426.087 395.722
168.269 434.783 139.037
168.269 443.478 139.037
168.269 452.174 406.417
168.269 460.87 513.369
168.269 469.565 513.369
168.269 478.261 491.979
168.269 486.957 529.412
168.269 495.652 336.898
168.269 504.348 326.203
168.269 513.043 326.203
168.269 521.739 331.551
168.269 530.435 331.551
168.269 539.13 331.551
168.269 547.826 331.551
168.269 556.522 96.2567
168.269 565.217 315.508
168.269 573.913 358.289
168.269 582.609 358.289
168.269 591.304 358.289
168.269 600 358.289
168.269 608.696 363.636
168.269 617.391 363.636
168.269 626.087 363.636
168.269 634.783 363.636
168.269 643.478 363.636
168.269 652.174 363.636
168.269 660.87 106.952
168.269 669.565 347.594
168.269 678.261 395.722
168.269 686.957 395.722
168.269 695.652 395.722
168.269 704.348 395.722
168.269 713.043 395.722
168.269 721.739 401.07
168.269 730.435 401.07
168.269 739.13 401.07
168.269 747.826 160.428
168.269 756.522 427.807
168.269 765.217 427.807
168.269 773.913 149.733
168.269 782.609 433.155
168.269 791.304 443.85
168.269 800 208.556
168.269 808.696 438.503
168.269 817.391 438.503
168.269 826.087 438.503
168.269 834.783 438.503
168.269 843.478 438.503
168.269 852.174 438.503
168.269 860.87 438.503
168.269 869.565 139.037
168.269 878.261 427.807
168.269 886.957 433.155
168.269 895.652 433.155
168.269 904.348 433.155
168.269 913.043 433.155
168.269 921.739 139.037
168.269 930.435 251.337
168.269 939.13 422.46
168.269 947.826 422.46
168.269 956.522 422.46
168.269 965.217 422.46
173.077 104.348 422.46
173.077 113.043 315.508
173.077 121.739 368.984
173.077 130.435 315.508
173.077 139.13 422.46
173.077 147.826 363.636
173.077 156.522 363.636
173.077 165.217 262.032
173.077 173.913 358.289
173.077 182.609 235.294
173.077 191.304 401.07
173.077 200 342.246
173.077 208.696 229.947
173.077 217.391 406.417
173.077 226.087 342.246
173.077 234.783 229.947
173.077 243.478 352.941
173.077 252.174 299.465
173.077 260.87 187.166
173.077 269.565 470.588
173.077 278.261 438.503
173.077 286.957 449.198
173.077 295.652 588.235
173.077 304.348 545.455
173.077 313.043 524.064
173.077 321.739 508.021
173.077 330.435 620.321
173.077 339.13 449.198
173.077 347.826 438.503
173.077 356.522 433.155
173.077 365.217 491.979
173.077 373.913 192.513
173.077 382.609 304.813
173.077 391.304 85.5615
173.077 400 347.594
173.077 408.696 401.07
173.077 417.391 395.722
173.077 426.087 395.722
173.077 434.783 139.037
173.077 443.478 139.037
173.077 452.174 513.369
173.077 460.87 513.369
173.077 469.565 513.369
173.077 478.261 459.893
173.077 486.957 524.064
173.077 495.652 358.289
173.077 504.348 352.941
173.077 513.043 331.551
173.077 521.739 331.551
173.077 530.435 331.551
173.077 539.13 336.898
173.077 547.826 336.898
173.077 556.522 336.898
173.077 565.217 272.727
173.077 573.913 358.289
173.077 582.609 358.289
173.077 591.304 358.289
173.077 600 363.636
173.077 608.696 363.636
173.077 617.391 363.636
173.077 626.087 363.636
173.077 634.783 363.636
173.077 643.478 363.636
173.077 652.174 363.636
173.077 660.87 368.984
173.077 669.565 299.465
173.077 678.261 395.722
173.077 686.957 395.722
173.077 695.652 395.722
173.077 704.348 395.722
173.077 713.043 395.722
173.077 721.739 401.07
173.077 730.435 401.07
173.077 739.13 401.07
173.077 747.826 160.428
173.077 756.522 427.807
173.077 765.217 427.807
173.077 773.913 149.733
173.077 782.609 433.155
173.077 791.304 149.733
173.077 800 267.38
173.077 808.696 438.503
173.077 817.391 438.503
173.077 826.087 438.503
173.077 834.783 438.503
173.077 843.478 438.503
173.077 852.174 438.503
173.077 860.87 438.503
173.077 869.565 139.037
173.077 878.261 433.155
173.077 886.957 433.155
173.077 895.652 433.155
173.077 904.348 438.503
173.077 913.043 433.155
173.077 921.739 139.037
173.077 930.435 422.46
173.077 939.13 422.46
173.077 947.826 422.46
173.077 956.522 422.46
173.077 965.217 422.46
173.077 973.913 422.46
177.885 104.348 315.508
177.885 113.043 368.984
177.885 121.739 267.38
177.885 130.435 363.636
177.885 139.13 267.38
177.885 147.826 363.636
177.885 156.522 315.508
177.885 165.217 213.904
177.885 173.913 251.337
177.885 182.609 358.289
177.885 191.304 294.118
177.885 200 181.818
177.885 208.696 406.417
177.885 217.391 342.246
177.885 226.087 229.947
177.885 234.783 363.636
177.885 243.478 245.989
177.885 252.174 417.112
177.885 260.87 352.941
177.885 269.565 363.636
177.885 278.261 417.112
177.885 286.957 486.631
177.885 295.652 470.588
177.885 304.348 401.07
177.885 313.043 497.326
177.885 321.739 550.802
177.885 330.435 534.759
177.885 339.13 465.241
177.885 347.826 497.326
177.885 356.522 326.203
177.885 365.217 310.16
177.885 373.913 256.684
177.885 382.609 278.075
177.885 391.304 187.166
177.885 400 294.118
177.885 408.696 401.07
177.885 417.391 401.07
177.885 426.087 401.07
177.885 434.783 90.9091
177.885 443.478 144.385
177.885 452.174 513.369
177.885 460.87 513.369
177.885 469.565 352.941
177.885 478.261 363.636
177.885 486.957 481.283
177.885 495.652 336.898
177.885 504.348 342.246
177.885 513.043 331.551
177.885 521.739 331.551
177.885 530.435 336.898
177.885 539.13 336.898
177.885 547.826 336.898
177.885 556.522 336.898
177.885 565.217 139.037
177.885 573.913 358.289
177.885 582.609 358.289
177.885 591.304 363.636
177.885 600 363.636
177.885 608.696 363.636
177.885 617.391 363.636
177.885 626.087 363.636
177.885 634.783 363.636
177.885 643.478 363.636
177.885 652.174 363.636
177.885 660.87 379.679
177.885 669.565 203.209
177.885 678.261 395.722
177.885 686.957 395.722
177.885 695.652 395.722
177.885 704.348 395.722
177.885 713.043 395.722
177.885 721.739 401.07
177.885 730.435 401.07
177.885 739.13 401.07
177.885 747.826 160.428
177.885 756.522 427.807
177.885 765.217 427.807
177.885 773.913 149.733
177.885 782.609 433.155
177.885 791.304 155.08
177.885 800 438.503
177.885 808.696 438.503
177.885 817.391 438.503
177.885 826.087 438.503
177.885 834.783 438.503
177.885 843.478 438.503
177.885 852.174 438.503
177.885 860.87 438.503
177.885 869.565 144.385
177.885 878.261 433.155
177.885 886.957 433.155
177.885 895.652 438.503
177.885 904.348 438.503
177.885 913.043 438.503
177.885 921.739 133.69
177.885 930.435 422.46
177.885 939.13 422.46
177.885 947.826 422.46
177.885 956.522 422.46
177.885 965.217 422.46
177.885 973.913 422.46
182.692 113.043 267.38
182.692 121.739 267.38
182.692 130.435 358.289
182.692 139.13 213.904
182.692 147.826 336.898
182.692 156.522 219.251
182.692 165.217 213.904
182.692 173.913 315.508
182.692 182.609 197.861
182.692 191.304 310.16
182.692 200 245.989
182.692 208.696 245.989
182.692 217.391 197.861
182.692 226.087 272.727
182.692 234.783 203.209
182.692 243.478 411.765
182.692 252.174 363.636
182.692 260.87 240.642
182.692 269.565 390.374
182.692 278.261 385.027
182.692 286.957 368.984
182.692 295.652 368.984
182.692 304.348 347.594
182.692 313.043 417.112
182.692 321.739 406.417
182.692 330.435 459.893
182.692 339.13 470.588
182.692 347.826 443.85
182.692 356.522 411.765
182.692 365.217 406.417
182.692 373.913 395.722
182.692 382.609 427.807
182.692 391.304 427.807
182.692 400 256.684
182.692 408.696 299.465
182.692 417.391 352.941
182.692 426.087 411.765
182.692 434.783 395.722
182.692 443.478 336.898
182.692 452.174 481.283
182.692 460.87 518.717
182.692 469.565 352.941
182.692 478.261 342.246
182.692 486.957 411.765
182.692 495.652 481.283
182.692 504.348 411.765
182.692 513.043 331.551
182.692 521.739 331.551
182.692 530.435 336.898
182.692 539.13 336.898
182.692 547.826 336.898
182.692 556.522 336.898
182.692 565.217 139.037
182.692 573.913 363.636
182.692 582.609 363.636
182.692 591.304 363.636
182.692 600 363.636
182.692 608.696 363.636
182.692 617.391 363.636
182.692 626.087 363.636
182.692 634.783 363.636
182.692 643.478 363.636
182.692 652.174 368.984
182.692 660.87 155.08
182.692 669.565 251.337
182.692 678.261 395.722
182.692 686.957 395.722
182.692 695.652 395.722
182.692 704.348 395.722
182.692 713.043 395.722
182.692 721.739 401.07
182.692 730.435 401.07
182.692 739.13 401.07
182.692 747.826 160.428
182.692 756.522 427.807
182.692 765.217 427.807
182.692 773.913 149.733
182.692 782.609 433.155
182.692 791.304 155.08
182.692 800 438.503
182.692 808.696 438.503
182.692 817.391 438.503
182.692 826.087 438.503
182.692 834.783 438.503
182.692 843.478 438.503
182.692 852.174 438.503
182.692 860.87 438.503
182.692 869.565 144.385
182.692 878.261 433.155
182.692 886.957 438.503
182.692 895.652 438.503
182.692 904.348 438.503
182.692 913.043 438.503
182.692 921.739 133.69
182.692 930.435 422.46
182.692 939.13 422.46
182.692 947.826 422.46
182.692 956.522 422.46
182.692 965.217 422.46
182.692 973.913 422.46
187.5 121.739 278.075
187.5 130.435 288.77
187.5 139.13 358.289
187.5 147.826 240.642
187.5 156.522 336.898
187.5 165.217 213.904
187.5 173.913 278.075
187.5 182.609 197.861
187.5 191.304 283.422
187.5 200 251.337
187.5 208.696 224.599
187.5 217.391 358.289
187.5 226.087 299.465
187.5 234.783 288.77
187.5 243.478 331.551
187.5 252.174 385.027
187.5 260.87 326.203
187.5 269.565 299.465
187.5 278.261 331.551
187.5 286.957 331.551
187.5 295.652 304.813
187.5 304.348 262.032
187.5 313.043 299.465
187.5 321.739 331.551
187.5 330.435 347.594
187.5 339.13 379.679
187.5 347.826 406.417
187.5 356.522 390.374
187.5 365.217 385.027
187.5 373.913 385.027
187.5 382.609 385.027
187.5 391.304 406.417
187.5 400 433.155
187.5 408.696 475.936
187.5 417.391 508.021
187.5 426.087 331.551
187.5 434.783 374.332
187.5 443.478 310.16
187.5 452.174 406.417
187.5 460.87 481.283
187.5 469.565 336.898
187.5 478.261 475.936
187.5 486.957 417.112
187.5 495.652 422.46
187.5 504.348 491.979
187.5 513.043 459.893
187.5 521.739 336.898
187.5 530.435 336.898
187.5 539.13 336.898
187.5 547.826 336.898
187.5 556.522 336.898
187.5 565.217 90.9091
187.5 573.913 320.856
187.5 582.609 363.636
187.5 591.304 363.636
187.5 600 363.636
187.5 608.696 363.636
187.5 617.391 363.636
187.5 626.087 363.636
187.5 634.783 363.636
187.5 643.478 363.636
187.5 652.174 379.679
187.5 660.87 203.209
187.5 669.565 395.722
187.5 678.261 395.722
187.5 686.957 395.722
187.5 695.652 395.722
187.5 704.348 395.722
187.5 713.043 395.722
187.5 721.739 401.07
187.5 730.435 401.07
187.5 739.13 401.07
187.5 747.826 160.428
187.5 756.522 427.807
187.5 765.217 427.807
187.5 773.913 149.733
187.5 782.609 433.155
187.5 791.304 155.08
187.5 800 438.503
187.5 808.696 438.503
187.5 817.391 438.503
187.5 826.087 438.503
187.5 834.783 438.503
187.5 843.478 438.503
187.5 852.174 438.503
187.5 860.87 443.85
187.5 869.565 203.209
187.5 878.261 438.503
187.5 886.957 438.503
187.5 895.652 438.503
187.5 904.348 438.503
187.5 913.043 438.503
187.5 921.739 139.037
187.5 930.435 427.807
187.5 939.13 422.46
187.5 947.826 422.46
187.5 956.522 422.46
187.5 965.217 422.46
187.5 973.913 422.46
192.308 121.739 283.422
192.308 130.435 197.861
192.308 139.13 363.636
192.308 147.826 240.642
192.308 156.522 294.118
192.308 165.217 374.332
192.308 173.913 267.38
192.308 182.609 422.46
192.308 191.304 315.508
192.308 200 256.684
192.308 208.696 481.283
192.308 217.391 379.679
192.308 226.087 326.203
192.308 234.783 438.503
192.308 243.478 326.203
192.308 252.174 368.984
192.308 260.87 272.727
192.308 269.565 374.332
192.308 278.261 262.032
192.308 286.957 251.337
192.308 295.652 176.471
192.308 304.348 176.471
192.308 313.043 176.471
192.308 321.739 155.08
192.308 330.435 165.775
192.308 339.13 262.032
192.308 347.826 331.551
192.308 356.522 288.77
192.308 365.217 336.898
192.308 373.913 385.027
192.308 382.609 385.027
192.308 391.304 385.027
192.308 400 385.027
192.308 408.696 390.374
192.308 417.391 390.374
192.308 426.087 411.765
192.308 434.783 417.112
192.308 443.478 208.556
192.308 452.174 320.856
