161.616 0 335.526
161.616 6.25 335.526
161.616 12.5 335.526
161.616 18.75 335.526
161.616 25 618.421
161.616 31.25 618.421
161.616 37.5 618.421
161.616 43.75 526.316
161.616 50 164.474
161.616 56.25 671.053
161.616 62.5 302.632
161.616 68.75 684.211
161.616 75 138.158
161.616 81.25 605.263
161.616 87.5 611.842
161.616 93.75 302.632
161.616 100 611.842
161.616 106.25 342.105
161.616 112.5 342.105
161.616 118.75 348.684
161.616 125 348.684
161.616 131.25 348.684
161.616 137.5 348.684
161.616 143.75 348.684
161.616 687.5 868.421
161.616 693.75 460.526
161.616 700 868.421
161.616 706.25 914.474
161.616 712.5 236.842
161.616 718.75 914.474
161.616 731.25 907.895
161.616 737.5 52.6316
161.616 743.75 914.474
161.616 756.25 901.316
161.616 768.75 907.895
161.616 781.25 848.684
161.616 793.75 868.421
161.616 806.25 789.474
161.616 812.5 52.6316
161.616 818.75 789.474
161.616 831.25 756.579
161.616 837.5 78.9474
161.616 843.75 763.158
161.616 856.25 730.263
161.616 868.75 730.263
161.616 881.25 703.947
161.616 887.5 19.7368
161.616 893.75 710.526
166.667 0 335.526
166.667 6.25 335.526
166.667 12.5 651.316
166.667 18.75 651.316
166.667 25 717.105
166.667 31.25 625
166.667 37.5 723.684
166.667 43.75 638.158
166.667 50 263.158
166.667 56.25 703.947
166.667 62.5 302.632
166.667 68.75 730.263
166.667 75 401.316
166.667 81.25 736.842
166.667 87.5 644.737
166.667 93.75 342.105
166.667 100 684.211
166.667 106.25 486.842
166.667 112.5 618.421
166.667 118.75 348.684
166.667 125 348.684
166.667 131.25 348.684
166.667 137.5 348.684
166.667 143.75 348.684
166.667 662.5 710.526
166.667 668.75 710.526
166.667 675 710.526
166.667 687.5 901.316
166.667 693.75 460.526
166.667 700 901.316
166.667 706.25 921.053
166.667 712.5 151.316
166.667 718.75 921.053
166.667 731.25 901.316
166.667 737.5 59.2105
166.667 743.75 907.895
166.667 756.25 888.158
166.667 768.75 901.316
166.667 781.25 835.526
166.667 793.75 848.684
166.667 806.25 782.895
166.667 812.5 6.57895
166.667 818.75 789.474
166.667 831.25 750
166.667 837.5 85.5263
166.667 843.75 756.579
166.667 856.25 723.684
166.667 868.75 730.263
166.667 881.25 697.368
166.667 887.5 39.4737
166.667 893.75 703.947
171.717 0 335.526
171.717 6.25 335.526
171.717 12.5 651.316
171.717 18.75 513.158
171.717 25 684.211
171.717 31.25 269.737
171.717 37.5 736.842
171.717 43.75 638.158
171.717 50 144.737
171.717 56.25 638.158
171.717 62.5 256.579
171.717 68.75 743.421
171.717 75 401.316
171.717 81.25 736.842
171.717 87.5 743.421
171.717 93.75 401.316
171.717 100 782.895
171.717 106.25 473.684
171.717 112.5 703.947
171.717 118.75 526.316
171.717 125 526.316
171.717 131.25 611.842
171.717 137.5 506.579
171.717 143.75 506.579
171.717 150 559.211
171.717 156.25 559.211
171.717 162.5 559.211
171.717 181.25 414.474
171.717 187.5 414.474
171.717 193.75 414.474
171.717 637.5 467.105
171.717 643.75 467.105
171.717 650 467.105
171.717 662.5 868.421
171.717 668.75 723.684
171.717 675 868.421
171.717 687.5 914.474
171.717 693.75 223.684
171.717 700 914.474
171.717 706.25 914.474
171.717 718.75 914.474
171.717 731.25 888.158
171.717 737.5 6.57895
171.717 743.75 901.316
171.717 756.25 881.579
171.717 768.75 888.158
171.717 781.25 828.947
171.717 793.75 835.526
171.717 806.25 776.316
171.717 812.5 6.57895
171.717 818.75 782.895
171.717 831.25 736.842
171.717 837.5 19.7368
171.717 843.75 750
171.717 856.25 717.105
171.717 868.75 723.684
171.717 881.25 677.632
171.717 887.5 177.632
171.717 893.75 697.368
176.768 0 335.526
176.768 6.25 335.526
176.768 12.5 565.789
176.768 18.75 394.737
176.768 25 684.211
176.768 31.25 375
176.768 37.5 690.789
176.768 43.75 644.737
176.768 50 144.737
176.768 56.25 697.368
176.768 62.5 263.158
176.768 68.75 750
176.768 75 407.895
176.768 81.25 736.842
176.768 87.5 743.421
176.768 93.75 434.211
176.768 100 828.947
176.768 106.25 532.895
176.768 112.5 756.579
176.768 118.75 697.368
176.768 125 473.684
176.768 131.25 736.842
176.768 137.5 532.895
176.768 143.75 657.895
176.768 150 625
176.768 156.25 276.316
176.768 162.5 625
176.768 181.25 651.316
176.768 187.5 486.842
176.768 193.75 651.316
176.768 200 368.421
176.768 206.25 368.421
176.768 212.5 368.421
176.768 250 421.053
176.768 256.25 421.053
176.768 262.5 421.053
176.768 281.25 565.789
176.768 287.5 565.789
176.768 293.75 565.789
176.768 300 401.316
176.768 306.25 401.316
176.768 312.5 401.316
176.768 375 467.105
176.768 381.25 467.105
176.768 387.5 467.105
176.768 512.5 467.105
176.768 518.75 467.105
176.768 525 467.105
176.768 575 473.684
176.768 581.25 473.684
176.768 587.5 473.684
176.768 618.75 651.316
176.768 625 651.316
176.768 631.25 651.316
176.768 637.5 467.105
176.768 643.75 467.105
176.768 650 467.105
176.768 662.5 894.737
176.768 668.75 401.316
176.768 675 894.737
176.768 687.5 927.632
176.768 693.75 111.842
176.768 700 921.053
176.768 706.25 907.895
176.768 712.5 52.6316
176.768 718.75 914.474
176.768 731.25 881.579
176.768 743.75 894.737
176.768 756.25 868.421
176.768 768.75 881.579
176.768 781.25 822.368
176.768 793.75 828.947
176.768 806.25 769.737
176.768 818.75 776.316
176.768 831.25 730.263
176.768 837.5 13.1579
176.768 843.75 736.842
176.768 856.25 710.526
176.768 868.75 717.105
176.768 881.25 644.737
176.768 887.5 203.947
176.768 893.75 677.632
181.818 0 335.526
181.818 6.25 335.526
181.818 12.5 611.842
181.818 18.75 322.368
181.818 25 690.789
181.818 31.25 263.158
181.818 37.5 690.789
181.818 43.75 703.947
181.818 50 269.737
181.818 56.25 717.105
181.818 62.5 342.105
181.818 68.75 756.579
181.818 75 493.421
181.818 81.25 756.579
181.818 87.5 736.842
181.818 93.75 421.053
181.818 100 809.211
181.818 106.25 684.211
181.818 112.5 802.632
181.818 118.75 789.474
181.818 125 552.632
181.818 131.25 789.474
181.818 137.5 605.263
181.818 143.75 789.474
181.818 150 671.053
181.818 156.25 421.053
181.818 162.5 671.053
181.818 168.75 546.053
181.818 175 546.053
181.818 181.25 657.895
181.818 187.5 151.316
181.818 193.75 657.895
181.818 200 625
181.818 206.25 625
181.818 212.5 677.632
181.818 218.75 625
181.818 225 625
181.818 231.25 427.632
181.818 237.5 427.632
181.818 243.75 427.632
181.818 250 559.211
181.818 256.25 559.211
181.818 262.5 690.789
181.818 268.75 664.474
181.818 275 664.474
181.818 281.25 750
181.818 287.5 440.789
181.818 293.75 750
181.818 300 407.895
181.818 306.25 407.895
181.818 312.5 407.895
181.818 375 467.105
181.818 381.25 467.105
181.818 387.5 467.105
181.818 431.25 467.105
181.818 437.5 467.105
181.818 443.75 467.105
181.818 493.75 776.316
181.818 500 776.316
181.818 506.25 776.316
181.818 512.5 644.737
181.818 518.75 289.474
181.818 525 644.737
181.818 531.25 743.421
181.818 537.5 743.421
181.818 543.75 743.421
181.818 550 434.211
181.818 556.25 434.211
181.818 562.5 434.211
181.818 575 473.684
181.818 581.25 473.684
181.818 587.5 473.684
181.818 618.75 736.842
181.818 625 296.053
181.818 631.25 736.842
181.818 637.5 861.842
181.818 643.75 861.842
181.818 650 861.842
181.818 662.5 907.895
181.818 668.75 309.211
181.818 675 907.895
181.818 687.5 921.053
181.818 693.75 52.6316
181.818 700 927.632
181.818 706.25 901.316
181.818 712.5 6.57895
181.818 718.75 914.474
181.818 731.25 875
181.818 737.5 197.368
181.818 743.75 881.579
181.818 756.25 861.842
181.818 768.75 868.421
181.818 781.25 815.789
181.818 793.75 822.368
181.818 806.25 763.158
181.818 818.75 769.737
181.818 831.25 723.684
181.818 837.5 13.1579
181.818 843.75 730.263
181.818 856.25 703.947
181.818 862.5 65.7895
181.818 868.75 710.526
181.818 881.25 611.842
181.818 887.5 276.316
181.818 893.75 644.737
186.869 0 375
186.869 6.25 375
186.869 12.5 552.632
186.869 18.75 355.263
186.869 25 690.789
186.869 31.25 282.895
186.869 37.5 690.789
186.869 43.75 717.105
186.869 50 342.105
186.869 56.25 717.105
186.869 62.5 223.684
186.869 68.75 750
186.869 75 394.737
186.869 81.25 743.421
186.869 87.5 782.895
186.869 93.75 315.789
186.869 100 815.789
186.869 106.25 460.526
186.869 112.5 822.368
186.869 118.75 789.474
186.869 125 421.053
186.869 131.25 828.947
186.869 137.5 519.737
186.869 143.75 828.947
186.869 150 822.368
186.869 156.25 486.842
186.869 162.5 822.368
186.869 168.75 453.947
186.869 175 631.579
186.869 181.25 789.474
186.869 187.5 460.526
186.869 193.75 782.895
186.869 200 703.947
186.869 206.25 276.316
186.869 212.5 703.947
186.869 218.75 506.579
186.869 225 684.211
186.869 231.25 736.842
186.869 237.5 592.105
186.869 243.75 736.842
186.869 250 717.105
186.869 256.25 717.105
186.869 262.5 789.474
186.869 268.75 605.263
186.869 275 769.737
186.869 281.25 789.474
186.869 287.5 256.579
186.869 293.75 789.474
186.869 300 407.895
186.869 306.25 407.895
186.869 312.5 407.895
186.869 337.5 473.684
186.869 343.75 473.684
186.869 350 473.684
186.869 375 473.684
186.869 381.25 473.684
186.869 387.5 467.105
186.869 393.75 605.263
186.869 400 605.263
186.869 406.25 605.263
186.869 412.5 414.474
186.869 418.75 414.474
186.869 425 414.474
186.869 431.25 743.421
186.869 437.5 473.684
186.869 443.75 743.421
186.869 450 427.632
186.869 456.25 427.632
186.869 462.5 427.632
186.869 468.75 776.316
186.869 475 776.316
186.869 481.25 776.316
186.869 493.75 835.526
186.869 500 585.526
186.869 506.25 835.526
186.869 512.5 848.684
186.869 518.75 848.684
186.869 525 848.684
186.869 531.25 835.526
186.869 537.5 625
186.869 543.75 835.526
186.869 550 625
186.869 556.25 625
186.869 562.5 625
186.869 575 789.474
186.869 581.25 736.842
186.869 587.5 789.474
186.869 593.75 828.947
186.869 600 828.947
186.869 606.25 828.947
186.869 618.75 848.684
186.869 625 578.947
186.869 631.25 848.684
186.869 637.5 901.316
186.869 643.75 532.895
186.869 650 901.316
186.869 662.5 914.474
186.869 668.75 171.053
186.869 675 914.474
186.869 687.5 921.053
186.869 693.75 6.57895
186.869 700 921.053
186.869 706.25 888.158
186.869 712.5 111.842
186.869 718.75 907.895
186.869 731.25 875
186.869 737.5 105.263
186.869 743.75 875
186.869 756.25 855.263
186.869 762.5 13.1579
186.869 768.75 861.842
186.869 781.25 815.789
186.869 793.75 815.789
186.869 806.25 763.158
186.869 818.75 763.158
186.869 831.25 717.105
186.869 837.5 164.474
186.869 843.75 736.842
186.869 856.25 690.789
186.869 862.5 78.9474
186.869 868.75 703.947
186.869 881.25 618.421
186.869 887.5 328.947
186.869 893.75 625
191.919 0 375
191.919 6.25 375
191.919 12.5 486.842
191.919 18.75 230.263
191.919 25 684.211
191.919 31.25 361.842
191.919 37.5 690.789
191.919 43.75 638.158
191.919 50 256.579
191.919 56.25 717.105
191.919 62.5 348.684
191.919 68.75 717.105
191.919 75 250
191.919 81.25 743.421
191.919 87.5 789.474
191.919 93.75 361.842
191.919 100 822.368
191.919 106.25 388.158
191.919 112.5 815.789
191.919 118.75 809.211
191.919 125 526.316
191.919 131.25 848.684
191.919 137.5 440.789
191.919 143.75 835.526
191.919 150 848.684
191.919 156.25 440.789
191.919 162.5 842.105
191.919 168.75 644.737
191.919 175 769.737
191.919 181.25 875
191.919 187.5 401.316
191.919 193.75 875
191.919 200 881.579
191.919 206.25 585.526
191.919 212.5 881.579
191.919 218.75 421.053
191.919 225 710.526
191.919 231.25 743.421
191.919 237.5 282.895
191.919 243.75 743.421
191.919 250 743.421
191.919 256.25 434.211
191.919 262.5 796.053
191.919 268.75 250
191.919 275 769.737
191.919 281.25 809.211
191.919 287.5 223.684
191.919 293.75 802.632
191.919 300 559.211
191.919 306.25 559.211
191.919 312.5 552.632
191.919 318.75 605.263
191.919 325 605.263
191.919 331.25 605.263
191.919 337.5 605.263
191.919 343.75 605.263
191.919 350 605.263
191.919 356.25 473.684
191.919 362.5 473.684
191.919 368.75 473.684
191.919 375 473.684
191.919 381.25 473.684
191.919 387.5 473.684
191.919 393.75 671.053
191.919 400 671.053
191.919 406.25 671.053
191.919 412.5 717.105
191.919 418.75 717.105
191.919 425 717.105
191.919 431.25 842.105
191.919 437.5 546.053
191.919 443.75 842.105
191.919 450 868.421
191.919 456.25 763.158
191.919 462.5 868.421
191.919 468.75 868.421
191.919 475 677.632
191.919 481.25 868.421
191.919 493.75 888.158
191.919 500 375
191.919 506.25 888.158
191.919 512.5 888.158
191.919 518.75 414.474
191.919 525 888.158
191.919 531.25 848.684
191.919 537.5 453.947
191.919 543.75 868.421
191.919 550 861.842
191.919 556.25 835.526
191.919 562.5 868.421
191.919 575 868.421
191.919 581.25 559.211
191.919 587.5 875
191.919 593.75 868.421
191.919 600 506.579
191.919 606.25 868.421
191.919 618.75 855.263
191.919 625 276.316
191.919 631.25 855.263
191.919 637.5 901.316
191.919 643.75 302.632
191.919 650 907.895
191.919 662.5 907.895
191.919 668.75 46.0526
191.919 675 914.474
191.919 687.5 914.474
191.919 693.75 59.2105
191.919 700 921.053
191.919 706.25 881.579
191.919 712.5 52.6316
191.919 718.75 888.158
191.919 731.25 875
191.919 737.5 0
191.919 743.75 875
191.919 756.25 848.684
191.919 762.5 13.1579
191.919 768.75 855.263
191.919 781.25 809.211
191.919 793.75 815.789
191.919 806.25 756.579
191.919 812.5 39.4737
191.919 818.75 756.579
191.919 831.25 723.684
191.919 837.5 157.895
191.919 843.75 730.263
191.919 856.25 703.947
191.919 862.5 131.579
191.919 868.75 710.526
191.919 881.25 625
191.919 887.5 368.421
191.919 893.75 631.579
196.97 0 486.842
196.97 6.25 486.842
196.97 12.5 638.158
196.97 18.75 440.789
196.97 25 684.211
196.97 31.25 375
196.97 37.5 730.263
196.97 43.75 697.368
196.97 50 368.421
196.97 56.25 690.789
196.97 62.5 394.737
196.97 68.75 782.895
196.97 75 401.316
196.97 81.25 782.895
196.97 87.5 796.053
196.97 93.75 355.263
196.97 100 835.526
196.97 106.25 467.105
196.97 112.5 828.947
196.97 118.75 815.789
196.97 125 348.684
196.97 131.25 855.263
196.97 137.5 361.842
196.97 143.75 855.263
196.97 150 848.684
196.97 156.25 414.474
196.97 162.5 848.684
196.97 168.75 473.684
196.97 175 809.211
196.97 181.25 881.579
196.97 187.5 368.421
196.97 193.75 875
196.97 200 855.263
196.97 206.25 355.263
196.97 212.5 881.579
196.97 218.75 388.158
196.97 225 842.105
196.97 231.25 802.632
196.97 237.5 578.947
196.97 243.75 802.632
196.97 250 802.632
196.97 256.25 388.158
196.97 262.5 809.211
196.97 268.75 230.263
196.97 275 789.474
196.97 281.25 769.737
196.97 287.5 236.842
196.97 293.75 815.789
196.97 300 782.895
196.97 306.25 631.579
196.97 312.5 782.895
196.97 318.75 822.368
196.97 325 572.368
196.97 331.25 822.368
196.97 337.5 842.105
196.97 343.75 684.211
196.97 350 842.105
196.97 356.25 861.842
196.97 362.5 684.211
196.97 368.75 861.842
196.97 375 710.526
196.97 381.25 710.526
196.97 387.5 710.526
196.97 393.75 815.789
196.97 400 815.789
196.97 406.25 835.526
196.97 412.5 894.737
196.97 418.75 664.474
196.97 425 894.737
196.97 431.25 894.737
196.97 437.5 598.684
196.97 443.75 894.737
196.97 450 888.158
196.97 456.25 263.158
196.97 462.5 894.737
196.97 468.75 881.579
196.97 475 414.474
196.97 481.25 888.158
196.97 493.75 901.316
196.97 500 164.474
196.97 506.25 894.737
196.97 512.5 894.737
196.97 518.75 230.263
196.97 525 894.737
196.97 531.25 881.579
196.97 537.5 690.789
196.97 543.75 894.737
196.97 550 881.579
196.97 556.25 500
196.97 562.5 881.579
196.97 575 894.737
196.97 581.25 414.474
196.97 587.5 894.737
196.97 593.75 894.737
196.97 600 421.053
196.97 606.25 894.737
196.97 618.75 888.158
196.97 625 447.368
196.97 631.25 894.737
196.97 637.5 901.316
196.97 643.75 243.421
196.97 650 907.895
196.97 662.5 907.895
196.97 668.75 184.211
196.97 675 914.474
196.97 687.5 901.316
196.97 693.75 111.842
196.97 700 914.474
196.97 706.25 868.421
196.97 712.5 138.158
196.97 718.75 881.579
196.97 731.25 875
196.97 743.75 875
196.97 756.25 848.684
196.97 768.75 848.684
196.97 781.25 809.211
196.97 787.5 19.7368
196.97 793.75 809.211
196.97 806.25 763.158
196.97 812.5 59.2105
196.97 818.75 763.158
196.97 831.25 736.842
196.97 837.5 92.1053
196.97 843.75 736.842
196.97 856.25 697.368
196.97 862.5 138.158
196.97 868.75 703.947
196.97 881.25 638.158
196.97 887.5 322.368
196.97 893.75 638.158
202.02 0 486.842
202.02 6.25 223.684
202.02 12.5 638.158
202.02 18.75 611.842
202.02 25 684.211
202.02 31.25 375
202.02 37.5 684.211
202.02 43.75 730.263
202.02 50 480.263
202.02 56.25 743.421
202.02 62.5 322.368
202.02 68.75 796.053
202.02 75 375
202.02 81.25 789.474
202.02 87.5 842.105
202.02 93.75 421.053
202.02 100 848.684
202.02 106.25 355.263
202.02 112.5 828.947
202.02 118.75 789.474
202.02 125 473.684
202.02 131.25 868.421
202.02 137.5 250
202.02 143.75 868.421
202.02 150 855.263
202.02 156.25 282.895
202.02 162.5 861.842
202.02 168.75 361.842
202.02 175 835.526
202.02 181.25 868.421
202.02 187.5 480.263
202.02 193.75 894.737
202.02 200 888.158
202.02 206.25 269.737
202.02 212.5 901.316
202.02 218.75 440.789
202.02 225 881.579
202.02 231.25 855.263
202.02 237.5 401.316
202.02 243.75 855.263
202.02 250 835.526
202.02 256.25 335.526
202.02 262.5 835.526
202.02 268.75 263.158
202.02 275 802.632
202.02 281.25 842.105
202.02 287.5 381.579
202.02 293.75 842.105
202.02 300 835.526
202.02 306.25 526.316
202.02 312.5 835.526
202.02 318.75 842.105
202.02 325 513.158
202.02 331.25 835.526
202.02 337.5 888.158
202.02 343.75 565.789
202.02 350 888.158
202.02 356.25 907.895
202.02 362.5 407.895
202.02 368.75 907.895
202.02 375 875
202.02 381.25 651.316
202.02 387.5 875
202.02 393.75 809.211
202.02 400 625
202.02 406.25 822.368
202.02 412.5 907.895
202.02 418.75 263.158
202.02 425 907.895
202.02 431.25 894.737
202.02 437.5 355.263
202.02 443.75 894.737
202.02 450 894.737
202.02 456.25 407.895
202.02 462.5 894.737
202.02 468.75 894.737
202.02 475 322.368
202.02 481.25 901.316
202.02 493.75 901.316
202.02 500 217.105
202.02 506.25 901.316
202.02 512.5 907.895
202.02 518.75 282.895
202.02 525 907.895
202.02 531.25 888.158
202.02 537.5 572.368
202.02 543.75 901.316
202.02 550 881.579
202.02 556.25 690.789
202.02 562.5 888.158
202.02 575 894.737
202.02 581.25 289.474
202.02 587.5 894.737
202.02 593.75 894.737
202.02 600 309.211
202.02 606.25 901.316
202.02 618.75 881.579
202.02 625 375
202.02 631.25 888.158
202.02 637.5 894.737
202.02 643.75 263.158
202.02 650 901.316
202.02 662.5 894.737
202.02 668.75 138.158
202.02 675 907.895
202.02 687.5 901.316
202.02 693.75 125
202.02 700 901.316
202.02 706.25 875
202.02 712.5 118.421
202.02 718.75 875
202.02 731.25 868.421
202.02 743.75 875
202.02 756.25 842.105
202.02 768.75 848.684
202.02 781.25 809.211
202.02 787.5 52.6316
202.02 793.75 809.211
202.02 806.25 769.737
202.02 812.5 19.7368
202.02 818.75 763.158
202.02 831.25 730.263
202.02 837.5 171.053
202.02 843.75 736.842
202.02 856.25 697.368
202.02 862.5 203.947
202.02 868.75 697.368
202.02 881.25 631.579
202.02 887.5 243.421
202.02 893.75 638.158
207.071 12.5 717.105
207.071 18.75 592.105
207.071 25 710.526
207.071 31.25 486.842
207.071 37.5 684.211
207.071 43.75 690.789
207.071 50 519.737
207.071 56.25 743.421
207.071 62.5 243.421
207.071 68.75 789.474
207.071 75 302.632
207.071 81.25 822.368
207.071 87.5 842.105
207.071 93.75 335.526
207.071 100 848.684
207.071 106.25 513.158
207.071 112.5 848.684
207.071 118.75 822.368
207.071 125 375
207.071 131.25 875
207.071 137.5 184.211
207.071 143.75 868.421
207.071 150 894.737
207.071 156.25 335.526
207.071 162.5 888.158
207.071 168.75 414.474
207.071 175 848.684
207.071 181.25 855.263
207.071 187.5 335.526
207.071 193.75 855.263
207.071 200 907.895
207.071 206.25 217.105
207.071 212.5 914.474
207.071 218.75 322.368
207.071 225 907.895
207.071 231.25 894.737
207.071 237.5 230.263
207.071 243.75 894.737
207.071 250 888.158
207.071 256.25 480.263
207.071 262.5 907.895
207.071 268.75 368.421
207.071 275 881.579
207.071 281.25 914.474
207.071 287.5 467.105
207.071 293.75 914.474
207.071 300 875
207.071 306.25 513.158
207.071 312.5 868.421
207.071 318.75 881.579
207.071 325 440.789
207.071 331.25 881.579
207.071 337.5 888.158
207.071 343.75 460.526
207.071 350 888.158
207.071 356.25 914.474
207.071 362.5 368.421
207.071 368.75 914.474
207.071 375 901.316
207.071 381.25 328.947
207.071 387.5 901.316
207.071 393.75 901.316
207.071 400 750
207.071 406.25 894.737
207.071 412.5 907.895
207.071 418.75 230.263
207.071 425 907.895
207.071 431.25 901.316
207.071 437.5 282.895
207.071 443.75 901.316
207.071 450 894.737
207.071 456.25 322.368
207.071 462.5 894.737
207.071 468.75 894.737
207.071 475 322.368
207.071 481.25 894.737
207.071 493.75 907.895
207.071 500 190.789
207.071 506.25 907.895
207.071 512.5 914.474
207.071 518.75 190.789
207.071 525 914.474
207.071 531.25 894.737
207.071 537.5 493.421
207.071 543.75 901.316
207.071 550 888.158
207.071 556.25 421.053
207.071 562.5 894.737
207.071 575 888.158
207.071 581.25 309.211
207.071 587.5 894.737
207.071 593.75 901.316
207.071 600 263.158
207.071 606.25 907.895
207.071 618.75 868.421
207.071 625 407.895
207.071 631.25 888.158
207.071 637.5 888.158
207.071 643.75 282.895
207.071 650 894.737
207.071 662.5 901.316
207.071 668.75 164.474
207.071 675 894.737
207.071 687.5 888.158
207.071 693.75 197.368
207.071 700 894.737
207.071 706.25 868.421
207.071 712.5 72.3684
207.071 718.75 875
207.071 731.25 861.842
207.071 737.5 0
207.071 743.75 868.421
207.071 756.25 842.105
207.071 762.5 32.8947
207.071 768.75 842.105
207.071 781.25 802.632
207.071 787.5 13.1579
207.071 793.75 809.211
207.071 806.25 769.737
207.071 812.5 39.4737
207.071 818.75 769.737
207.071 831.25 750
207.071 837.5 98.6842
207.071 843.75 756.579
207.071 856.25 697.368
207.071 862.5 138.158
207.071 868.75 697.368
207.071 881.25 638.158
207.071 887.5 368.421
207.071 893.75 644.737
212.121 0 315.789
212.121 6.25 315.789
212.121 12.5 717.105
212.121 18.75 394.737
212.121 25 743.421
212.121 31.25 578.947
212.121 37.5 743.421
212.121 43.75 677.632
212.121 50 460.526
212.121 56.25 743.421
212.121 62.5 256.579
212.121 68.75 796.053
212.121 75 164.474
212.121 81.25 802.632
212.121 87.5 855.263
212.121 93.75 250
212.121 100 855.263
212.121 106.25 342.105
212.121 112.5 855.263
212.121 118.75 848.684
212.121 125 375
212.121 131.25 875
212.121 137.5 342.105
212.121 143.75 881.579
212.121 150 914.474
212.121 156.25 164.474
212.121 162.5 914.474
212.121 168.75 401.316
212.121 175 881.579
212.121 181.25 881.579
212.121 187.5 342.105
212.121 193.75 881.579
212.121 200 914.474
212.121 206.25 151.316
212.121 212.5 914.474
212.121 218.75 92.1053
212.121 225 914.474
212.121 231.25 894.737
212.121 237.5 381.579
212.121 243.75 901.316
212.121 250 907.895
212.121 256.25 276.316
212.121 262.5 914.474
212.121 268.75 250
212.121 275 888.158
212.121 281.25 921.053
212.121 287.5 164.474
212.121 293.75 914.474
212.121 300 901.316
212.121 306.25 440.789
212.121 312.5 901.316
212.121 318.75 921.053
212.121 325 375
212.121 331.25 921.053
212.121 337.5 914.474
212.121 343.75 427.632
212.121 350 914.474
212.121 356.25 914.474
212.121 362.5 236.842
212.121 368.75 907.895
212.121 375 901.316
212.121 381.25 269.737
212.121 387.5 901.316
212.121 393.75 914.474
212.121 400 453.947
212.121 406.25 914.474
212.121 412.5 901.316
212.121 418.75 217.105
212.121 425 914.474
212.121 431.25 901.316
212.121 437.5 263.158
212.121 443.75 901.316
212.121 450 894.737
212.121 456.25 447.368
212.121 462.5 894.737
212.121 468.75 901.316
212.121 475 236.842
212.121 481.25 901.316
212.121 493.75 914.474
212.121 500 177.632
212.121 506.25 914.474
212.121 512.5 907.895
212.121 518.75 131.579
212.121 525 914.474
212.121 531.25 907.895
212.121 537.5 394.737
212.121 543.75 907.895
212.121 550 894.737
212.121 556.25 421.053
212.121 562.5 901.316
212.121 575 875
212.121 581.25 197.368
212.121 587.5 888.158
212.121 593.75 901.316
212.121 600 138.158
212.121 606.25 901.316
212.121 618.75 875
212.121 625 625
212.121 631.25 888.158
212.121 637.5 881.579
212.121 643.75 263.158
212.121 650 888.158
212.121 662.5 888.158
212.121 668.75 210.526
212.121 675 901.316
212.121 687.5 881.579
212.121 693.75 85.5263
212.121 700 888.158
212.121 706.25 868.421
212.121 712.5 144.737
212.121 718.75 868.421
212.121 731.25 848.684
212.121 737.5 52.6316
212.121 743.75 861.842
212.121 756.25 835.526
212.121 762.5 26.3158
212.121 768.75 842.105
212.121 781.25 796.053
212.121 787.5 39.4737
212.121 793.75 796.053
212.121 806.25 769.737
212.121 812.5 13.1579
212.121 818.75 769.737
212.121 831.25 763.158
212.121 837.5 177.632
212.121 843.75 756.579
212.121 856.25 710.526
212.121 862.5 223.684
212.121 868.75 710.526
212.121 881.25 638.158
212.121 887.5 223.684
212.121 893.75 638.158
217.172 0 315.789
217.172 6.25 315.789
217.172 12.5 638.158
217.172 18.75 618.421
217.172 25 743.421
217.172 31.25 585.526
217.172 37.5 750
217.172 43.75 651.316
217.172 50 651.316
217.172 56.25 763.158
217.172 62.5 368.421
217.172 68.75 822.368
217.172 75 328.947
217.172 81.25 822.368
217.172 87.5 861.842
217.172 93.75 302.632
217.172 100 855.263
217.172 106.25 263.158
217.172 112.5 855.263
217.172 118.75 855.263
217.172 125 302.632
217.172 131.25 875
217.172 137.5 171.053
217.172 143.75 881.579
217.172 150 901.316
217.172 156.25 230.263
217.172 162.5 921.053
217.172 168.75 401.316
217.172 175 888.158
217.172 181.25 914.474
217.172 187.5 276.316
217.172 193.75 907.895
217.172 200 921.053
217.172 206.25 177.632
217.172 212.5 921.053
217.172 218.75 151.316
217.172 225 914.474
217.172 231.25 914.474
217.172 237.5 203.947
217.172 243.75 914.474
217.172 250 894.737
217.172 256.25 289.474
217.172 262.5 914.474
217.172 268.75 269.737
217.172 275 921.053
217.172 281.25 921.053
217.172 287.5 203.947
217.172 293.75 921.053
217.172 300 901.316
217.172 306.25 440.789
217.172 312.5 914.474
217.172 318.75 921.053
217.172 325 328.947
217.172 331.25 921.053
217.172 337.5 921.053
217.172 343.75 177.632
217.172 350 921.053
217.172 356.25 907.895
217.172 362.5 381.579
217.172 368.75 914.474
217.172 375 907.895
217.172 381.25 473.684
217.172 387.5 907.895
217.172 393.75 914.474
217.172 400 427.632
217.172 406.25 914.474
217.172 412.5 907.895
217.172 418.75 375
217.172 425 907.895
217.172 431.25 907.895
217.172 437.5 453.947
217.172 443.75 907.895
217.172 450 901.316
217.172 456.25 217.105
217.172 462.5 907.895
217.172 468.75 907.895
217.172 475 453.947
217.172 481.25 907.895
217.172 493.75 914.474
217.172 500 177.632
217.172 506.25 914.474
217.172 512.5 914.474
217.172 518.75 131.579
217.172 525 914.474
217.172 531.25 901.316
217.172 537.5 388.158
217.172 543.75 907.895
217.172 550 888.158
217.172 556.25 335.526
217.172 562.5 894.737
217.172 575 894.737
217.172 581.25 414.474
217.172 587.5 894.737
217.172 593.75 888.158
217.172 600 368.421
217.172 606.25 901.316
217.172 618.75 875
217.172 625 453.947
217.172 631.25 881.579
217.172 637.5 861.842
217.172 643.75 315.789
217.172 650 888.158
217.172 662.5 875
217.172 668.75 164.474
217.172 675 888.158
217.172 687.5 868.421
217.172 693.75 164.474
217.172 700 881.579
217.172 706.25 855.263
217.172 712.5 263.158
217.172 718.75 861.842
217.172 731.25 842.105
217.172 737.5 98.6842
217.172 743.75 842.105
217.172 756.25 822.368
217.172 762.5 65.7895
217.172 768.75 828.947
217.172 781.25 782.895
217.172 793.75 796.053
217.172 806.25 763.158
217.172 812.5 26.3158
217.172 818.75 769.737
217.172 831.25 756.579
217.172 837.5 46.0526
217.172 843.75 756.579
217.172 856.25 710.526
217.172 862.5 98.6842
217.172 868.75 710.526
217.172 881.25 651.316
217.172 887.5 388.158
217.172 893.75 651.316
222.222 0 315.789
222.222 6.25 315.789
222.222 12.5 315.789
222.222 25 730.263
222.222 31.25 638.158
222.222 37.5 750
222.222 43.75 638.158
222.222 50 434.211
222.222 56.25 789.474
222.222 62.5 296.053
222.222 68.75 828.947
222.222 75 427.632
222.222 81.25 828.947
222.222 87.5 868.421
222.222 93.75 217.105
222.222 100 861.842
222.222 106.25 355.263
222.222 112.5 855.263
222.222 118.75 868.421
222.222 125 407.895
222.222 131.25 901.316
222.222 137.5 289.474
222.222 143.75 901.316
222.222 150 901.316
222.222 156.25 223.684
222.222 162.5 901.316
222.222 168.75 361.842
222.222 175 894.737
222.222 181.25 914.474
222.222 187.5 138.158
222.222 193.75 914.474
222.222 200 921.053
222.222 206.25 98.6842
222.222 212.5 921.053
222.222 218.75 144.737
222.222 225 921.053
222.222 231.25 914.474
222.222 237.5 125
222.222 243.75 914.474
222.222 250 907.895
222.222 256.25 276.316
222.222 262.5 914.474
222.222 268.75 144.737
222.222 275 921.053
222.222 281.25 927.632
222.222 287.5 203.947
222.222 293.75 927.632
222.222 300 914.474
222.222 306.25 243.421
222.222 312.5 914.474
222.222 318.75 921.053
222.222 325 282.895
222.222 331.25 921.053
222.222 337.5 914.474
222.222 343.75 388.158
222.222 350 914.474
222.222 356.25 921.053
222.222 362.5 460.526
222.222 368.75 921.053
222.222 375 914.474
222.222 381.25 513.158
222.222 387.5 914.474
222.222 393.75 914.474
222.222 400 493.421
222.222 406.25 914.474
222.222 412.5 907.895
222.222 418.75 296.053
222.222 425 907.895
222.222 431.25 901.316
222.222 437.5 263.158
222.222 443.75 907.895
222.222 450 901.316
222.222 456.25 559.211
222.222 462.5 907.895
222.222 468.75 907.895
222.222 475 217.105
222.222 481.25 907.895
222.222 493.75 914.474
222.222 500 144.737
222.222 506.25 914.474
222.222 512.5 914.474
222.222 518.75 250
222.222 525 914.474
222.222 531.25 901.316
222.222 537.5 453.947
222.222 543.75 907.895
222.222 550 875
222.222 556.25 453.947
222.222 562.5 888.158
222.222 575 901.316
222.222 581.25 309.211
222.222 587.5 901.316
222.222 593.75 861.842
222.222 600 282.895
222.222 606.25 888.158
222.222 618.75 868.421
222.222 625 348.684
222.222 631.25 875
222.222 637.5 842.105
222.222 643.75 578.947
222.222 650 881.579
222.222 662.5 861.842
222.222 668.75 309.211
222.222 675 881.579
222.222 687.5 868.421
222.222 693.75 210.526
222.222 700 868.421
222.222 706.25 855.263
222.222 712.5 203.947
222.222 718.75 861.842
222.222 731.25 835.526
222.222 737.5 85.5263
222.222 743.75 842.105
222.222 756.25 822.368
222.222 768.75 828.947
222.222 781.25 782.895
222.222 793.75 782.895
222.222 806.25 763.158
222.222 812.5 78.9474
222.222 818.75 763.158
222.222 831.25 756.579
222.222 837.5 19.7368
222.222 843.75 756.579
222.222 856.25 697.368
222.222 862.5 217.105
222.222 868.75 710.526
222.222 881.25 651.316
222.222 887.5 243.421
222.222 893.75 657.895
227.273 0 315.789
227.273 6.25 315.789
227.273 12.5 315.789
227.273 25 730.263
227.273 31.25 532.895
227.273 37.5 743.421
227.273 43.75 638.158
227.273 50 243.421
227.273 56.25 703.947
227.273 62.5 434.211
227.273 68.75 828.947
227.273 75 473.684
227.273 81.25 815.789
227.273 87.5 868.421
227.273 93.75 322.368
227.273 100 868.421
227.273 106.25 282.895
227.273 112.5 868.421
227.273 118.75 868.421
227.273 125 276.316
227.273 131.25 914.474
227.273 137.5 236.842
227.273 143.75 907.895
227.273 150 914.474
227.273 156.25 243.421
227.273 162.5 921.053
227.273 168.75 250
227.273 175 914.474
227.273 181.25 927.632
227.273 187.5 157.895
227.273 193.75 914.474
227.273 200 921.053
227.273 206.25 144.737
227.273 212.5 921.053
227.273 218.75 85.5263
227.273 225 921.053
227.273 231.25 901.316
227.273 237.5 164.474
227.273 243.75 914.474
227.273 250 921.053
227.273 256.25 256.579
227.273 262.5 921.053
227.273 268.75 210.526
227.273 275 921.053
227.273 281.25 921.053
227.273 287.5 144.737
227.273 293.75 927.632
227.273 300 921.053
227.273 306.25 322.368
227.273 312.5 921.053
227.273 318.75 914.474
227.273 325 250
227.273 331.25 921.053
227.273 337.5 914.474
227.273 343.75 157.895
227.273 350 914.474
227.273 356.25 927.632
227.273 362.5 434.211
227.273 368.75 927.632
227.273 375 907.895
227.273 381.25 467.105
227.273 387.5 914.474
227.273 393.75 907.895
227.273 400 381.579
227.273 406.25 907.895
227.273 412.5 901.316
227.273 418.75 269.737
227.273 425 901.316
227.273 431.25 901.316
227.273 437.5 381.579
227.273 443.75 901.316
227.273 450 901.316
227.273 456.25 421.053
227.273 462.5 907.895
227.273 468.75 907.895
227.273 475 282.895
227.273 481.25 907.895
227.273 493.75 914.474
227.273 500 138.158
227.273 506.25 914.474
227.273 512.5 907.895
227.273 518.75 210.526
227.273 525 907.895
227.273 531.25 888.158
227.273 537.5 342.105
227.273 543.75 907.895
227.273 550 848.684
227.273 556.25 513.158
227.273 562.5 875
227.273 575 888.158
227.273 581.25 184.211
227.273 587.5 901.316
227.273 593.75 875
227.273 600 256.579
227.273 606.25 875
227.273 618.75 815.789
227.273 625 532.895
227.273 631.25 875
227.273 637.5 848.684
227.273 643.75 506.579
227.273 650 848.684
227.273 662.5 828.947
227.273 668.75 375
227.273 675 855.263
227.273 687.5 868.421
227.273 693.75 144.737
227.273 700 875
227.273 706.25 848.684
227.273 712.5 98.6842
227.273 718.75 848.684
227.273 731.25 828.947
227.273 737.5 26.3158
227.273 743.75 828.947
227.273 756.25 822.368
227.273 768.75 822.368
227.273 781.25 782.895
227.273 793.75 782.895
227.273 806.25 756.579
227.273 812.5 26.3158
227.273 818.75 763.158
227.273 831.25 756.579
227.273 837.5 65.7895
227.273 843.75 756.579
227.273 856.25 710.526
227.273 862.5 157.895
227.273 868.75 710.526
227.273 881.25 657.895
227.273 887.5 197.368
227.273 893.75 657.895
232.323 12.5 315.789
232.323 25 644.737
232.323 31.25 500
232.323 37.5 730.263
232.323 43.75 598.684
232.323 50 322.368
232.323 56.25 644.737
232.323 62.5 138.158
232.323 68.75 789.474
232.323 75 355.263
232.323 81.25 822.368
232.323 87.5 828.947
232.323 93.75 467.105
232.323 100 868.421
232.323 106.25 513.158
232.323 112.5 868.421
232.323 118.75 875
232.323 125 493.421
232.323 131.25 894.737
232.323 137.5 230.263
232.323 143.75 914.474
232.323 150 921.053
232.323 156.25 263.158
232.323 162.5 934.211
232.323 168.75 190.789
232.323 175 934.211
232.323 181.25 927.632
232.323 187.5 151.316
232.323 193.75 927.632
232.323 200 921.053
232.323 206.25 138.158
232.323 212.5 921.053
232.323 218.75 39.4737
232.323 225 921.053
232.323 231.25 921.053
232.323 237.5 250
232.323 243.75 921.053
232.323 250 921.053
232.323 256.25 131.579
232.323 262.5 921.053
232.323 268.75 190.789
232.323 275 921.053
232.323 281.25 921.053
232.323 287.5 138.158
232.323 293.75 921.053
232.323 300 921.053
232.323 306.25 151.316
232.323 312.5 921.053
232.323 318.75 907.895
232.323 325 243.421
232.323 331.25 914.474
232.323 337.5 927.632
232.323 343.75 342.105
232.323 350 927.632
232.323 356.25 927.632
232.323 362.5 184.211
232.323 368.75 927.632
232.323 375 894.737
232.323 381.25 506.579
232.323 387.5 914.474
232.323 393.75 907.895
232.323 400 328.947
232.323 406.25 914.474
232.323 412.5 914.474
232.323 418.75 427.632
232.323 425 921.053
232.323 431.25 894.737
232.323 437.5 263.158
232.323 443.75 907.895
232.323 450 907.895
232.323 456.25 355.263
232.323 462.5 907.895
232.323 468.75 901.316
232.323 475 355.263
232.323 481.25 914.474
232.323 493.75 914.474
232.323 500 144.737
232.323 506.25 914.474
232.323 512.5 894.737
232.323 518.75 322.368
232.323 525 907.895
232.323 531.25 875
232.323 537.5 565.789
232.323 543.75 888.158
232.323 550 881.579
232.323 556.25 414.474
232.323 562.5 894.737
232.323 575 888.158
232.323 581.25 184.211
232.323 587.5 888.158
232.323 593.75 875
232.323 600 355.263
232.323 606.25 881.579
232.323 618.75 743.421
232.323 625 348.684
232.323 631.25 828.947
232.323 637.5 828.947
232.323 643.75 230.263
232.323 650 848.684
232.323 662.5 822.368
232.323 668.75 368.421
232.323 675 842.105
232.323 687.5 861.842
232.323 693.75 164.474
232.323 700 861.842
232.323 706.25 848.684
232.323 712.5 26.3158
232.323 718.75 848.684
232.323 731.25 828.947
232.323 737.5 19.7368
232.323 743.75 828.947
232.323 756.25 822.368
232.323 768.75 822.368
232.323 781.25 776.316
232.323 793.75 782.895
232.323 806.25 756.579
232.323 812.5 59.2105
232.323 818.75 756.579
232.323 831.25 756.579
232.323 837.5 230.263
232.323 843.75 756.579
232.323 856.25 717.105
232.323 862.5 236.842
232.323 868.75 717.105
232.323 881.25 664.474
232.323 887.5 322.368
232.323 893.75 664.474
237.374 25 559.211
237.374 31.25 269.737
237.374 37.5 651.316
237.374 43.75 539.474
237.374 50 348.684
237.374 56.25 611.842
237.374 62.5 138.158
237.374 68.75 756.579
237.374 75 388.158
237.374 81.25 789.474
237.374 87.5 835.526
237.374 93.75 388.158
237.374 100 868.421
237.374 106.25 460.526
237.374 112.5 861.842
237.374 118.75 875
237.374 125 407.895
237.374 131.25 894.737
237.374 137.5 315.789
237.374 143.75 901.316
237.374 150 921.053
237.374 156.25 243.421
237.374 162.5 921.053
237.374 168.75 335.526
237.374 175 940.789
237.374 181.25 934.211
237.374 187.5 157.895
237.374 193.75 934.211
237.374 200 927.632
237.374 206.25 151.316
237.374 212.5 921.053
237.374 218.75 92.1053
237.374 225 921.053
237.374 231.25 921.053
237.374 237.5 72.3684
237.374 243.75 921.053
237.374 250 921.053
237.374 256.25 138.158
237.374 262.5 921.053
237.374 268.75 78.9474
237.374 275 921.053
237.374 281.25 921.053
237.374 287.5 144.737
237.374 293.75 921.053
237.374 300 927.632
237.374 306.25 276.316
237.374 312.5 934.211
237.374 318.75 921.053
237.374 325 217.105
237.374 331.25 921.053
237.374 337.5 927.632
237.374 343.75 131.579
237.374 350 927.632
237.374 356.25 921.053
237.374 362.5 296.053
237.374 368.75 927.632
237.374 375 907.895
237.374 381.25 348.684
237.374 387.5 907.895
237.374 393.75 914.474
237.374 400 388.158
237.374 406.25 914.474
237.374 412.5 914.474
237.374 418.75 197.368
237.374 425 914.474
237.374 431.25 901.316
237.374 437.5 348.684
237.374 443.75 901.316
237.374 450 907.895
237.374 456.25 322.368
237.374 462.5 914.474
237.374 468.75 901.316
237.374 475 263.158
237.374 481.25 901.316
237.374 493.75 907.895
237.374 500 230.263
237.374 506.25 921.053
237.374 512.5 894.737
237.374 518.75 203.947
237.374 525 901.316
237.374 531.25 888.158
237.374 537.5 519.737
237.374 543.75 894.737
237.374 550 881.579
237.374 556.25 407.895
237.374 562.5 888.158
237.374 575 888.158
237.374 581.25 289.474
237.374 587.5 888.158
237.374 593.75 855.263
237.374 600 394.737
237.374 606.25 881.579
237.374 618.75 809.211
237.374 625 526.316
237.374 631.25 809.211
237.374 637.5 815.789
237.374 643.75 276.316
237.374 650 828.947
237.374 662.5 835.526
237.374 668.75 269.737
237.374 675 835.526
237.374 687.5 861.842
237.374 693.75 138.158
237.374 700 861.842
237.374 706.25 855.263
237.374 712.5 39.4737
237.374 718.75 848.684
237.374 731.25 828.947
237.374 743.75 835.526
237.374 756.25 815.789
237.374 768.75 822.368
237.374 781.25 776.316
237.374 793.75 776.316
237.374 806.25 756.579
237.374 812.5 125
237.374 818.75 756.579
237.374 831.25 769.737
237.374 837.5 276.316
237.374 843.75 756.579
237.374 856.25 730.263
237.374 862.5 263.158
237.374 868.75 730.263
237.374 881.25 684.211
237.374 887.5 184.211
237.374 893.75 684.211
237.374 906.25 315.789
237.374 912.5 315.789
237.374 918.75 315.789
242.424 25 565.789
242.424 31.25 125
242.424 37.5 559.211
242.424 43.75 315.789
242.424 50 315.789
242.424 56.25 565.789
242.424 62.5 125
242.424 68.75 723.684
242.424 75 250
242.424 81.25 782.895
242.424 87.5 868.421
242.424 93.75 381.579
242.424 100 868.421
242.424 106.25 651.316
242.424 112.5 861.842
242.424 118.75 875
242.424 125 657.895
242.424 131.25 927.632
242.424 137.5 328.947
242.424 143.75 927.632
242.424 150 921.053
242.424 156.25 250
242.424 162.5 921.053
242.424 168.75 328.947
242.424 175 914.474
242.424 181.25 940.789
242.424 187.5 256.579
242.424 193.75 940.789
242.424 200 940.789
242.424 206.25 111.842
242.424 212.5 934.211
242.424 218.75 171.053
242.424 225 921.053
242.424 231.25 921.053
242.424 237.5 289.474
242.424 243.75 921.053
242.424 250 921.053
242.424 256.25 151.316
242.424 262.5 921.053
242.424 268.75 125
242.424 275 921.053
242.424 281.25 921.053
242.424 287.5 171.053
242.424 293.75 927.632
242.424 300 927.632
242.424 306.25 78.9474
242.424 312.5 927.632
242.424 318.75 921.053
242.424 325 236.842
242.424 331.25 921.053
242.424 337.5 927.632
242.424 343.75 144.737
242.424 350 927.632
242.424 356.25 921.053
242.424 362.5 190.789
242.424 368.75 927.632
242.424 375 907.895
242.424 381.25 276.316
242.424 387.5 914.474
242.424 393.75 907.895
242.424 400 361.842
242.424 406.25 914.474
242.424 412.5 907.895
242.424 418.75 289.474
242.424 425 921.053
242.424 431.25 907.895
242.424 437.5 322.368
242.424 443.75 914.474
242.424 450 901.316
242.424 456.25 309.211
242.424 462.5 907.895
242.424 468.75 901.316
242.424 475 355.263
242.424 481.25 907.895
242.424 493.75 907.895
242.424 500 210.526
242.424 506.25 907.895
242.424 512.5 888.158
242.424 518.75 223.684
242.424 525 894.737
242.424 531.25 888.158
242.424 537.5 361.842
242.424 543.75 901.316
242.424 550 855.263
242.424 556.25 677.632
242.424 562.5 888.158
242.424 575 881.579
242.424 581.25 282.895
242.424 587.5 888.158
242.424 593.75 855.263
242.424 600 394.737
242.424 606.25 868.421
242.424 618.75 815.789
242.424 625 618.421
242.424 631.25 828.947
242.424 637.5 809.211
242.424 643.75 375
242.424 650 828.947
242.424 662.5 855.263
242.424 668.75 348.684
242.424 675 855.263
242.424 687.5 861.842
242.424 693.75 78.9474
242.424 700 861.842
242.424 706.25 855.263
242.424 712.5 0
242.424 718.75 855.263
242.424 731.25 835.526
242.424 743.75 828.947
242.424 756.25 815.789
242.424 768.75 815.789
242.424 781.25 776.316
242.424 787.5 0
242.424 793.75 776.316
242.424 806.25 756.579
242.424 812.5 184.211
242.424 818.75 756.579
242.424 831.25 769.737
242.424 837.5 427.632
242.424 843.75 763.158
242.424 856.25 743.421
242.424 862.5 203.947
242.424 868.75 736.842
242.424 881.25 684.211
242.424 887.5 92.1053
242.424 893.75 684.211
242.424 906.25 315.789
242.424 912.5 315.789
242.424 918.75 315.789
247.475 25 532.895
247.475 31.25 348.684
247.475 37.5 559.211
247.475 43.75 315.789
247.475 50 315.789
247.475 56.25 572.368
247.475 62.5 269.737
247.475 68.75 703.947
247.475 75 250
247.475 81.25 717.105
247.475 87.5 782.895
247.475 93.75 230.263
247.475 100 868.421
247.475 106.25 625
247.475 112.5 868.421
247.475 118.75 868.421
247.475 125 506.579
247.475 131.25 927.632
247.475 137.5 394.737
247.475 143.75 927.632
247.475 150 927.632
247.475 156.25 243.421
247.475 162.5 947.368
247.475 168.75 230.263
247.475 175 940.789
247.475 181.25 940.789
247.475 187.5 263.158
247.475 193.75 940.789
247.475 200 940.789
247.475 206.25 131.579
247.475 212.5 940.789
247.475 218.75 111.842
247.475 225 940.789
247.475 231.25 927.632
247.475 237.5 118.421
247.475 243.75 927.632
247.475 250 927.632
247.475 256.25 263.158
247.475 262.5 927.632
247.475 268.75 78.9474
247.475 275 927.632
247.475 281.25 927.632
247.475 287.5 72.3684
247.475 293.75 927.632
247.475 300 921.053
247.475 306.25 302.632
247.475 312.5 927.632
247.475 318.75 927.632
247.475 325 177.632
247.475 331.25 927.632
247.475 337.5 921.053
247.475 343.75 197.368
247.475 350 927.632
247.475 356.25 921.053
247.475 362.5 138.158
247.475 368.75 921.053
247.475 375 907.895
247.475 381.25 256.579
247.475 387.5 907.895
247.475 393.75 907.895
247.475 400 427.632
247.475 406.25 914.474
247.475 412.5 907.895
247.475 418.75 243.421
247.475 425 907.895
247.475 431.25 901.316
247.475 437.5 263.158
247.475 443.75 907.895
247.475 450 907.895
247.475 456.25 315.789
247.475 462.5 907.895
247.475 468.75 881.579
247.475 475 513.158
247.475 481.25 901.316
247.475 493.75 907.895
247.475 500 269.737
247.475 506.25 907.895
247.475 512.5 875
247.475 518.75 289.474
247.475 525 894.737
247.475 531.25 894.737
247.475 537.5 414.474
247.475 543.75 894.737
247.475 550 861.842
247.475 556.25 631.579
247.475 562.5 868.421
247.475 575 881.579
247.475 581.25 309.211
247.475 587.5 881.579
247.475 593.75 842.105
247.475 600 328.947
247.475 606.25 861.842
247.475 618.75 815.789
247.475 625 447.368
247.475 631.25 835.526
247.475 637.5 835.526
247.475 643.75 578.947
247.475 650 842.105
247.475 662.5 881.579
247.475 668.75 453.947
247.475 675 881.579
247.475 687.5 868.421
247.475 693.75 138.158
247.475 700 861.842
247.475 706.25 855.263
247.475 718.75 855.263
247.475 731.25 828.947
247.475 737.5 13.1579
247.475 743.75 828.947
247.475 756.25 809.211
247.475 762.5 6.57895
247.475 768.75 809.211
247.475 781.25 769.737
247.475 787.5 0
247.475 793.75 769.737
247.475 806.25 756.579
247.475 812.5 256.579
247.475 818.75 756.579
247.475 831.25 763.158
247.475 837.5 500
247.475 843.75 756.579
247.475 856.25 750
247.475 862.5 223.684
247.475 868.75 743.421
247.475 881.25 690.789
247.475 887.5 105.263
247.475 893.75 684.211
247.475 906.25 546.053
247.475 912.5 506.579
247.475 918.75 546.053
252.525 25 486.842
252.525 31.25 486.842
252.525 37.5 532.895
252.525 43.75 388.158
252.525 50 388.158
252.525 56.25 565.789
252.525 62.5 157.895
252.525 68.75 703.947
252.525 75 289.474
252.525 81.25 710.526
252.525 87.5 730.263
252.525 93.75 447.368
252.525 100 835.526
252.525 106.25 500
252.525 112.5 855.263
252.525 118.75 835.526
252.525 125 671.053
252.525 131.25 940.789
252.525 137.5 532.895
252.525 143.75 927.632
252.525 150 927.632
252.525 156.25 427.632
252.525 162.5 953.947
252.525 168.75 282.895
252.525 175 947.368
252.525 181.25 947.368
252.525 187.5 236.842
252.525 193.75 940.789
252.525 200 947.368
252.525 206.25 223.684
252.525 212.5 940.789
252.525 218.75 59.2105
252.525 225 940.789
252.525 231.25 934.211
252.525 237.5 118.421
252.525 243.75 934.211
252.525 250 934.211
252.525 256.25 52.6316
252.525 262.5 934.211
252.525 268.75 151.316
252.525 275 927.632
252.525 281.25 927.632
252.525 287.5 131.579
252.525 293.75 927.632
252.525 300 927.632
252.525 306.25 197.368
252.525 312.5 921.053
252.525 318.75 927.632
252.525 325 203.947
252.525 331.25 927.632
252.525 337.5 921.053
252.525 343.75 243.421
252.525 350 921.053
252.525 356.25 921.053
252.525 362.5 230.263
252.525 368.75 927.632
252.525 375 907.895
252.525 381.25 335.526
252.525 387.5 907.895
252.525 393.75 894.737
252.525 400 414.474
252.525 406.25 901.316
252.525 412.5 914.474
252.525 418.75 315.789
252.525 425 921.053
252.525 431.25 901.316
252.525 437.5 263.158
252.525 443.75 901.316
252.525 450 901.316
252.525 456.25 421.053
252.525 462.5 907.895
252.525 468.75 881.579
252.525 475 526.316
252.525 481.25 881.579
252.525 493.75 907.895
252.525 500 269.737
252.525 506.25 907.895
252.525 512.5 888.158
252.525 518.75 559.211
252.525 525 894.737
252.525 531.25 881.579
252.525 537.5 355.263
252.525 543.75 894.737
252.525 550 848.684
252.525 556.25 460.526
252.525 562.5 868.421
252.525 575 861.842
252.525 581.25 282.895
252.525 587.5 881.579
252.525 593.75 855.263
252.525 600 401.316
252.525 606.25 855.263
252.525 618.75 822.368
252.525 625 677.632
252.525 631.25 835.526
252.525 637.5 815.789
252.525 643.75 618.421
252.525 650 828.947
252.525 662.5 875
252.525 668.75 592.105
252.525 675 881.579
252.525 687.5 881.579
252.525 693.75 111.842
252.525 700 875
252.525 706.25 868.421
252.525 712.5 39.4737
252.525 718.75 861.842
252.525 731.25 828.947
252.525 737.5 19.7368
252.525 743.75 828.947
252.525 756.25 809.211
252.525 768.75 809.211
252.525 781.25 769.737
252.525 787.5 26.3158
252.525 793.75 769.737
252.525 806.25 763.158
252.525 812.5 236.842
252.525 818.75 756.579
252.525 831.25 756.579
252.525 837.5 348.684
252.525 843.75 756.579
252.525 856.25 736.842
252.525 862.5 289.474
252.525 868.75 743.421
252.525 881.25 690.789
252.525 887.5 177.632
252.525 893.75 690.789
252.525 906.25 598.684
252.525 912.5 480.263
252.525 918.75 598.684
257.576 25 480.263
257.576 31.25 480.263
257.576 37.5 486.842
257.576 43.75 388.158
257.576 50 388.158
257.576 56.25 565.789
257.576 62.5 263.158
257.576 68.75 618.421
257.576 75 184.211
257.576 81.25 710.526
257.576 87.5 638.158
257.576 93.75 131.579
257.576 100 730.263
257.576 106.25 276.316
257.576 112.5 815.789
257.576 118.75 861.842
257.576 125 697.368
257.576 131.25 940.789
257.576 137.5 473.684
257.576 143.75 934.211
257.576 150 921.053
257.576 156.25 743.421
257.576 162.5 953.947
257.576 168.75 256.579
257.576 175 947.368
257.576 181.25 967.105
257.576 187.5 289.474
257.576 193.75 947.368
257.576 200 967.105
257.576 206.25 177.632
257.576 212.5 953.947
257.576 218.75 151.316
257.576 225 940.789
257.576 231.25 947.368
257.576 237.5 111.842
257.576 243.75 940.789
257.576 250 940.789
257.576 256.25 118.421
257.576 262.5 940.789
257.576 268.75 98.6842
257.576 275 940.789
257.576 281.25 934.211
257.576 287.5 92.1053
257.576 293.75 934.211
257.576 300 934.211
257.576 306.25 309.211
257.576 312.5 927.632
257.576 318.75 927.632
257.576 325 157.895
257.576 331.25 927.632
257.576 337.5 927.632
257.576 343.75 190.789
257.576 350 927.632
257.576 356.25 927.632
257.576 362.5 184.211
257.576 368.75 927.632
257.576 375 901.316
257.576 381.25 322.368
257.576 387.5 907.895
257.576 393.75 901.316
257.576 400 421.053
257.576 406.25 907.895
257.576 412.5 914.474
