317.181 166.667 310.212
317.181 178.571 206.166
317.181 190.476 406.551
317.181 202.381 173.41
317.181 214.286 177.264
317.181 226.19 219.653
317.181 238.095 179.191
317.181 523.81 5.78035
317.181 535.714 11.5607
317.181 547.619 9.63391
317.181 559.524 5.78035
317.181 571.429 5.78035
317.181 583.333 5.78035
317.181 595.238 5.78035
317.181 607.143 3.85356
317.181 619.048 7.70713
317.181 630.952 5.78035
317.181 642.857 3.85356
317.181 654.762 3.85356
317.181 666.667 0
317.181 678.571 1.92678
317.181 690.476 5.78035
317.181 702.381 1.92678
317.181 714.286 0
317.181 726.19 88.632
317.181 738.095 148.362
317.181 750 125.241
317.181 761.905 186.898
317.181 773.81 100.193
317.181 785.714 287.091
317.181 797.619 406.551
317.181 809.524 454.721
317.181 821.429 389.21
317.181 833.333 364.162
317.181 845.238 414.258
317.181 857.143 466.281
317.181 869.048 223.507
317.181 880.952 225.434
317.181 892.857 456.647
317.181 904.762 454.721
317.181 916.667 300.578
317.181 928.571 298.651
317.181 940.476 298.651
317.181 952.381 597.303
317.181 964.286 441.233
317.181 976.19 439.306
317.181 988.095 439.306
317.181 1000 437.38
321.586 119.048 826.59
321.586 130.952 240.848
321.586 142.857 279.383
321.586 154.762 342.967
321.586 166.667 246.628
321.586 178.571 221.58
321.586 190.476 348.748
321.586 202.381 184.971
321.586 214.286 200.385
321.586 226.19 150.289
321.586 238.095 113.68
321.586 416.667 0
321.586 440.476 0
321.586 452.381 1.92678
321.586 464.286 1.92678
321.586 535.714 7.70713
321.586 547.619 21.1946
321.586 559.524 23.1214
321.586 571.429 17.341
321.586 583.333 13.4875
321.586 595.238 13.4875
321.586 607.143 9.63391
321.586 619.048 5.78035
321.586 630.952 5.78035
321.586 642.857 5.78035
321.586 654.762 1.92678
321.586 666.667 1.92678
321.586 678.571 1.92678
321.586 690.476 3.85356
321.586 702.381 0
321.586 714.286 1.92678
321.586 726.19 84.7784
321.586 738.095 77.0713
321.586 750 192.678
321.586 761.905 177.264
321.586 773.81 154.143
321.586 785.714 231.214
321.586 797.619 223.507
321.586 809.524 408.478
321.586 821.429 354.528
321.586 833.333 238.921
321.586 845.238 416.185
321.586 857.143 464.355
321.586 869.048 562.62
321.586 880.952 458.574
321.586 892.857 456.647
321.586 904.762 298.651
321.586 916.667 298.651
321.586 928.571 298.651
321.586 940.476 599.229
321.586 952.381 599.229
321.586 964.286 441.233
321.586 976.19 441.233
321.586 988.095 441.233
321.586 1000 439.306
325.991 107.143 643.545
325.991 119.048 847.784
325.991 130.952 327.553
325.991 142.857 242.775
325.991 154.762 238.921
325.991 166.667 188.825
325.991 178.571 325.626
325.991 190.476 204.239
325.991 202.381 223.507
325.991 214.286 167.63
325.991 226.19 119.461
325.991 238.095 113.68
325.991 404.762 0
325.991 416.667 0
325.991 428.571 5.78035
325.991 440.476 5.78035
325.991 452.381 0
325.991 464.286 1.92678
325.991 476.19 1.92678
325.991 488.095 0
325.991 500 0
325.991 511.905 19.2678
325.991 523.81 21.1946
325.991 535.714 9.63391
325.991 547.619 13.4875
325.991 559.524 17.341
325.991 571.429 17.341
325.991 583.333 15.4143
325.991 595.238 11.5607
325.991 607.143 9.63391
325.991 619.048 7.70713
325.991 630.952 5.78035
325.991 642.857 1.92678
325.991 654.762 0
325.991 666.667 3.85356
325.991 678.571 0
325.991 690.476 1.92678
325.991 702.381 0
325.991 714.286 84.7784
325.991 726.19 84.7784
325.991 738.095 127.168
325.991 750 219.653
325.991 761.905 198.459
325.991 773.81 146.435
325.991 785.714 117.534
325.991 797.619 206.166
325.991 809.524 377.649
325.991 821.429 354.528
325.991 833.333 290.944
325.991 845.238 362.235
325.991 857.143 475.915
325.991 869.048 560.694
325.991 880.952 302.505
325.991 892.857 302.505
325.991 904.762 300.578
325.991 916.667 300.578
325.991 928.571 296.724
325.991 940.476 599.229
325.991 952.381 441.233
325.991 964.286 443.16
325.991 976.19 443.16
325.991 988.095 443.16
330.396 107.143 732.177
330.396 119.048 620.424
330.396 130.952 329.48
330.396 142.857 134.875
330.396 154.762 279.383
330.396 166.667 211.946
330.396 178.571 325.626
330.396 190.476 63.5838
330.396 202.381 223.507
330.396 214.286 105.973
330.396 226.19 183.044
330.396 238.095 125.241
330.396 416.667 0
330.396 428.571 1.92678
330.396 440.476 5.78035
330.396 452.381 3.85356
330.396 464.286 0
330.396 488.095 11.5607
330.396 500 15.4143
330.396 511.905 19.2678
330.396 523.81 17.341
330.396 535.714 13.4875
330.396 547.619 7.70713
330.396 559.524 15.4143
330.396 571.429 13.4875
330.396 583.333 13.4875
330.396 595.238 9.63391
330.396 607.143 11.5607
330.396 619.048 7.70713
330.396 630.952 5.78035
330.396 642.857 3.85356
330.396 654.762 0
330.396 666.667 1.92678
330.396 678.571 0
330.396 690.476 0
330.396 702.381 1.92678
330.396 714.286 82.8516
330.396 726.19 82.8516
330.396 738.095 129.094
330.396 750 229.287
330.396 761.905 198.459
330.396 773.81 102.119
330.396 785.714 102.119
330.396 797.619 57.8035
330.396 809.524 393.064
330.396 821.429 408.478
330.396 833.333 323.699
330.396 845.238 479.769
330.396 857.143 406.551
330.396 869.048 558.767
330.396 880.952 300.578
330.396 892.857 300.578
330.396 904.762 300.578
330.396 916.667 298.651
330.396 928.571 601.156
330.396 940.476 601.156
330.396 952.381 443.16
330.396 964.286 443.16
330.396 976.19 443.16
330.396 988.095 443.16
334.802 107.143 737.958
334.802 119.048 566.474
334.802 130.952 244.701
334.802 142.857 213.873
334.802 154.762 213.873
334.802 166.667 171.484
334.802 178.571 391.137
334.802 190.476 119.461
334.802 202.381 238.921
334.802 214.286 53.9499
334.802 226.19 242.775
334.802 238.095 26.975
334.802 440.476 5.78035
334.802 452.381 9.63391
334.802 464.286 3.85356
334.802 476.19 11.5607
334.802 488.095 15.4143
334.802 500 17.341
334.802 511.905 13.4875
334.802 523.81 11.5607
334.802 535.714 11.5607
334.802 547.619 11.5607
334.802 559.524 3.85356
334.802 571.429 7.70713
334.802 583.333 5.78035
334.802 595.238 7.70713
334.802 607.143 5.78035
334.802 619.048 9.63391
334.802 630.952 7.70713
334.802 642.857 5.78035
334.802 654.762 1.92678
334.802 678.571 0
334.802 690.476 1.92678
334.802 702.381 86.7052
334.802 714.286 123.314
334.802 726.19 82.8516
334.802 738.095 129.094
334.802 750 219.653
334.802 761.905 163.776
334.802 773.81 102.119
334.802 785.714 102.119
334.802 797.619 57.8035
334.802 809.524 260.116
334.802 821.429 379.576
334.802 833.333 429.672
334.802 845.238 479.769
334.802 857.143 314.066
334.802 869.048 464.355
334.802 880.952 225.434
334.802 892.857 300.578
334.802 904.762 296.724
334.802 916.667 603.083
334.802 928.571 601.156
334.802 940.476 443.16
334.802 952.381 443.16
334.802 964.286 443.16
334.802 976.19 443.16
334.802 988.095 443.16
339.207 107.143 791.908
339.207 119.048 497.11
339.207 130.952 242.775
339.207 142.857 213.873
339.207 154.762 115.607
339.207 166.667 171.484
339.207 178.571 452.794
339.207 190.476 119.461
339.207 202.381 188.825
339.207 214.286 113.68
339.207 226.19 287.091
339.207 238.095 28.9017
339.207 428.571 1.92678
339.207 440.476 3.85356
339.207 452.381 11.5607
339.207 464.286 7.70713
339.207 476.19 13.4875
339.207 488.095 13.4875
339.207 500 11.5607
339.207 511.905 9.63391
339.207 523.81 13.4875
339.207 535.714 11.5607
339.207 547.619 9.63391
339.207 559.524 11.5607
339.207 571.429 7.70713
339.207 583.333 5.78035
339.207 595.238 3.85356
339.207 607.143 1.92678
339.207 619.048 7.70713
339.207 630.952 5.78035
339.207 642.857 3.85356
339.207 654.762 1.92678
339.207 678.571 0
339.207 690.476 0
339.207 702.381 75.1445
339.207 714.286 86.7052
339.207 726.19 144.509
339.207 738.095 167.63
339.207 750 173.41
339.207 761.905 156.069
339.207 773.81 100.193
339.207 785.714 57.8035
339.207 797.619 69.3642
339.207 809.524 277.457
339.207 821.429 529.865
339.207 833.333 429.672
339.207 845.238 412.331
339.207 857.143 314.066
339.207 869.048 462.428
339.207 880.952 368.015
339.207 892.857 472.062
339.207 904.762 470.135
339.207 916.667 468.208
339.207 928.571 317.919
339.207 940.476 443.16
339.207 952.381 443.16
339.207 964.286 443.16
339.207 976.19 443.16
343.612 107.143 791.908
343.612 119.048 369.942
343.612 130.952 242.775
343.612 142.857 213.873
343.612 154.762 213.873
343.612 166.667 171.484
343.612 178.571 420.039
343.612 190.476 175.337
343.612 202.381 148.362
343.612 214.286 94.4123
343.612 226.19 200.385
343.612 428.571 1.92678
343.612 440.476 7.70713
343.612 452.381 7.70713
343.612 464.286 9.63391
343.612 476.19 11.5607
343.612 488.095 13.4875
343.612 500 13.4875
343.612 511.905 13.4875
343.612 523.81 17.341
343.612 535.714 17.341
343.612 547.619 17.341
343.612 559.524 21.1946
343.612 571.429 13.4875
343.612 583.333 7.70713
343.612 595.238 3.85356
343.612 607.143 1.92678
343.612 619.048 1.92678
343.612 630.952 5.78035
343.612 642.857 5.78035
343.612 654.762 3.85356
343.612 666.667 0
343.612 678.571 0
343.612 690.476 80.9249
343.612 702.381 140.655
343.612 714.286 92.4855
343.612 726.19 134.875
343.612 738.095 125.241
343.612 750 136.802
343.612 761.905 165.703
343.612 773.81 107.9
343.612 785.714 121.387
343.612 797.619 156.069
343.612 809.524 240.848
343.612 821.429 495.183
343.612 833.333 435.453
343.612 845.238 412.331
343.612 857.143 408.478
343.612 869.048 460.501
343.612 880.952 618.497
343.612 892.857 470.135
343.612 904.762 323.699
343.612 916.667 323.699
343.612 928.571 321.773
343.612 940.476 319.846
343.612 952.381 315.992
343.612 964.286 570.328
348.018 107.143 795.761
348.018 119.048 369.942
348.018 130.952 371.869
348.018 142.857 242.775
348.018 154.762 240.848
348.018 166.667 88.632
348.018 178.571 391.137
348.018 190.476 165.703
348.018 202.381 98.2659
348.018 214.286 183.044
348.018 226.19 200.385
348.018 369.048 1.92678
348.018 380.952 0
348.018 416.667 1.92678
348.018 428.571 3.85356
348.018 440.476 11.5607
348.018 452.381 15.4143
348.018 464.286 11.5607
348.018 476.19 17.341
348.018 488.095 17.341
348.018 500 17.341
348.018 511.905 19.2678
348.018 523.81 23.1214
348.018 535.714 25.0482
348.018 547.619 26.975
348.018 559.524 23.1214
348.018 571.429 15.4143
348.018 583.333 5.78035
348.018 595.238 5.78035
348.018 607.143 1.92678
348.018 619.048 3.85356
348.018 630.952 3.85356
348.018 642.857 3.85356
348.018 654.762 1.92678
348.018 666.667 1.92678
348.018 690.476 148.362
348.018 702.381 82.8516
348.018 714.286 109.827
348.018 726.19 142.582
348.018 738.095 125.241
348.018 750 136.802
348.018 761.905 221.58
348.018 773.81 169.557
348.018 785.714 121.387
348.018 797.619 75.1445
348.018 809.524 157.996
348.018 821.429 412.331
348.018 833.333 393.064
348.018 845.238 271.676
348.018 857.143 541.426
348.018 869.048 466.281
348.018 880.952 618.497
348.018 892.857 319.846
348.018 904.762 327.553
348.018 916.667 327.553
348.018 928.571 325.626
348.018 940.476 323.699
348.018 952.381 572.254
348.018 964.286 570.328
348.018 976.19 404.624
348.018 988.095 404.624
352.423 107.143 797.688
352.423 119.048 570.328
352.423 130.952 369.942
352.423 142.857 131.021
352.423 154.762 211.946
352.423 166.667 190.751
352.423 178.571 368.015
352.423 190.476 156.069
352.423 202.381 181.118
352.423 214.286 169.557
352.423 226.19 109.827
352.423 357.143 1.92678
352.423 369.048 9.63391
352.423 380.952 13.4875
352.423 392.857 7.70713
352.423 404.762 9.63391
352.423 416.667 3.85356
352.423 428.571 15.4143
352.423 440.476 11.5607
352.423 452.381 15.4143
352.423 464.286 17.341
352.423 476.19 23.1214
352.423 488.095 17.341
352.423 500 21.1946
352.423 511.905 23.1214
352.423 523.81 32.7553
352.423 535.714 34.6821
352.423 547.619 30.8285
352.423 559.524 19.2678
352.423 571.429 13.4875
352.423 583.333 3.85356
352.423 607.143 3.85356
352.423 619.048 1.92678
352.423 630.952 5.78035
352.423 642.857 3.85356
352.423 654.762 3.85356
352.423 666.667 1.92678
352.423 678.571 0
352.423 690.476 142.582
352.423 702.381 78.9981
352.423 714.286 92.4855
352.423 726.19 92.4855
352.423 738.095 129.094
352.423 750 175.337
352.423 761.905 254.335
352.423 773.81 125.241
352.423 785.714 61.657
352.423 797.619 73.2177
352.423 809.524 82.8516
352.423 821.429 491.329
352.423 833.333 533.719
352.423 845.238 412.331
352.423 857.143 541.426
352.423 869.048 373.796
352.423 880.952 558.767
352.423 892.857 314.066
352.423 904.762 327.553
352.423 916.667 327.553
352.423 928.571 327.553
352.423 940.476 323.699
352.423 952.381 574.181
352.423 964.286 402.697
352.423 976.19 404.624
352.423 988.095 404.624
356.828 95.2381 487.476
356.828 107.143 830.443
356.828 119.048 497.11
356.828 130.952 213.873
356.828 142.857 113.68
356.828 154.762 213.873
356.828 166.667 323.699
356.828 178.571 342.967
356.828 190.476 211.946
356.828 202.381 210.019
356.828 214.286 138.728
356.828 226.19 115.607
356.828 309.524 0
356.828 345.238 0
356.828 357.143 9.63391
356.828 369.048 15.4143
356.828 380.952 7.70713
356.828 392.857 9.63391
356.828 404.762 3.85356
356.828 416.667 15.4143
356.828 428.571 15.4143
356.828 440.476 19.2678
356.828 452.381 25.0482
356.828 464.286 23.1214
356.828 476.19 19.2678
356.828 488.095 23.1214
356.828 500 19.2678
356.828 511.905 28.9017
356.828 523.81 34.6821
356.828 535.714 30.8285
356.828 547.619 19.2678
356.828 559.524 13.4875
356.828 571.429 13.4875
356.828 583.333 3.85356
356.828 619.048 1.92678
356.828 630.952 3.85356
356.828 642.857 1.92678
356.828 654.762 1.92678
356.828 666.667 0
356.828 678.571 0
356.828 690.476 109.827
356.828 702.381 78.9981
356.828 714.286 48.1696
356.828 726.19 88.632
356.828 738.095 165.703
356.828 750 184.971
356.828 761.905 202.312
356.828 773.81 163.776
356.828 785.714 65.5106
356.828 797.619 138.728
356.828 809.524 169.557
356.828 821.429 445.087
356.828 833.333 491.329
356.828 845.238 366.089
356.828 857.143 410.405
356.828 869.048 479.769
356.828 880.952 560.694
356.828 892.857 475.915
356.828 904.762 329.48
356.828 916.667 327.553
356.828 928.571 327.553
356.828 940.476 576.108
356.828 952.381 574.181
356.828 964.286 404.624
356.828 976.19 404.624
356.828 988.095 404.624
356.828 1000 404.624
361.233 95.2381 487.476
361.233 107.143 710.983
361.233 119.048 499.037
361.233 130.952 190.751
361.233 142.857 242.775
361.233 154.762 263.969
361.233 166.667 366.089
361.233 178.571 236.994
361.233 190.476 183.044
361.233 202.381 183.044
361.233 214.286 140.655
361.233 226.19 119.461
361.233 285.714 0
361.233 297.619 1.92678
361.233 309.524 0
361.233 321.429 0
361.233 345.238 0
361.233 357.143 9.63391
361.233 369.048 13.4875
361.233 380.952 9.63391
361.233 392.857 3.85356
361.233 404.762 3.85356
361.233 416.667 15.4143
361.233 428.571 21.1946
361.233 440.476 26.975
361.233 452.381 19.2678
361.233 464.286 21.1946
361.233 476.19 21.1946
361.233 488.095 25.0482
361.233 500 28.9017
361.233 511.905 28.9017
361.233 523.81 30.8285
361.233 535.714 11.5607
361.233 547.619 9.63391
361.233 559.524 5.78035
361.233 571.429 7.70713
361.233 583.333 0
361.233 630.952 1.92678
361.233 642.857 1.92678
361.233 654.762 1.92678
361.233 666.667 1.92678
361.233 690.476 136.802
361.233 702.381 80.9249
361.233 714.286 94.4123
361.233 726.19 102.119
361.233 738.095 179.191
361.233 750 173.41
361.233 761.905 215.8
361.233 773.81 211.946
361.233 785.714 129.094
361.233 797.619 129.094
361.233 809.524 90.5588
361.233 821.429 393.064
361.233 833.333 437.38
361.233 845.238 366.089
361.233 857.143 275.53
361.233 869.048 416.185
361.233 880.952 398.844
361.233 892.857 483.622
361.233 904.762 331.407
361.233 916.667 329.48
361.233 928.571 576.108
361.233 940.476 576.108
361.233 952.381 402.697
361.233 964.286 404.624
361.233 976.19 404.624
361.233 988.095 404.624
361.233 1000 404.624
365.639 95.2381 655.106
365.639 107.143 709.056
365.639 119.048 327.553
365.639 130.952 111.753
365.639 142.857 327.553
365.639 154.762 263.969
365.639 166.667 323.699
365.639 178.571 144.509
365.639 190.476 171.484
365.639 202.381 132.948
365.639 214.286 134.875
365.639 226.19 84.7784
365.639 273.81 1.92678
365.639 285.714 3.85356
365.639 297.619 1.92678
365.639 309.524 1.92678
365.639 321.429 0
365.639 345.238 1.92678
365.639 357.143 11.5607
365.639 369.048 5.78035
365.639 380.952 1.92678
365.639 392.857 0
365.639 428.571 13.4875
365.639 440.476 21.1946
365.639 452.381 21.1946
365.639 464.286 19.2678
365.639 476.19 19.2678
365.639 488.095 19.2678
365.639 500 13.4875
365.639 511.905 11.5607
365.639 523.81 0
365.639 535.714 5.78035
365.639 547.619 0
365.639 559.524 0
365.639 571.429 5.78035
365.639 583.333 1.92678
365.639 619.048 0
365.639 630.952 3.85356
365.639 642.857 1.92678
365.639 654.762 0
365.639 690.476 146.435
365.639 702.381 92.4855
365.639 714.286 102.119
365.639 726.19 154.143
365.639 738.095 254.335
365.639 750 233.141
365.639 761.905 269.75
365.639 773.81 159.923
365.639 785.714 73.2177
365.639 797.619 78.9981
365.639 809.524 80.9249
365.639 821.429 358.382
365.639 833.333 495.183
365.639 845.238 368.015
365.639 857.143 279.383
365.639 869.048 416.185
365.639 880.952 497.11
365.639 892.857 406.551
365.639 904.762 331.407
365.639 916.667 578.035
365.639 928.571 576.108
365.639 940.476 402.697
365.639 952.381 402.697
365.639 964.286 404.624
365.639 976.19 404.624
365.639 988.095 404.624
365.639 1000 404.624
370.044 95.2381 651.252
370.044 107.143 830.443
370.044 119.048 327.553
370.044 130.952 98.2659
370.044 142.857 265.896
370.044 154.762 263.969
370.044 166.667 447.013
370.044 178.571 165.703
370.044 190.476 138.728
370.044 202.381 132.948
370.044 214.286 142.582
370.044 226.19 53.9499
370.044 238.095 3.85356
370.044 261.905 3.85356
370.044 273.81 3.85356
370.044 285.714 3.85356
370.044 297.619 1.92678
370.044 309.524 0
370.044 321.429 0
370.044 333.333 0
370.044 345.238 1.92678
370.044 357.143 3.85356
370.044 369.048 1.92678
370.044 380.952 0
370.044 440.476 9.63391
370.044 452.381 15.4143
370.044 464.286 11.5607
370.044 476.19 9.63391
370.044 500 0
370.044 511.905 1.92678
370.044 523.81 1.92678
370.044 535.714 7.70713
370.044 547.619 5.78035
370.044 559.524 15.4143
370.044 571.429 15.4143
370.044 583.333 3.85356
370.044 595.238 0
370.044 607.143 0
370.044 619.048 0
370.044 630.952 3.85356
370.044 642.857 5.78035
370.044 654.762 0
370.044 666.667 0
370.044 678.571 42.3892
370.044 690.476 177.264
370.044 702.381 144.509
370.044 714.286 117.534
370.044 726.19 154.143
370.044 738.095 173.41
370.044 750 217.726
370.044 761.905 177.264
370.044 773.81 96.3391
370.044 785.714 77.0713
370.044 797.619 80.9249
370.044 809.524 80.9249
370.044 821.429 265.896
370.044 833.333 539.499
370.044 845.238 437.38
370.044 857.143 279.383
370.044 869.048 281.31
370.044 880.952 495.183
370.044 892.857 404.624
370.044 904.762 454.721
370.044 916.667 578.035
370.044 928.571 402.697
370.044 940.476 402.697
370.044 952.381 402.697
370.044 964.286 404.624
370.044 976.19 404.624
370.044 988.095 404.624
370.044 1000 404.624
374.449 95.2381 737.958
374.449 107.143 710.983
374.449 119.048 327.553
374.449 130.952 213.873
374.449 142.857 265.896
374.449 154.762 477.842
374.449 166.667 354.528
374.449 178.571 100.193
374.449 190.476 138.728
374.449 202.381 156.069
374.449 214.286 100.193
374.449 226.19 52.0231
374.449 238.095 1.92678
374.449 250 3.85356
374.449 261.905 3.85356
374.449 273.81 3.85356
374.449 285.714 1.92678
374.449 297.619 1.92678
374.449 309.524 1.92678
374.449 321.429 0
374.449 333.333 0
374.449 345.238 1.92678
374.449 357.143 1.92678
374.449 369.048 1.92678
374.449 416.667 0
374.449 500 5.78035
374.449 511.905 9.63391
374.449 523.81 9.63391
374.449 535.714 25.0482
374.449 547.619 15.4143
374.449 559.524 17.341
374.449 571.429 25.0482
374.449 583.333 19.2678
374.449 607.143 1.92678
374.449 619.048 3.85356
374.449 630.952 3.85356
374.449 642.857 3.85356
374.449 654.762 0
374.449 666.667 0
374.449 678.571 148.362
374.449 690.476 192.678
374.449 702.381 125.241
374.449 714.286 63.5838
374.449 726.19 125.241
374.449 738.095 236.994
374.449 750 236.994
374.449 761.905 88.632
374.449 773.81 86.7052
374.449 785.714 77.0713
374.449 797.619 71.2909
374.449 809.524 80.9249
374.449 821.429 173.41
374.449 833.333 410.405
374.449 845.238 437.38
374.449 857.143 279.383
374.449 869.048 325.626
374.449 880.952 633.911
374.449 892.857 624.277
374.449 904.762 454.721
374.449 916.667 296.724
374.449 928.571 402.697
374.449 940.476 402.697
374.449 952.381 404.624
374.449 964.286 404.624
374.449 976.19 406.551
374.449 988.095 406.551
374.449 1000 404.624
378.855 95.2381 737.958
378.855 107.143 566.474
378.855 119.048 240.848
378.855 130.952 279.383
378.855 142.857 325.626
378.855 154.762 524.085
378.855 166.667 341.04
378.855 178.571 105.973
378.855 190.476 131.021
378.855 202.381 148.362
378.855 214.286 82.8516
378.855 226.19 52.0231
378.855 238.095 1.92678
378.855 250 1.92678
378.855 261.905 5.78035
378.855 273.81 1.92678
378.855 285.714 1.92678
378.855 297.619 1.92678
378.855 309.524 0
378.855 321.429 0
378.855 333.333 0
378.855 345.238 3.85356
378.855 357.143 1.92678
378.855 369.048 1.92678
378.855 392.857 0
378.855 428.571 3.85356
378.855 440.476 0
378.855 500 1.92678
378.855 511.905 13.4875
378.855 523.81 25.0482
378.855 535.714 19.2678
378.855 547.619 17.341
378.855 559.524 25.0482
378.855 571.429 25.0482
378.855 583.333 25.0482
378.855 595.238 1.92678
378.855 607.143 0
378.855 619.048 1.92678
378.855 630.952 3.85356
378.855 642.857 3.85356
378.855 654.762 0
378.855 666.667 0
378.855 678.571 192.678
378.855 690.476 227.36
378.855 702.381 142.582
378.855 714.286 82.8516
378.855 726.19 117.534
378.855 738.095 236.994
378.855 750 181.118
378.855 761.905 90.5588
378.855 773.81 111.753
378.855 785.714 78.9981
378.855 797.619 65.5106
378.855 809.524 90.5588
378.855 821.429 157.996
378.855 833.333 410.405
378.855 845.238 493.256
378.855 857.143 552.987
378.855 869.048 475.915
378.855 880.952 470.135
378.855 892.857 564.547
378.855 904.762 296.724
378.855 916.667 296.724
378.855 928.571 402.697
378.855 940.476 402.697
378.855 952.381 404.624
378.855 964.286 404.624
378.855 976.19 406.551
378.855 988.095 406.551
378.855 1000 406.551
383.26 83.3333 483.622
383.26 95.2381 791.908
383.26 107.143 495.183
383.26 119.048 240.848
383.26 130.952 327.553
383.26 142.857 358.382
383.26 154.762 429.672
383.26 166.667 287.091
383.26 178.571 157.996
383.26 190.476 82.8516
383.26 202.381 171.484
383.26 214.286 78.9981
383.26 226.19 1.92678
383.26 238.095 1.92678
383.26 250 3.85356
383.26 261.905 3.85356
383.26 273.81 1.92678
383.26 285.714 1.92678
383.26 297.619 1.92678
383.26 309.524 1.92678
383.26 333.333 0
383.26 345.238 1.92678
383.26 357.143 7.70713
383.26 404.762 3.85356
383.26 416.667 5.78035
383.26 428.571 3.85356
383.26 440.476 0
383.26 511.905 5.78035
383.26 523.81 11.5607
383.26 535.714 15.4143
383.26 547.619 21.1946
383.26 559.524 21.1946
383.26 571.429 25.0482
383.26 583.333 25.0482
383.26 595.238 3.85356
383.26 607.143 0
383.26 619.048 0
383.26 630.952 7.70713
383.26 642.857 5.78035
383.26 654.762 1.92678
383.26 666.667 86.7052
383.26 678.571 146.435
383.26 690.476 181.118
383.26 702.381 57.8035
383.26 714.286 69.3642
383.26 726.19 177.264
383.26 738.095 379.576
383.26 750 269.75
383.26 761.905 198.459
383.26 773.81 219.653
383.26 785.714 186.898
383.26 797.619 154.143
383.26 809.524 167.63
383.26 821.429 236.994
383.26 833.333 404.624
383.26 845.238 541.426
383.26 857.143 605.01
383.26 869.048 383.43
383.26 880.952 379.576
383.26 892.857 570.328
383.26 904.762 298.651
383.26 916.667 296.724
383.26 928.571 294.798
383.26 940.476 404.624
383.26 952.381 404.624
383.26 964.286 404.624
383.26 976.19 404.624
383.26 988.095 406.551
383.26 1000 406.551
387.665 83.3333 651.252
387.665 95.2381 589.595
387.665 107.143 366.089
387.665 119.048 369.942
387.665 130.952 277.457
387.665 142.857 450.867
387.665 154.762 520.231
387.665 166.667 179.191
387.665 178.571 177.264
387.665 190.476 82.8516
387.665 202.381 171.484
387.665 214.286 40.4624
387.665 226.19 0
387.665 238.095 0
387.665 250 5.78035
387.665 261.905 9.63391
387.665 273.81 1.92678
387.665 285.714 3.85356
387.665 297.619 1.92678
387.665 309.524 0
387.665 333.333 1.92678
387.665 345.238 3.85356
387.665 357.143 0
387.665 392.857 3.85356
387.665 404.762 1.92678
387.665 416.667 1.92678
387.665 428.571 1.92678
387.665 440.476 1.92678
387.665 452.381 0
387.665 523.81 7.70713
387.665 535.714 15.4143
387.665 547.619 19.2678
387.665 559.524 23.1214
387.665 571.429 21.1946
387.665 583.333 19.2678
387.665 595.238 3.85356
387.665 619.048 0
387.665 630.952 3.85356
387.665 642.857 3.85356
387.665 654.762 3.85356
387.665 666.667 119.461
387.665 678.571 119.461
387.665 690.476 173.41
387.665 702.381 104.046
387.665 714.286 59.7303
387.665 726.19 69.3642
387.665 738.095 333.333
387.665 750 225.434
387.665 761.905 131.021
387.665 773.81 119.461
387.665 785.714 104.046
387.665 797.619 90.5588
387.665 809.524 90.5588
387.665 821.429 173.41
387.665 833.333 437.38
387.665 845.238 435.453
387.665 857.143 556.84
387.665 869.048 381.503
387.665 880.952 381.503
387.665 892.857 556.84
387.665 904.762 302.505
387.665 916.667 294.798
387.665 928.571 294.798
387.665 940.476 404.624
387.665 952.381 404.624
387.665 964.286 404.624
387.665 976.19 404.624
387.665 988.095 406.551
387.665 1000 404.624
392.07 83.3333 651.252
392.07 95.2381 658.96
392.07 107.143 366.089
392.07 119.048 327.553
392.07 130.952 131.021
392.07 142.857 450.867
392.07 154.762 366.089
392.07 166.667 115.607
392.07 178.571 165.703
392.07 190.476 82.8516
392.07 202.381 173.41
392.07 214.286 42.3892
392.07 226.19 0
392.07 238.095 1.92678
392.07 250 5.78035
392.07 261.905 5.78035
392.07 273.81 1.92678
392.07 285.714 1.92678
392.07 297.619 1.92678
392.07 309.524 0
392.07 380.952 1.92678
392.07 392.857 5.78035
392.07 404.762 1.92678
392.07 416.667 3.85356
392.07 428.571 1.92678
392.07 440.476 1.92678
392.07 452.381 0
392.07 535.714 9.63391
392.07 547.619 13.4875
392.07 559.524 15.4143
392.07 571.429 17.341
392.07 583.333 9.63391
392.07 595.238 0
392.07 619.048 5.78035
392.07 630.952 5.78035
392.07 642.857 7.70713
392.07 654.762 0
392.07 666.667 121.387
392.07 678.571 38.5356
392.07 690.476 163.776
392.07 702.381 104.046
392.07 714.286 69.3642
392.07 726.19 88.632
392.07 738.095 275.53
392.07 750 302.505
392.07 761.905 129.094
392.07 773.81 140.655
392.07 785.714 119.461
392.07 797.619 104.046
392.07 809.524 117.534
392.07 821.429 117.534
392.07 833.333 325.626
392.07 845.238 435.453
392.07 857.143 487.476
392.07 869.048 481.696
392.07 880.952 381.503
392.07 892.857 554.913
392.07 904.762 477.842
392.07 916.667 294.798
392.07 928.571 294.798
392.07 940.476 404.624
392.07 952.381 404.624
392.07 964.286 404.624
392.07 976.19 404.624
392.07 988.095 404.624
396.476 83.3333 653.179
396.476 95.2381 564.547
396.476 107.143 366.089
396.476 119.048 327.553
396.476 130.952 132.948
396.476 142.857 497.11
396.476 154.762 435.453
396.476 166.667 123.314
396.476 178.571 42.3892
396.476 190.476 78.9981
396.476 202.381 173.41
396.476 214.286 40.4624
396.476 226.19 1.92678
396.476 238.095 3.85356
396.476 250 7.70713
396.476 261.905 7.70713
396.476 273.81 3.85356
396.476 285.714 0
396.476 297.619 0
396.476 380.952 1.92678
396.476 392.857 3.85356
396.476 404.762 1.92678
396.476 416.667 0
396.476 559.524 0
396.476 571.429 9.63391
396.476 583.333 5.78035
396.476 595.238 0
396.476 607.143 0
396.476 619.048 3.85356
396.476 630.952 5.78035
396.476 642.857 7.70713
396.476 654.762 3.85356
396.476 666.667 96.3391
396.476 678.571 44.316
396.476 690.476 186.898
396.476 702.381 53.9499
396.476 714.286 75.1445
396.476 726.19 98.2659
396.476 738.095 204.239
396.476 750 302.505
396.476 761.905 129.094
396.476 773.81 140.655
396.476 785.714 119.461
396.476 797.619 119.461
396.476 809.524 119.461
396.476 821.429 138.728
396.476 833.333 369.942
396.476 845.238 435.453
396.476 857.143 364.162
396.476 869.048 483.622
396.476 880.952 379.576
396.476 892.857 373.796
396.476 904.762 475.915
396.476 916.667 294.798
396.476 928.571 294.798
396.476 940.476 404.624
396.476 952.381 404.624
396.476 964.286 404.624
396.476 976.19 404.624
400.881 83.3333 739.884
400.881 95.2381 564.547
400.881 107.143 368.015
400.881 119.048 240.848
400.881 130.952 132.948
400.881 142.857 497.11
400.881 154.762 396.917
400.881 166.667 206.166
400.881 178.571 50.0963
400.881 190.476 78.9981
400.881 202.381 131.021
400.881 214.286 44.316
400.881 226.19 0
400.881 238.095 1.92678
400.881 250 7.70713
400.881 261.905 7.70713
400.881 273.81 3.85356
400.881 285.714 0
400.881 369.048 0
400.881 380.952 7.70713
400.881 392.857 9.63391
400.881 404.762 5.78035
400.881 416.667 3.85356
400.881 428.571 3.85356
400.881 440.476 1.92678
400.881 452.381 1.92678
400.881 464.286 1.92678
400.881 476.19 3.85356
400.881 523.81 0
400.881 535.714 1.92678
400.881 547.619 1.92678
400.881 559.524 1.92678
400.881 619.048 1.92678
400.881 630.952 1.92678
400.881 642.857 3.85356
400.881 654.762 3.85356
400.881 666.667 88.632
400.881 678.571 50.0963
400.881 690.476 177.264
400.881 702.381 52.0231
400.881 714.286 78.9981
400.881 726.19 175.337
400.881 738.095 256.262
400.881 750 339.114
400.881 761.905 285.164
400.881 773.81 138.728
400.881 785.714 163.776
400.881 797.619 136.802
400.881 809.524 119.461
400.881 821.429 117.534
400.881 833.333 368.015
400.881 845.238 489.403
400.881 857.143 433.526
400.881 869.048 483.622
400.881 880.952 375.723
400.881 892.857 387.283
400.881 904.762 472.062
400.881 916.667 290.944
400.881 928.571 290.944
400.881 940.476 404.624
400.881 952.381 404.624
400.881 964.286 404.624
405.286 71.4286 479.769
405.286 83.3333 822.736
405.286 95.2381 420.039
405.286 107.143 368.015
405.286 119.048 240.848
405.286 130.952 242.775
405.286 142.857 448.94
405.286 154.762 443.16
405.286 166.667 223.507
405.286 178.571 115.607
405.286 190.476 183.044
405.286 202.381 144.509
405.286 214.286 38.5356
405.286 226.19 0
405.286 238.095 0
405.286 250 7.70713
405.286 261.905 3.85356
405.286 273.81 1.92678
405.286 285.714 0
405.286 369.048 3.85356
405.286 380.952 5.78035
405.286 392.857 7.70713
405.286 404.762 1.92678
405.286 416.667 1.92678
405.286 428.571 1.92678
405.286 440.476 1.92678
405.286 452.381 1.92678
405.286 464.286 5.78035
405.286 476.19 1.92678
405.286 523.81 1.92678
405.286 535.714 1.92678
405.286 547.619 0
405.286 630.952 0
405.286 642.857 0
405.286 654.762 1.92678
405.286 666.667 78.9981
405.286 678.571 123.314
405.286 690.476 229.287
405.286 702.381 105.973
405.286 714.286 121.387
405.286 726.19 223.507
405.286 738.095 292.871
405.286 750 306.358
405.286 761.905 248.555
405.286 773.81 281.31
405.286 785.714 161.85
405.286 797.619 138.728
405.286 809.524 117.534
405.286 821.429 115.607
405.286 833.333 134.875
405.286 845.238 435.453
405.286 857.143 433.526
405.286 869.048 414.258
405.286 880.952 393.064
405.286 892.857 475.915
405.286 904.762 460.501
405.286 916.667 568.401
405.286 928.571 568.401
405.286 940.476 404.624
409.692 71.4286 481.696
409.692 83.3333 657.033
409.692 95.2381 325.626
409.692 107.143 277.457
409.692 119.048 369.942
409.692 130.952 281.31
409.692 142.857 408.478
409.692 154.762 377.649
409.692 166.667 194.605
409.692 178.571 100.193
409.692 190.476 96.3391
409.692 202.381 100.193
409.692 214.286 44.316
409.692 226.19 0
409.692 238.095 0
409.692 250 5.78035
409.692 261.905 3.85356
409.692 273.81 0
409.692 345.238 0
409.692 357.143 3.85356
409.692 369.048 7.70713
409.692 380.952 7.70713
409.692 392.857 5.78035
409.692 404.762 1.92678
409.692 416.667 1.92678
409.692 428.571 1.92678
409.692 440.476 1.92678
409.692 452.381 3.85356
409.692 464.286 7.70713
409.692 476.19 3.85356
409.692 523.81 0
409.692 535.714 1.92678
409.692 547.619 0
409.692 666.667 117.534
409.692 678.571 208.092
409.692 690.476 173.41
409.692 702.381 57.8035
409.692 714.286 69.3642
409.692 726.19 157.996
409.692 738.095 225.434
409.692 750 248.555
409.692 761.905 219.653
409.692 773.81 281.31
409.692 785.714 161.85
409.692 797.619 136.802
409.692 809.524 117.534
409.692 821.429 235.067
409.692 833.333 233.141
409.692 845.238 537.572
409.692 857.143 583.815
409.692 869.048 551.06
409.692 880.952 549.133
409.692 892.857 672.447
409.692 904.762 668.593
409.692 916.667 664.74
409.692 928.571 421.965
409.692 940.476 416.185
414.097 71.4286 483.622
414.097 83.3333 657.033
414.097 95.2381 393.064
414.097 107.143 425.819
414.097 119.048 292.871
414.097 130.952 325.626
414.097 142.857 375.723
414.097 154.762 350.674
414.097 166.667 248.555
414.097 178.571 105.973
414.097 190.476 100.193
414.097 202.381 102.119
414.097 214.286 44.316
414.097 226.19 0
414.097 238.095 1.92678
414.097 250 3.85356
414.097 261.905 3.85356
414.097 345.238 1.92678
414.097 357.143 9.63391
414.097 369.048 7.70713
414.097 380.952 3.85356
414.097 392.857 3.85356
414.097 404.762 1.92678
414.097 416.667 1.92678
414.097 428.571 0
414.097 440.476 1.92678
414.097 452.381 5.78035
414.097 464.286 3.85356
414.097 476.19 5.78035
414.097 488.095 1.92678
414.097 547.619 1.92678
414.097 559.524 1.92678
414.097 666.667 73.2177
414.097 678.571 127.168
414.097 690.476 121.387
414.097 702.381 48.1696
414.097 714.286 55.8767
414.097 726.19 73.2177
414.097 738.095 208.092
414.097 750 248.555
414.097 761.905 402.697
414.097 773.81 495.183
414.097 785.714 323.699
414.097 797.619 275.53
414.097 809.524 236.994
414.097 821.429 235.067
414.097 833.333 156.069
414.097 845.238 418.112
414.097 857.143 543.353
414.097 869.048 416.185
414.097 880.952 574.181
414.097 892.857 614.644
414.097 904.762 612.717
414.097 916.667 606.936
414.097 928.571 418.112
414.097 940.476 416.185
418.502 71.4286 824.663
418.502 83.3333 705.202
418.502 95.2381 393.064
418.502 107.143 327.553
418.502 119.048 242.775
418.502 130.952 354.528
418.502 142.857 325.626
418.502 154.762 213.873
418.502 166.667 148.362
418.502 178.571 94.4123
418.502 190.476 105.973
418.502 202.381 107.9
418.502 214.286 0
418.502 250 0
418.502 345.238 7.70713
418.502 357.143 11.5607
418.502 369.048 5.78035
418.502 380.952 5.78035
418.502 392.857 1.92678
418.502 404.762 0
418.502 416.667 1.92678
418.502 428.571 0
418.502 452.381 0
418.502 464.286 1.92678
418.502 476.19 3.85356
418.502 488.095 0
418.502 559.524 3.85356
418.502 571.429 0
418.502 666.667 69.3642
418.502 678.571 109.827
418.502 690.476 159.923
418.502 702.381 44.316
418.502 714.286 46.2428
418.502 726.19 48.1696
418.502 738.095 159.923
418.502 750 75.1445
418.502 761.905 339.114
418.502 773.81 294.798
418.502 785.714 194.605
418.502 797.619 194.605
418.502 809.524 192.678
418.502 821.429 156.069
418.502 833.333 131.021
418.502 845.238 362.235
418.502 857.143 487.476
418.502 869.048 479.769
418.502 880.952 576.108
418.502 892.857 472.062
418.502 904.762 608.863
418.502 916.667 603.083
418.502 928.571 416.185
418.502 940.476 416.185
418.502 952.381 416.185
422.907 71.4286 824.663
422.907 83.3333 393.064
422.907 95.2381 188.825
422.907 107.143 327.553
422.907 119.048 279.383
422.907 130.952 393.064
422.907 142.857 240.848
422.907 154.762 156.069
422.907 166.667 113.68
422.907 178.571 123.314
422.907 190.476 105.973
422.907 202.381 98.2659
422.907 333.333 0
422.907 345.238 5.78035
422.907 357.143 9.63391
422.907 369.048 5.78035
422.907 380.952 3.85356
422.907 392.857 0
422.907 404.762 3.85356
422.907 416.667 0
422.907 559.524 1.92678
422.907 571.429 5.78035
422.907 666.667 69.3642
422.907 678.571 104.046
422.907 690.476 157.996
422.907 702.381 38.5356
422.907 714.286 40.4624
422.907 726.19 44.316
422.907 738.095 183.044
422.907 750 152.216
422.907 761.905 273.603
422.907 773.81 254.335
422.907 785.714 157.996
422.907 797.619 157.996
422.907 809.524 192.678
422.907 821.429 156.069
422.907 833.333 156.069
422.907 845.238 319.846
422.907 857.143 489.403
422.907 869.048 552.987
422.907 880.952 574.181
422.907 892.857 572.254
422.907 904.762 470.135
422.907 916.667 601.156
422.907 928.571 416.185
422.907 940.476 414.258
422.907 952.381 414.258
422.907 964.286 412.331
427.313 71.4286 824.663
427.313 83.3333 393.064
427.313 95.2381 190.751
427.313 107.143 369.942
427.313 119.048 439.306
427.313 130.952 356.455
427.313 142.857 242.775
427.313 154.762 179.191
427.313 166.667 115.607
427.313 178.571 121.387
427.313 190.476 134.875
427.313 202.381 86.7052
427.313 333.333 3.85356
427.313 345.238 5.78035
427.313 357.143 7.70713
427.313 369.048 7.70713
427.313 380.952 3.85356
427.313 392.857 1.92678
427.313 404.762 1.92678
427.313 571.429 3.85356
427.313 666.667 86.7052
427.313 678.571 150.289
427.313 690.476 157.996
427.313 702.381 86.7052
427.313 714.286 104.046
427.313 726.19 44.316
427.313 738.095 119.461
427.313 750 127.168
427.313 761.905 248.555
427.313 773.81 223.507
427.313 785.714 134.875
427.313 797.619 132.948
427.313 809.524 156.069
427.313 821.429 156.069
427.313 833.333 132.948
427.313 845.238 356.455
427.313 857.143 552.987
427.313 869.048 554.913
427.313 880.952 377.649
427.313 892.857 572.254
427.313 904.762 468.208
427.313 916.667 601.156
427.313 928.571 416.185
427.313 940.476 414.258
427.313 952.381 414.258
427.313 964.286 414.258
431.718 59.5238 483.622
431.718 71.4286 824.663
431.718 83.3333 393.064
431.718 95.2381 129.094
431.718 107.143 325.626
431.718 119.048 354.528
431.718 130.952 350.674
431.718 142.857 227.36
431.718 154.762 123.314
431.718 166.667 179.191
431.718 178.571 125.241
431.718 190.476 107.9
431.718 333.333 1.92678
431.718 345.238 5.78035
431.718 357.143 9.63391
431.718 369.048 3.85356
431.718 380.952 1.92678
431.718 392.857 0
431.718 666.667 28.9017
431.718 678.571 138.728
431.718 690.476 192.678
431.718 702.381 88.632
431.718 714.286 44.316
431.718 726.19 44.316
431.718 738.095 104.046
431.718 750 194.605
431.718 761.905 489.403
431.718 773.81 433.526
431.718 785.714 271.676
431.718 797.619 308.285
431.718 809.524 148.362
431.718 821.429 146.435
431.718 833.333 123.314
431.718 845.238 267.823
431.718 857.143 485.549
431.718 869.048 554.913
431.718 880.952 377.649
431.718 892.857 570.328
431.718 904.762 466.281
431.718 916.667 468.208
431.718 928.571 416.185
431.718 940.476 416.185
431.718 952.381 416.185
431.718 964.286 414.258
431.718 976.19 416.185
436.123 59.5238 651.252
436.123 71.4286 653.179
436.123 83.3333 321.773
436.123 95.2381 275.53
436.123 107.143 325.626
436.123 119.048 373.796
436.123 130.952 379.576
436.123 142.857 113.68
436.123 154.762 107.9
436.123 166.667 156.069
436.123 178.571 82.8516
436.123 190.476 100.193
436.123 333.333 3.85356
436.123 345.238 3.85356
436.123 357.143 5.78035
436.123 369.048 3.85356
436.123 380.952 1.92678
436.123 666.667 26.975
436.123 678.571 213.873
436.123 690.476 184.971
436.123 702.381 36.6089
436.123 714.286 40.4624
436.123 726.19 44.316
436.123 738.095 53.9499
436.123 750 300.578
436.123 761.905 416.185
436.123 773.81 231.214
436.123 785.714 148.362
436.123 797.619 231.214
436.123 809.524 181.118
436.123 821.429 300.578
436.123 833.333 129.094
436.123 845.238 127.168
436.123 857.143 483.622
436.123 869.048 552.987
436.123 880.952 375.723
436.123 892.857 568.401
436.123 904.762 466.281
436.123 916.667 466.281
436.123 928.571 416.185
436.123 940.476 416.185
436.123 952.381 416.185
436.123 964.286 416.185
436.123 976.19 416.185
440.529 59.5238 653.179
440.529 71.4286 585.742
440.529 83.3333 387.283
440.529 95.2381 273.603
440.529 107.143 238.921
440.529 119.048 493.256
440.529 130.952 358.382
440.529 142.857 121.387
440.529 154.762 148.362
440.529 166.667 202.312
440.529 178.571 125.241
440.529 190.476 113.68
440.529 333.333 5.78035
440.529 345.238 1.92678
440.529 357.143 3.85356
440.529 369.048 1.92678
440.529 666.667 26.975
440.529 678.571 169.557
440.529 690.476 127.168
440.529 702.381 46.2428
440.529 714.286 46.2428
440.529 726.19 46.2428
440.529 738.095 50.0963
440.529 750 364.162
440.529 761.905 383.43
440.529 773.81 148.362
440.529 785.714 125.241
440.529 797.619 181.118
440.529 809.524 181.118
440.529 821.429 146.435
440.529 833.333 215.8
440.529 845.238 105.973
440.529 857.143 427.746
440.529 869.048 606.936
440.529 880.952 375.723
440.529 892.857 568.401
440.529 904.762 466.281
440.529 916.667 466.281
440.529 928.571 416.185
440.529 940.476 416.185
440.529 952.381 416.185
440.529 964.286 416.185
440.529 976.19 416.185
444.934 59.5238 487.476
444.934 71.4286 653.179
444.934 83.3333 319.846
444.934 95.2381 366.089
444.934 107.143 325.626
444.934 119.048 539.499
444.934 130.952 263.969
444.934 142.857 132.948
444.934 154.762 100.193
444.934 166.667 138.728
444.934 178.571 78.9981
444.934 190.476 71.2909
444.934 333.333 3.85356
444.934 345.238 1.92678
444.934 666.667 26.975
444.934 678.571 204.239
444.934 690.476 127.168
444.934 702.381 50.0963
444.934 714.286 46.2428
444.934 726.19 42.3892
444.934 738.095 113.68
444.934 750 425.819
444.934 761.905 383.43
444.934 773.81 181.118
444.934 785.714 150.289
444.934 797.619 148.362
444.934 809.524 229.287
444.934 821.429 179.191
444.934 833.333 123.314
444.934 845.238 188.825
444.934 857.143 315.992
444.934 869.048 649.326
444.934 880.952 375.723
444.934 892.857 568.401
444.934 904.762 464.355
444.934 916.667 462.428
444.934 928.571 416.185
444.934 940.476 416.185
444.934 952.381 418.112
444.934 964.286 416.185
444.934 976.19 416.185
449.339 59.5238 487.476
449.339 71.4286 653.179
449.339 83.3333 271.676
449.339 95.2381 366.089
449.339 107.143 277.457
449.339 119.048 595.376
449.339 130.952 263.969
449.339 142.857 167.63
449.339 154.762 94.4123
449.339 166.667 132.948
449.339 178.571 75.1445
449.339 190.476 71.2909
449.339 333.333 3.85356
449.339 678.571 204.239
449.339 690.476 134.875
449.339 702.381 42.3892
449.339 714.286 50.0963
449.339 726.19 53.9499
449.339 738.095 177.264
449.339 750 383.43
449.339 761.905 358.382
449.339 773.81 183.044
449.339 785.714 148.362
449.339 797.619 148.362
449.339 809.524 229.287
449.339 821.429 123.314
449.339 833.333 123.314
449.339 845.238 105.973
449.339 857.143 188.825
449.339 869.048 649.326
449.339 880.952 375.723
449.339 892.857 566.474
449.339 904.762 462.428
449.339 916.667 296.724
449.339 928.571 416.185
449.339 940.476 416.185
449.339 952.381 418.112
449.339 964.286 418.112
449.339 976.19 418.112
453.744 59.5238 485.549
453.744 71.4286 485.549
453.744 83.3333 556.84
453.744 95.2381 323.699
453.744 107.143 325.626
453.744 119.048 493.256
453.744 130.952 263.969
453.744 142.857 167.63
453.744 154.762 42.3892
453.744 166.667 148.362
453.744 178.571 119.461
453.744 190.476 75.1445
453.744 678.571 213.873
453.744 690.476 156.069
453.744 726.19 63.5838
453.744 738.095 256.262
453.744 750 414.258
453.744 761.905 425.819
453.744 773.81 184.971
453.744 785.714 150.289
453.744 797.619 148.362
453.744 809.524 229.287
453.744 821.429 123.314
453.744 833.333 105.973
453.744 845.238 105.973
453.744 857.143 213.873
453.744 869.048 647.399
453.744 880.952 373.796
453.744 892.857 564.547
453.744 904.762 462.428
453.744 916.667 294.798
453.744 928.571 416.185
453.744 940.476 416.185
453.744 952.381 418.112
453.744 964.286 418.112
453.744 976.19 418.112
458.15 47.619 479.769
458.15 59.5238 643.545
458.15 71.4286 730.25
458.15 83.3333 651.252
458.15 95.2381 366.089
458.15 107.143 408.478
458.15 119.048 290.944
458.15 130.952 240.848
458.15 142.857 177.264
458.15 154.762 38.5356
458.15 166.667 146.435
458.15 178.571 163.776
458.15 190.476 28.9017
458.15 678.571 190.751
458.15 690.476 242.775
458.15 738.095 157.996
458.15 750 371.869
458.15 761.905 539.499
458.15 773.81 183.044
458.15 785.714 183.044
458.15 797.619 148.362
458.15 809.524 181.118
458.15 821.429 146.435
458.15 833.333 123.314
458.15 845.238 105.973
458.15 857.143 105.973
458.15 869.048 743.738
458.15 880.952 475.915
458.15 892.857 564.547
458.15 904.762 460.501
458.15 916.667 294.798
458.15 928.571 416.185
458.15 940.476 416.185
458.15 952.381 416.185
458.15 964.286 418.112
458.15 976.19 418.112
462.555 47.619 479.769
462.555 59.5238 643.545
462.555 71.4286 483.622
462.555 83.3333 412.331
462.555 95.2381 437.38
462.555 107.143 375.723
462.555 119.048 78.9981
462.555 130.952 204.239
462.555 142.857 177.264
462.555 154.762 154.143
462.555 166.667 292.871
462.555 178.571 163.776
462.555 678.571 119.461
462.555 690.476 344.894
462.555 702.381 40.4624
462.555 738.095 242.775
462.555 750 292.871
462.555 761.905 427.746
462.555 773.81 183.044
462.555 785.714 183.044
462.555 797.619 150.289
462.555 809.524 179.191
462.555 821.429 179.191
462.555 833.333 144.509
462.555 845.238 123.314
462.555 857.143 123.314
462.555 869.048 633.911
462.555 880.952 475.915
462.555 892.857 562.62
462.555 904.762 460.501
462.555 916.667 294.798
462.555 928.571 292.871
462.555 940.476 416.185
462.555 952.381 416.185
462.555 964.286 416.185
462.555 976.19 416.185
466.96 47.619 479.769
466.96 59.5238 645.472
466.96 71.4286 554.913
466.96 83.3333 414.258
466.96 95.2381 435.453
466.96 107.143 391.137
466.96 119.048 290.944
466.96 130.952 325.626
466.96 142.857 204.239
466.96 154.762 200.385
466.96 166.667 171.484
466.96 178.571 34.6821
466.96 678.571 26.975
466.96 690.476 362.235
466.96 702.381 52.0231
466.96 738.095 221.58
466.96 750 192.678
466.96 761.905 321.773
466.96 773.81 123.314
466.96 785.714 181.118
466.96 797.619 148.362
466.96 809.524 179.191
466.96 821.429 179.191
466.96 833.333 179.191
466.96 845.238 179.191
466.96 857.143 177.264
466.96 869.048 606.936
466.96 880.952 620.424
466.96 892.857 564.547
466.96 904.762 458.574
466.96 916.667 294.798
466.96 928.571 292.871
466.96 940.476 416.185
466.96 952.381 416.185
466.96 964.286 416.185
471.366 59.5238 728.324
471.366 71.4286 552.987
471.366 83.3333 364.162
471.366 95.2381 439.306
471.366 107.143 389.21
471.366 119.048 263.969
471.366 130.952 190.751
471.366 142.857 221.58
471.366 154.762 292.871
471.366 166.667 181.118
471.366 178.571 34.6821
471.366 678.571 25.0482
471.366 690.476 346.821
471.366 702.381 144.509
471.366 738.095 265.896
471.366 750 217.726
471.366 761.905 393.064
471.366 773.81 132.948
471.366 785.714 144.509
471.366 797.619 123.314
471.366 809.524 146.435
471.366 821.429 181.118
471.366 833.333 179.191
471.366 845.238 179.191
471.366 857.143 177.264
471.366 869.048 606.936
471.366 880.952 576.108
471.366 892.857 736.031
471.366 904.762 294.798
471.366 916.667 294.798
471.366 928.571 292.871
471.366 940.476 416.185
471.366 952.381 416.185
471.366 964.286 416.185
475.771 59.5238 813.102
475.771 71.4286 649.326
475.771 83.3333 491.329
475.771 95.2381 327.553
475.771 107.143 418.112
475.771 119.048 410.405
475.771 130.952 325.626
475.771 142.857 306.358
475.771 154.762 308.285
475.771 166.667 105.973
475.771 678.571 63.5838
475.771 690.476 275.53
475.771 702.381 115.607
475.771 738.095 242.775
475.771 750 0
475.771 761.905 393.064
475.771 773.81 321.773
475.771 785.714 175.337
475.771 797.619 144.509
475.771 809.524 123.314
475.771 821.429 146.435
475.771 833.333 179.191
475.771 845.238 179.191
475.771 857.143 177.264
475.771 869.048 605.01
475.771 880.952 641.618
475.771 892.857 707.129
475.771 904.762 450.867
475.771 916.667 581.888
475.771 928.571 583.815
475.771 940.476 416.185
480.176 47.619 728.324
480.176 59.5238 838.15
480.176 71.4286 657.033
480.176 83.3333 491.329
480.176 95.2381 329.48
480.176 107.143 491.329
480.176 119.048 537.572
480.176 130.952 144.509
480.176 142.857 240.848
480.176 154.762 190.751
480.176 166.667 40.4624
480.176 678.571 69.3642
480.176 690.476 235.067
480.176 702.381 167.63
480.176 738.095 242.775
480.176 761.905 327.553
480.176 773.81 418.112
480.176 797.619 175.337
480.176 809.524 144.509
480.176 821.429 121.387
480.176 833.333 144.509
480.176 845.238 177.264
480.176 857.143 175.337
480.176 869.048 479.769
480.176 880.952 641.618
480.176 892.857 703.276
480.176 904.762 448.94
480.176 916.667 448.94
480.176 928.571 448.94
484.581 47.619 813.102
484.581 59.5238 649.326
484.581 71.4286 491.329
484.581 83.3333 279.383
484.581 95.2381 329.48
484.581 107.143 593.449
484.581 119.048 493.256
484.581 130.952 302.505
484.581 142.857 341.04
484.581 154.762 131.021
484.581 678.571 26.975
484.581 690.476 204.239
484.581 702.381 156.069
484.581 738.095 159.923
484.581 750 94.4123
484.581 761.905 192.678
484.581 773.81 364.162
484.581 797.619 142.582
484.581 809.524 142.582
484.581 821.429 144.509
484.581 833.333 144.509
484.581 845.238 175.337
484.581 857.143 142.582
484.581 869.048 479.769
484.581 880.952 687.861
484.581 892.857 622.351
484.581 904.762 445.087
484.581 916.667 445.087
484.581 928.571 441.233
488.987 35.7143 647.399
488.987 47.619 813.102
488.987 59.5238 791.908
488.987 71.4286 491.329
488.987 83.3333 329.48
488.987 95.2381 497.11
488.987 107.143 606.936
488.987 119.048 325.626
