477.157 637.5 680.473
477.157 643.75 680.473
477.157 650 710.059
477.157 656.25 615.385
477.157 662.5 810.651
477.157 668.75 715.976
477.157 675 692.308
477.157 681.25 692.308
477.157 687.5 502.959
477.157 693.75 508.876
477.157 700 733.728
477.157 706.25 692.308
477.157 712.5 710.059
477.157 718.75 692.308
477.157 725 692.308
477.157 731.25 491.124
477.157 737.5 633.136
477.157 743.75 674.556
477.157 750 674.556
477.157 756.25 479.29
477.157 762.5 479.29
477.157 768.75 479.29
477.157 775 479.29
477.157 781.25 307.692
477.157 787.5 656.805
477.157 793.75 656.805
477.157 800 656.805
477.157 806.25 502.959
477.157 812.5 502.959
477.157 818.75 502.959
477.157 825 502.959
477.157 831.25 502.959
477.157 837.5 431.953
477.157 843.75 508.876
477.157 850 514.793
477.157 856.25 514.793
477.157 862.5 514.793
477.157 868.75 514.793
477.157 875 514.793
482.234 131.25 502.959
482.234 137.5 502.959
482.234 143.75 508.876
482.234 150 508.876
482.234 156.25 508.876
482.234 162.5 514.793
482.234 168.75 662.722
482.234 175 668.639
482.234 181.25 491.124
482.234 187.5 656.805
482.234 193.75 656.805
482.234 200 502.959
482.234 206.25 680.473
482.234 212.5 680.473
482.234 218.75 497.041
482.234 225 668.639
482.234 231.25 668.639
482.234 237.5 668.639
482.234 243.75 668.639
482.234 250 668.639
482.234 256.25 668.639
482.234 262.5 224.852
482.234 268.75 674.556
482.234 275 674.556
482.234 281.25 674.556
482.234 287.5 674.556
482.234 293.75 514.793
482.234 300 674.556
482.234 306.25 710.059
482.234 312.5 704.142
482.234 318.75 532.544
482.234 325 686.391
482.234 331.25 609.467
482.234 337.5 633.136
482.234 343.75 656.805
482.234 350 556.213
482.234 356.25 603.55
482.234 362.5 710.059
482.234 368.75 562.13
482.234 375 319.527
482.234 381.25 100.592
482.234 593.75 59.1716
482.234 600 165.68
482.234 606.25 479.29
482.234 612.5 514.793
482.234 618.75 384.615
482.234 625 538.462
482.234 631.25 633.136
482.234 637.5 680.473
482.234 643.75 686.391
482.234 650 733.728
482.234 656.25 763.314
482.234 662.5 721.893
482.234 668.75 715.976
482.234 675 692.308
482.234 681.25 692.308
482.234 687.5 502.959
482.234 693.75 680.473
482.234 700 603.55
482.234 706.25 692.308
482.234 712.5 733.728
482.234 718.75 692.308
482.234 725 686.391
482.234 731.25 686.391
482.234 737.5 591.716
482.234 743.75 674.556
482.234 750 674.556
482.234 756.25 479.29
482.234 762.5 479.29
482.234 768.75 479.29
482.234 775 479.29
482.234 781.25 118.343
482.234 787.5 437.87
482.234 793.75 656.805
482.234 800 656.805
482.234 806.25 502.959
482.234 812.5 502.959
482.234 818.75 502.959
482.234 825 502.959
482.234 831.25 502.959
482.234 837.5 502.959
482.234 850 508.876
482.234 856.25 508.876
482.234 862.5 514.793
482.234 868.75 514.793
487.31 156.25 508.876
487.31 162.5 508.876
487.31 168.75 674.556
487.31 175 491.124
487.31 181.25 526.627
487.31 187.5 656.805
487.31 193.75 621.302
487.31 200 502.959
487.31 206.25 680.473
487.31 212.5 674.556
487.31 218.75 497.041
487.31 225 668.639
487.31 231.25 668.639
487.31 237.5 668.639
487.31 243.75 668.639
487.31 250 662.722
487.31 256.25 497.041
487.31 262.5 289.941
487.31 268.75 674.556
487.31 275 674.556
487.31 281.25 698.225
487.31 287.5 674.556
487.31 293.75 514.793
487.31 300 674.556
487.31 306.25 739.645
487.31 312.5 745.562
487.31 318.75 526.627
487.31 325 680.473
487.31 331.25 609.467
487.31 337.5 603.55
487.31 343.75 644.97
487.31 350 597.633
487.31 356.25 568.047
487.31 362.5 662.722
487.31 368.75 532.544
487.31 375 319.527
487.31 600 100.592
487.31 606.25 414.201
487.31 612.5 502.959
487.31 618.75 408.284
487.31 625 538.462
487.31 631.25 591.716
487.31 637.5 686.391
487.31 643.75 704.142
487.31 650 828.402
487.31 656.25 727.811
487.31 662.5 698.225
487.31 668.75 721.893
487.31 675 692.308
487.31 681.25 692.308
487.31 687.5 532.544
487.31 693.75 680.473
487.31 700 644.97
487.31 706.25 739.645
487.31 712.5 686.391
487.31 718.75 686.391
487.31 725 686.391
487.31 731.25 686.391
487.31 737.5 508.876
487.31 743.75 674.556
487.31 750 674.556
487.31 756.25 479.29
487.31 762.5 479.29
487.31 768.75 479.29
487.31 775 479.29
487.31 781.25 118.343
487.31 787.5 437.87
487.31 793.75 656.805
487.31 800 656.805
487.31 806.25 656.805
487.31 812.5 502.959
487.31 818.75 502.959
487.31 825 502.959
487.31 831.25 502.959
487.31 837.5 502.959
492.386 162.5 295.858
492.386 168.75 295.858
492.386 175 526.627
492.386 181.25 656.805
492.386 187.5 662.722
492.386 193.75 591.716
492.386 200 686.391
492.386 206.25 686.391
492.386 212.5 680.473
492.386 218.75 520.71
492.386 225 668.639
492.386 231.25 668.639
492.386 237.5 668.639
492.386 243.75 668.639
492.386 250 662.722
492.386 256.25 159.763
492.386 262.5 479.29
492.386 268.75 674.556
492.386 275 674.556
492.386 281.25 680.473
492.386 287.5 674.556
492.386 293.75 514.793
492.386 300 674.556
492.386 306.25 775.148
492.386 312.5 615.385
492.386 318.75 526.627
492.386 325 680.473
492.386 331.25 603.55
492.386 337.5 633.136
492.386 343.75 621.302
492.386 350 639.053
492.386 356.25 621.302
492.386 362.5 698.225
492.386 368.75 508.876
492.386 375 325.444
492.386 600 76.9231
492.386 606.25 355.03
492.386 612.5 497.041
492.386 618.75 408.284
492.386 625 550.296
492.386 631.25 508.876
492.386 637.5 710.059
492.386 643.75 727.811
492.386 650 792.899
492.386 656.25 674.556
492.386 662.5 757.396
492.386 668.75 704.142
492.386 675 686.391
492.386 681.25 502.959
492.386 687.5 562.13
492.386 693.75 680.473
492.386 700 692.308
492.386 706.25 650.888
492.386 712.5 686.391
492.386 718.75 686.391
492.386 725 686.391
492.386 731.25 686.391
492.386 737.5 508.876
492.386 743.75 674.556
492.386 750 674.556
492.386 756.25 674.556
492.386 762.5 479.29
492.386 768.75 479.29
492.386 775 479.29
492.386 781.25 59.1716
492.386 787.5 372.781
492.386 793.75 650.888
492.386 800 656.805
492.386 806.25 656.805
492.386 812.5 502.959
492.386 818.75 502.959
492.386 825 502.959
492.386 831.25 502.959
492.386 837.5 502.959
497.462 162.5 497.041
497.462 168.75 497.041
497.462 175 497.041
497.462 181.25 656.805
497.462 187.5 662.722
497.462 193.75 508.876
497.462 200 686.391
497.462 206.25 686.391
497.462 212.5 520.71
497.462 218.75 550.296
497.462 225 668.639
497.462 231.25 668.639
497.462 237.5 668.639
497.462 243.75 668.639
497.462 250 485.207
497.462 256.25 224.852
497.462 262.5 674.556
497.462 268.75 674.556
497.462 275 674.556
497.462 281.25 739.645
497.462 287.5 674.556
497.462 293.75 514.793
497.462 300 674.556
497.462 306.25 775.148
497.462 312.5 656.805
497.462 318.75 526.627
497.462 325 680.473
497.462 331.25 603.55
497.462 337.5 739.645
497.462 343.75 627.219
497.462 350 650.888
497.462 356.25 715.976
497.462 362.5 674.556
497.462 368.75 485.207
497.462 375 325.444
497.462 600 76.9231
497.462 606.25 171.598
497.462 612.5 502.959
497.462 618.75 431.953
497.462 625 550.296
497.462 631.25 508.876
497.462 637.5 733.728
497.462 643.75 822.485
497.462 650 763.314
497.462 656.25 745.562
497.462 662.5 763.314
497.462 668.75 692.308
497.462 675 686.391
497.462 681.25 479.29
497.462 687.5 680.473
497.462 693.75 680.473
497.462 700 692.308
497.462 706.25 781.065
497.462 712.5 680.473
497.462 718.75 686.391
497.462 725 686.391
497.462 731.25 686.391
497.462 737.5 508.876
497.462 743.75 674.556
497.462 750 674.556
497.462 756.25 674.556
497.462 762.5 479.29
497.462 768.75 479.29
497.462 775 479.29
497.462 781.25 479.29
497.462 787.5 307.692
497.462 793.75 437.87
497.462 800 656.805
497.462 806.25 502.959
497.462 812.5 502.959
497.462 818.75 502.959
497.462 825 502.959
497.462 831.25 502.959
502.538 162.5 497.041
502.538 168.75 497.041
502.538 175 497.041
502.538 181.25 497.041
502.538 187.5 502.959
502.538 193.75 502.959
502.538 200 680.473
502.538 206.25 479.29
502.538 212.5 550.296
502.538 218.75 668.639
502.538 225 668.639
502.538 231.25 668.639
502.538 237.5 668.639
502.538 243.75 668.639
502.538 250 94.6746
502.538 256.25 224.852
502.538 262.5 674.556
502.538 268.75 674.556
502.538 275 674.556
502.538 281.25 739.645
502.538 287.5 698.225
502.538 293.75 514.793
502.538 300 674.556
502.538 306.25 775.148
502.538 312.5 698.225
502.538 318.75 159.763
502.538 325 680.473
502.538 331.25 609.467
502.538 337.5 751.479
502.538 343.75 627.219
502.538 350 668.639
502.538 356.25 698.225
502.538 362.5 698.225
502.538 368.75 473.373
502.538 375 325.444
502.538 600 153.846
502.538 606.25 236.686
502.538 612.5 520.71
502.538 618.75 455.621
502.538 625 538.462
502.538 631.25 508.876
502.538 637.5 822.485
502.538 643.75 792.899
502.538 650 739.645
502.538 656.25 769.231
502.538 662.5 674.556
502.538 668.75 686.391
502.538 675 686.391
502.538 681.25 479.29
502.538 687.5 680.473
502.538 693.75 686.391
502.538 700 704.142
502.538 706.25 680.473
502.538 712.5 497.041
502.538 718.75 686.391
502.538 725 686.391
502.538 731.25 686.391
502.538 737.5 497.041
502.538 743.75 633.136
502.538 750 674.556
502.538 756.25 674.556
502.538 762.5 479.29
502.538 768.75 479.29
502.538 775 479.29
502.538 781.25 479.29
502.538 787.5 118.343
502.538 793.75 437.87
502.538 806.25 497.041
502.538 812.5 502.959
502.538 818.75 502.959
502.538 825 502.959
507.614 162.5 497.041
507.614 168.75 497.041
507.614 175 497.041
507.614 181.25 497.041
507.614 187.5 497.041
507.614 200 479.29
507.614 206.25 479.29
507.614 212.5 668.639
507.614 218.75 668.639
507.614 225 668.639
507.614 231.25 668.639
507.614 237.5 668.639
507.614 243.75 479.29
507.614 250 479.29
507.614 256.25 349.112
507.614 262.5 674.556
507.614 268.75 674.556
507.614 275 674.556
507.614 281.25 739.645
507.614 287.5 698.225
507.614 293.75 538.462
507.614 300 674.556
507.614 306.25 757.396
507.614 312.5 520.71
507.614 318.75 159.763
507.614 325 680.473
507.614 331.25 609.467
507.614 337.5 656.805
507.614 343.75 639.053
507.614 350 757.396
507.614 356.25 710.059
507.614 362.5 704.142
507.614 368.75 473.373
507.614 375 319.527
507.614 593.75 59.1716
507.614 600 159.763
507.614 606.25 295.858
507.614 612.5 514.793
507.614 618.75 449.704
507.614 625 550.296
507.614 631.25 508.876
507.614 637.5 822.485
507.614 643.75 769.231
507.614 650 840.237
507.614 656.25 763.314
507.614 662.5 674.556
507.614 668.75 715.976
507.614 675 686.391
507.614 681.25 479.29
507.614 687.5 485.207
507.614 693.75 692.308
507.614 700 721.893
507.614 706.25 680.473
507.614 712.5 497.041
507.614 718.75 680.473
507.614 725 686.391
507.614 731.25 686.391
507.614 737.5 686.391
507.614 743.75 591.716
507.614 750 674.556
507.614 756.25 674.556
507.614 762.5 674.556
507.614 768.75 479.29
507.614 775 479.29
507.614 781.25 479.29
507.614 812.5 497.041
507.614 818.75 497.041
512.69 168.75 491.124
512.69 175 491.124
512.69 200 479.29
512.69 206.25 479.29
512.69 212.5 668.639
512.69 218.75 668.639
512.69 225 668.639
512.69 231.25 668.639
512.69 237.5 668.639
512.69 243.75 479.29
512.69 250 479.29
512.69 256.25 159.763
512.69 262.5 674.556
512.69 268.75 680.473
512.69 275 680.473
512.69 281.25 739.645
512.69 287.5 550.296
512.69 293.75 568.047
512.69 300 674.556
512.69 306.25 786.982
512.69 312.5 550.296
512.69 318.75 218.935
512.69 325 473.373
512.69 331.25 644.97
512.69 337.5 686.391
512.69 343.75 686.391
512.69 350 739.645
512.69 356.25 692.308
512.69 362.5 668.639
512.69 368.75 426.036
512.69 375 278.107
512.69 593.75 59.1716
512.69 600 159.763
512.69 606.25 479.29
512.69 612.5 514.793
512.69 618.75 514.793
512.69 625 378.698
512.69 631.25 526.627
512.69 637.5 822.485
512.69 643.75 769.231
512.69 650 840.237
512.69 656.25 763.314
512.69 662.5 686.391
512.69 668.75 692.308
512.69 675 692.308
512.69 681.25 479.29
512.69 687.5 485.207
512.69 693.75 692.308
512.69 700 804.734
512.69 706.25 680.473
512.69 712.5 497.041
512.69 718.75 680.473
512.69 725 686.391
512.69 731.25 686.391
512.69 737.5 686.391
512.69 743.75 491.124
512.69 750 674.556
512.69 756.25 674.556
512.69 762.5 674.556
512.69 768.75 479.29
512.69 775 479.29
512.69 781.25 479.29
517.766 200 479.29
517.766 206.25 479.29
517.766 212.5 479.29
517.766 218.75 668.639
517.766 225 668.639
517.766 231.25 668.639
517.766 237.5 668.639
517.766 243.75 479.29
517.766 250 479.29
517.766 256.25 159.763
517.766 262.5 680.473
517.766 268.75 680.473
517.766 275 680.473
517.766 281.25 739.645
517.766 287.5 556.213
517.766 293.75 674.556
517.766 300 674.556
517.766 306.25 656.805
517.766 312.5 384.615
517.766 318.75 289.941
517.766 325 473.373
517.766 331.25 674.556
517.766 337.5 680.473
517.766 343.75 727.811
517.766 350 739.645
517.766 356.25 698.225
517.766 362.5 644.97
517.766 368.75 485.207
517.766 375 248.521
517.766 593.75 59.1716
517.766 600 177.515
517.766 606.25 497.041
517.766 612.5 532.544
517.766 618.75 502.959
517.766 625 390.533
517.766 631.25 591.716
517.766 637.5 834.32
517.766 643.75 769.231
517.766 650 840.237
517.766 656.25 763.314
517.766 662.5 715.976
517.766 668.75 514.793
517.766 675 692.308
517.766 681.25 479.29
517.766 687.5 491.124
517.766 693.75 710.059
517.766 700 804.734
517.766 706.25 686.391
517.766 712.5 603.55
517.766 718.75 686.391
517.766 725 692.308
517.766 731.25 686.391
517.766 737.5 686.391
517.766 743.75 491.124
517.766 750 674.556
517.766 756.25 674.556
517.766 762.5 674.556
517.766 768.75 479.29
517.766 775 479.29
517.766 781.25 479.29
522.843 200 479.29
522.843 206.25 479.29
522.843 212.5 479.29
522.843 218.75 479.29
522.843 225 668.639
522.843 231.25 668.639
522.843 237.5 479.29
522.843 243.75 479.29
522.843 250 502.959
522.843 256.25 224.852
522.843 262.5 680.473
522.843 268.75 680.473
522.843 275 680.473
522.843 281.25 680.473
522.843 287.5 556.213
522.843 293.75 674.556
522.843 300 674.556
522.843 306.25 656.805
522.843 312.5 491.124
522.843 318.75 544.379
522.843 325 473.373
522.843 331.25 473.373
522.843 337.5 668.639
522.843 343.75 715.976
522.843 350 733.728
522.843 356.25 686.391
522.843 362.5 609.467
522.843 368.75 402.367
522.843 375 195.266
522.843 593.75 76.9231
522.843 600 159.763
522.843 606.25 479.29
522.843 612.5 609.467
522.843 618.75 497.041
522.843 625 390.533
522.843 631.25 704.142
522.843 637.5 828.402
522.843 643.75 769.231
522.843 650 810.651
522.843 656.25 739.645
522.843 662.5 704.142
522.843 668.75 514.793
522.843 675 692.308
522.843 681.25 485.207
522.843 687.5 508.876
522.843 693.75 556.213
522.843 700 816.568
522.843 706.25 686.391
522.843 712.5 502.959
522.843 718.75 686.391
522.843 725 692.308
522.843 731.25 686.391
522.843 737.5 686.391
522.843 743.75 491.124
522.843 750 491.124
522.843 756.25 674.556
522.843 762.5 479.29
522.843 768.75 479.29
522.843 775 479.29
522.843 781.25 479.29
522.843 787.5 479.29
527.919 200 479.29
527.919 206.25 479.29
527.919 212.5 479.29
527.919 218.75 479.29
527.919 225 479.29
527.919 231.25 479.29
527.919 237.5 479.29
527.919 250 289.941
527.919 256.25 289.941
527.919 262.5 680.473
527.919 268.75 680.473
527.919 275 680.473
527.919 281.25 680.473
527.919 287.5 627.219
527.919 293.75 674.556
527.919 300 674.556
527.919 306.25 473.373
527.919 312.5 538.462
527.919 318.75 579.882
527.919 325 473.373
527.919 331.25 414.201
527.919 337.5 639.053
527.919 343.75 656.805
527.919 350 710.059
527.919 356.25 674.556
527.919 362.5 579.882
527.919 368.75 514.793
527.919 375 307.692
527.919 593.75 76.9231
527.919 600 159.763
527.919 606.25 479.29
527.919 612.5 579.882
527.919 618.75 449.704
527.919 625 337.278
527.919 631.25 686.391
527.919 637.5 834.32
527.919 643.75 798.817
527.919 650 798.817
527.919 656.25 739.645
527.919 662.5 526.627
527.919 668.75 514.793
527.919 675 479.29
527.919 681.25 485.207
527.919 687.5 508.876
527.919 693.75 668.639
527.919 700 816.568
527.919 706.25 686.391
527.919 712.5 502.959
527.919 718.75 692.308
527.919 725 692.308
527.919 731.25 692.308
527.919 737.5 491.124
527.919 743.75 491.124
527.919 750 491.124
527.919 756.25 674.556
527.919 762.5 479.29
527.919 768.75 479.29
527.919 775 479.29
527.919 781.25 479.29
527.919 787.5 479.29
532.995 206.25 479.29
532.995 212.5 479.29
532.995 218.75 479.29
532.995 225 479.29
532.995 231.25 479.29
532.995 256.25 479.29
532.995 262.5 680.473
532.995 268.75 680.473
532.995 275 680.473
532.995 281.25 680.473
532.995 287.5 520.71
532.995 293.75 674.556
532.995 300 674.556
532.995 306.25 479.29
532.995 312.5 579.882
532.995 318.75 615.385
532.995 325 544.379
532.995 331.25 349.112
532.995 337.5 485.207
532.995 343.75 668.639
532.995 350 739.645
532.995 356.25 686.391
532.995 362.5 562.13
532.995 368.75 384.615
532.995 375 159.763
532.995 381.25 94.6746
532.995 593.75 76.9231
532.995 600 159.763
532.995 606.25 479.29
532.995 612.5 497.041
532.995 618.75 390.533
532.995 625 526.627
532.995 631.25 639.053
532.995 637.5 834.32
532.995 643.75 834.32
532.995 650 775.148
532.995 656.25 751.479
532.995 662.5 514.793
532.995 668.75 692.308
532.995 675 479.29
532.995 681.25 491.124
532.995 687.5 532.544
532.995 693.75 674.556
532.995 700 686.391
532.995 706.25 680.473
532.995 712.5 502.959
532.995 718.75 692.308
532.995 725 692.308
532.995 731.25 692.308
532.995 737.5 491.124
532.995 743.75 491.124
532.995 750 491.124
532.995 762.5 479.29
532.995 768.75 485.207
532.995 775 485.207
532.995 781.25 485.207
532.995 787.5 479.29
538.071 212.5 479.29
538.071 218.75 479.29
538.071 225 479.29
538.071 256.25 479.29
538.071 262.5 479.29
538.071 268.75 680.473
538.071 275 680.473
538.071 281.25 680.473
538.071 287.5 497.041
538.071 293.75 769.231
538.071 300 497.041
538.071 306.25 218.935
538.071 312.5 497.041
538.071 318.75 656.805
538.071 325 615.385
538.071 331.25 372.781
538.071 337.5 508.876
538.071 343.75 727.811
538.071 350 721.893
538.071 356.25 686.391
538.071 362.5 508.876
538.071 368.75 331.361
538.071 375 94.6746
538.071 593.75 76.9231
538.071 600 159.763
538.071 606.25 479.29
538.071 612.5 497.041
538.071 618.75 378.698
538.071 625 520.71
538.071 631.25 603.55
538.071 637.5 834.32
538.071 643.75 834.32
538.071 650 804.734
538.071 656.25 828.402
538.071 662.5 514.793
538.071 668.75 479.29
538.071 675 485.207
538.071 681.25 508.876
538.071 687.5 556.213
538.071 693.75 680.473
538.071 700 686.391
538.071 706.25 502.959
538.071 712.5 502.959
538.071 718.75 502.959
538.071 725 692.308
538.071 731.25 692.308
538.071 737.5 491.124
538.071 743.75 491.124
538.071 762.5 485.207
538.071 768.75 485.207
538.071 775 485.207
538.071 781.25 485.207
538.071 787.5 479.29
543.147 262.5 479.29
543.147 268.75 479.29
543.147 275 680.473
543.147 281.25 497.041
543.147 287.5 497.041
543.147 300 408.284
543.147 306.25 301.775
543.147 312.5 467.456
543.147 318.75 615.385
543.147 325 668.639
543.147 331.25 573.964
543.147 337.5 502.959
543.147 343.75 686.391
543.147 350 715.976
543.147 356.25 692.308
543.147 362.5 473.373
543.147 368.75 319.527
543.147 593.75 76.9231
543.147 600 159.763
543.147 606.25 491.124
543.147 612.5 497.041
543.147 618.75 378.698
543.147 625 520.71
543.147 631.25 514.793
543.147 637.5 692.308
543.147 643.75 834.32
543.147 650 834.32
543.147 656.25 798.817
543.147 662.5 266.272
543.147 668.75 479.29
543.147 675 485.207
543.147 681.25 508.876
543.147 687.5 674.556
543.147 693.75 479.29
543.147 706.25 502.959
543.147 712.5 502.959
543.147 718.75 502.959
543.147 725 502.959
543.147 731.25 692.308
543.147 762.5 479.29
543.147 768.75 485.207
543.147 775 485.207
543.147 781.25 479.29
548.223 306.25 408.284
548.223 312.5 479.29
548.223 318.75 467.456
548.223 325 467.456
548.223 331.25 349.112
548.223 337.5 568.047
548.223 343.75 591.716
548.223 350 721.893
548.223 356.25 686.391
548.223 362.5 420.118
548.223 368.75 278.107
548.223 593.75 76.9231
548.223 600 177.515
548.223 606.25 508.876
548.223 612.5 502.959
548.223 618.75 437.87
548.223 625 497.041
548.223 631.25 508.876
548.223 637.5 692.308
548.223 643.75 692.308
548.223 650 834.32
548.223 656.25 508.876
548.223 662.5 295.858
548.223 668.75 479.29
548.223 675 491.124
548.223 681.25 532.544
548.223 687.5 532.544
548.223 693.75 479.29
548.223 706.25 502.959
548.223 712.5 502.959
548.223 718.75 502.959
548.223 725 502.959
548.223 768.75 479.29
548.223 775 479.29
553.299 312.5 408.284
553.299 318.75 479.29
553.299 325 408.284
553.299 331.25 449.704
553.299 337.5 497.041
553.299 343.75 289.941
553.299 350 704.142
553.299 356.25 656.805
553.299 362.5 479.29
553.299 368.75 242.604
553.299 593.75 76.9231
553.299 600 183.432
553.299 606.25 502.959
553.299 612.5 497.041
553.299 618.75 514.793
553.299 625 183.432
553.299 631.25 497.041
553.299 637.5 674.556
553.299 643.75 686.391
553.299 650 508.876
553.299 668.75 224.852
553.299 675 284.024
553.299 681.25 532.544
553.299 712.5 502.959
553.299 718.75 502.959
558.376 318.75 414.201
558.376 325 360.947
558.376 331.25 461.538
558.376 337.5 426.036
558.376 343.75 532.544
558.376 350 579.882
558.376 356.25 585.799
558.376 362.5 396.45
558.376 368.75 159.763
558.376 593.75 76.9231
558.376 600 183.432
558.376 606.25 502.959
558.376 612.5 502.959
558.376 618.75 289.941
558.376 625 183.432
558.376 631.25 165.68
558.376 675 372.781
558.376 681.25 230.769
563.452 325 349.112
563.452 331.25 461.538
563.452 337.5 420.118
563.452 343.75 491.124
563.452 350 585.799
563.452 356.25 556.213
563.452 362.5 467.456
563.452 368.75 106.509
563.452 593.75 59.1716
563.452 600 177.515
563.452 606.25 502.959
563.452 612.5 207.101
563.452 618.75 189.349
563.452 625 183.432
568.528 325 349.112
568.528 331.25 502.959
568.528 337.5 420.118
568.528 343.75 621.302
568.528 350 579.882
568.528 356.25 544.379
568.528 362.5 461.538
568.528 368.75 224.852
568.528 593.75 59.1716
568.528 600 183.432
568.528 606.25 508.876
568.528 612.5 284.024
568.528 618.75 213.018
568.528 625 59.1716
573.604 331.25 497.041
573.604 337.5 366.864
573.604 343.75 556.213
573.604 350 579.882
573.604 356.25 437.87
573.604 362.5 390.533
573.604 368.75 159.763
573.604 593.75 59.1716
573.604 600 183.432
573.604 606.25 207.101
573.604 612.5 207.101
573.604 618.75 189.349
573.604 625 59.1716
578.68 331.25 502.959
578.68 337.5 437.87
578.68 343.75 609.467
578.68 350 532.544
578.68 356.25 467.456
578.68 362.5 331.361
578.68 368.75 100.592
578.68 593.75 59.1716
578.68 600 177.515
578.68 606.25 142.012
578.68 612.5 254.438
578.68 618.75 189.349
578.68 625 35.503
583.756 325 284.024
583.756 331.25 538.462
583.756 337.5 420.118
583.756 343.75 621.302
583.756 350 556.213
583.756 356.25 420.118
583.756 362.5 278.107
583.756 593.75 59.1716
583.756 600 177.515
583.756 606.25 118.343
583.756 612.5 242.604
583.756 618.75 189.349
588.832 325 414.201
588.832 331.25 532.544
588.832 337.5 585.799
588.832 343.75 698.225
588.832 350 544.379
588.832 356.25 455.621
588.832 362.5 248.521
588.832 593.75 59.1716
588.832 600 195.266
588.832 606.25 106.509
588.832 612.5 207.101
588.832 618.75 136.095
588.832 625 35.503
588.832 631.25 35.503
593.909 325 414.201
593.909 331.25 532.544
593.909 337.5 633.136
593.909 343.75 721.893
593.909 350 603.55
593.909 356.25 426.036
593.909 362.5 224.852
593.909 593.75 76.9231
593.909 600 159.763
593.909 606.25 100.592
593.909 612.5 189.349
593.909 618.75 189.349
593.909 625 35.503
593.909 631.25 35.503
598.985 325 360.947
598.985 331.25 497.041
598.985 337.5 633.136
598.985 343.75 674.556
598.985 350 597.633
598.985 356.25 414.201
598.985 362.5 224.852
598.985 593.75 59.1716
598.985 600 159.763
598.985 606.25 100.592
598.985 612.5 189.349
598.985 618.75 189.349
598.985 625 35.503
598.985 631.25 35.503
604.061 325 502.959
604.061 331.25 473.373
604.061 337.5 556.213
604.061 343.75 627.219
604.061 350 585.799
604.061 356.25 414.201
604.061 362.5 224.852
604.061 593.75 88.7574
604.061 600 159.763
604.061 606.25 100.592
604.061 612.5 224.852
604.061 618.75 189.349
604.061 625 35.503
604.061 631.25 35.503
609.137 325 532.544
609.137 331.25 497.041
609.137 337.5 491.124
609.137 343.75 609.467
609.137 350 585.799
609.137 356.25 414.201
609.137 362.5 224.852
609.137 593.75 76.9231
609.137 600 100.592
609.137 606.25 147.929
609.137 612.5 242.604
609.137 618.75 189.349
609.137 625 112.426
614.213 325 556.213
614.213 331.25 414.201
614.213 337.5 414.201
614.213 343.75 591.716
614.213 350 532.544
614.213 356.25 414.201
614.213 362.5 224.852
614.213 593.75 76.9231
614.213 600 65.0888
614.213 606.25 189.349
614.213 612.5 201.183
614.213 618.75 224.852
614.213 625 165.68
619.289 331.25 461.538
619.289 337.5 420.118
619.289 343.75 556.213
619.289 350 455.621
619.289 356.25 437.87
619.289 362.5 224.852
619.289 593.75 76.9231
619.289 600 65.0888
619.289 606.25 195.266
619.289 612.5 207.101
619.289 618.75 189.349
624.365 331.25 497.041
624.365 337.5 568.047
624.365 343.75 491.124
624.365 350 455.621
624.365 356.25 337.278
624.365 362.5 159.763
624.365 475 100.592
624.365 481.25 165.68
624.365 487.5 100.592
624.365 593.75 76.9231
624.365 600 35.503
624.365 606.25 153.846
624.365 612.5 171.598
624.365 618.75 147.929
624.365 625 171.598
629.442 331.25 526.627
629.442 337.5 579.882
629.442 343.75 485.207
629.442 350 502.959
629.442 356.25 242.604
629.442 362.5 94.6746
629.442 468.75 35.503
629.442 475 165.68
629.442 481.25 289.941
629.442 487.5 355.03
629.442 493.75 35.503
629.442 593.75 76.9231
629.442 606.25 124.26
629.442 612.5 112.426
629.442 618.75 420.118
629.442 625 165.68
634.518 331.25 573.964
634.518 337.5 597.633
634.518 343.75 514.793
634.518 350 479.29
634.518 356.25 218.935
634.518 468.75 35.503
634.518 475 165.68
634.518 481.25 479.29
634.518 487.5 355.03
634.518 493.75 224.852
634.518 593.75 76.9231
634.518 606.25 118.343
634.518 612.5 171.598
634.518 618.75 360.947
634.518 625 207.101
639.594 331.25 544.379
639.594 337.5 639.053
639.594 343.75 550.296
639.594 350 467.456
639.594 356.25 218.935
639.594 468.75 35.503
639.594 475 165.68
639.594 481.25 479.29
639.594 487.5 355.03
639.594 493.75 224.852
639.594 593.75 59.1716
639.594 606.25 118.343
639.594 612.5 242.604
639.594 618.75 189.349
639.594 625 183.432
644.67 325 414.201
644.67 331.25 532.544
644.67 337.5 639.053
644.67 343.75 597.633
644.67 350 461.538
644.67 356.25 218.935
644.67 468.75 35.503
644.67 475 171.598
644.67 481.25 485.207
644.67 487.5 355.03
644.67 493.75 248.521
644.67 593.75 59.1716
644.67 600 35.503
644.67 606.25 118.343
644.67 612.5 242.604
644.67 618.75 213.018
644.67 625 183.432
649.746 325 414.201
649.746 331.25 562.13
649.746 337.5 639.053
649.746 343.75 633.136
649.746 350 455.621
649.746 356.25 218.935
649.746 468.75 124.26
649.746 475 165.68
649.746 481.25 230.769
649.746 487.5 431.953
649.746 493.75 455.621
649.746 500 35.503
649.746 593.75 59.1716
649.746 600 35.503
649.746 606.25 147.929
649.746 612.5 260.355
649.746 618.75 319.527
649.746 625 236.686
654.822 325 449.704
654.822 331.25 532.544
654.822 337.5 668.639
654.822 343.75 633.136
654.822 350 556.213
654.822 356.25 218.935
654.822 462.5 41.4201
654.822 468.75 177.515
654.822 475 171.598
654.822 481.25 485.207
654.822 487.5 360.947
654.822 493.75 355.03
654.822 500 236.686
654.822 593.75 59.1716
654.822 600 76.9231
654.822 606.25 207.101
654.822 612.5 189.349
654.822 618.75 201.183
654.822 625 124.26
659.898 331.25 461.538
659.898 337.5 633.136
659.898 343.75 615.385
659.898 350 556.213
659.898 356.25 218.935
659.898 462.5 41.4201
659.898 468.75 224.852
659.898 475 230.769
659.898 481.25 485.207
659.898 487.5 437.87
659.898 493.75 497.041
659.898 500 390.533
659.898 506.25 94.6746
659.898 593.75 76.9231
659.898 600 76.9231
659.898 606.25 207.101
659.898 612.5 189.349
659.898 618.75 201.183
659.898 625 35.503
664.975 331.25 562.13
664.975 337.5 556.213
664.975 343.75 597.633
664.975 350 556.213
664.975 356.25 218.935
664.975 462.5 76.9231
664.975 468.75 165.68
664.975 475 301.775
664.975 481.25 502.959
664.975 487.5 573.964
664.975 493.75 497.041
664.975 500 562.13
664.975 506.25 355.03
664.975 512.5 35.503
664.975 593.75 76.9231
664.975 600 106.509
664.975 606.25 254.438
664.975 612.5 224.852
664.975 618.75 59.1716
670.051 331.25 532.544
670.051 337.5 550.296
670.051 343.75 639.053
670.051 350 550.296
670.051 356.25 218.935
670.051 462.5 130.178
670.051 468.75 207.101
670.051 475 254.438
670.051 481.25 236.686
670.051 487.5 514.793
670.051 493.75 420.118
670.051 500 585.799
670.051 506.25 355.03
670.051 512.5 224.852
670.051 593.75 76.9231
670.051 600 118.343
670.051 606.25 189.349
670.051 612.5 266.272
670.051 618.75 59.1716
675.127 331.25 414.201
675.127 337.5 568.047
675.127 343.75 656.805
675.127 350 514.793
675.127 356.25 159.763
675.127 456.25 65.0888
675.127 462.5 272.189
675.127 468.75 266.272
675.127 475 331.361
675.127 481.25 319.527
675.127 487.5 431.953
675.127 493.75 390.533
675.127 500 644.97
675.127 506.25 461.538
675.127 512.5 224.852
675.127 593.75 88.7574
675.127 600 171.598
675.127 606.25 207.101
675.127 612.5 242.604
675.127 618.75 35.503
680.203 331.25 349.112
680.203 337.5 585.799
680.203 343.75 656.805
680.203 350 562.13
680.203 356.25 94.6746
680.203 450 41.4201
680.203 456.25 230.769
680.203 462.5 319.527
680.203 468.75 230.769
680.203 475 455.621
680.203 481.25 562.13
680.203 487.5 443.787
680.203 493.75 502.959
680.203 500 639.053
680.203 506.25 573.964
680.203 512.5 230.769
680.203 593.75 106.509
680.203 600 189.349
680.203 606.25 207.101
680.203 612.5 177.515
680.203 618.75 35.503
685.279 337.5 591.716
685.279 343.75 639.053
685.279 350 568.047
685.279 450 124.26
685.279 456.25 183.432
685.279 462.5 242.604
685.279 468.75 289.941
685.279 475 301.775
685.279 481.25 349.112
685.279 487.5 662.722
685.279 493.75 573.964
685.279 500 650.888
685.279 506.25 627.219
685.279 512.5 230.769
685.279 593.75 165.68
685.279 600 224.852
685.279 606.25 207.101
685.279 612.5 177.515
690.355 337.5 680.473
690.355 343.75 639.053
690.355 350 573.964
690.355 356.25 35.503
690.355 443.75 41.4201
690.355 450 242.604
690.355 456.25 218.935
690.355 462.5 213.018
690.355 468.75 414.201
690.355 475 153.846
690.355 487.5 597.633
690.355 493.75 650.888
690.355 500 662.722
690.355 506.25 597.633
690.355 512.5 378.698
690.355 587.5 59.1716
690.355 593.75 207.101
690.355 600 207.101
690.355 606.25 242.604
690.355 612.5 76.9231
695.431 337.5 633.136
695.431 343.75 597.633
695.431 350 562.13
695.431 356.25 218.935
695.431 443.75 130.178
695.431 450 213.018
695.431 456.25 343.195
695.431 462.5 319.527
695.431 468.75 372.781
695.431 487.5 526.627
695.431 493.75 721.893
695.431 500 597.633
695.431 506.25 615.385
695.431 512.5 508.876
695.431 518.75 35.503
695.431 587.5 130.178
695.431 593.75 213.018
695.431 600 195.266
695.431 606.25 189.349
695.431 612.5 76.9231
700.508 337.5 556.213
700.508 343.75 615.385
700.508 350 573.964
700.508 356.25 218.935
700.508 437.5 35.503
700.508 443.75 189.349
700.508 450 242.604
700.508 456.25 195.266
700.508 462.5 390.533
700.508 468.75 112.426
700.508 493.75 680.473
700.508 500 615.385
700.508 506.25 639.053
700.508 512.5 426.036
700.508 518.75 236.686
700.508 581.25 41.4201
700.508 587.5 207.101
700.508 593.75 224.852
700.508 600 213.018
700.508 606.25 207.101
700.508 612.5 124.26
705.584 337.5 349.112
705.584 343.75 603.55
705.584 350 597.633
705.584 356.25 218.935
705.584 437.5 88.7574
705.584 443.75 189.349
705.584 450 266.272
705.584 456.25 266.272
705.584 462.5 183.432
705.584 468.75 35.503
705.584 493.75 562.13
705.584 500 668.639
705.584 506.25 633.136
705.584 512.5 473.373
705.584 518.75 331.361
705.584 581.25 65.0888
705.584 587.5 189.349
705.584 593.75 260.355
705.584 600 213.018
705.584 606.25 207.101
705.584 612.5 165.68
710.66 337.5 414.201
710.66 343.75 573.964
710.66 350 633.136
710.66 356.25 218.935
710.66 437.5 100.592
710.66 443.75 171.598
710.66 450 242.604
710.66 456.25 366.864
710.66 462.5 59.1716
710.66 493.75 585.799
710.66 500 656.805
710.66 506.25 644.97
710.66 512.5 520.71
710.66 518.75 331.361
710.66 581.25 76.9231
710.66 587.5 147.929
710.66 593.75 183.432
710.66 600 242.604
710.66 606.25 183.432
715.736 337.5 414.201
715.736 343.75 603.55
715.736 350 668.639
715.736 356.25 236.686
715.736 437.5 118.343
715.736 443.75 213.018
715.736 450 272.189
715.736 456.25 278.107
715.736 462.5 59.1716
715.736 493.75 544.379
715.736 500 668.639
715.736 506.25 668.639
715.736 512.5 550.296
715.736 518.75 331.361
715.736 581.25 94.6746
715.736 587.5 213.018
715.736 593.75 207.101
715.736 600 207.101
715.736 606.25 207.101
720.812 337.5 349.112
720.812 343.75 704.142
720.812 350 633.136
720.812 356.25 384.615
720.812 437.5 147.929
720.812 443.75 254.438
720.812 450 248.521
720.812 456.25 171.598
720.812 462.5 147.929
720.812 493.75 550.296
720.812 500 680.473
720.812 506.25 704.142
720.812 512.5 550.296
720.812 518.75 331.361
720.812 581.25 100.592
720.812 587.5 242.604
720.812 593.75 189.349
720.812 600 242.604
720.812 606.25 183.432
725.888 337.5 349.112
725.888 343.75 727.811
725.888 350 573.964
725.888 356.25 467.456
725.888 431.25 41.4201
725.888 437.5 195.266
725.888 443.75 366.864
725.888 450 278.107
725.888 456.25 76.9231
725.888 493.75 573.964
725.888 500 704.142
725.888 506.25 680.473
725.888 512.5 568.047
725.888 518.75 325.444
725.888 581.25 106.509
725.888 587.5 224.852
725.888 593.75 189.349
725.888 600 183.432
725.888 606.25 189.349
730.964 337.5 349.112
730.964 343.75 686.391
730.964 350 609.467
730.964 356.25 520.71
730.964 431.25 35.503
730.964 437.5 189.349
730.964 443.75 491.124
730.964 450 242.604
730.964 456.25 59.1716
730.964 493.75 520.71
730.964 500 656.805
730.964 506.25 674.556
730.964 512.5 609.467
730.964 518.75 331.361
730.964 581.25 147.929
730.964 587.5 183.432
730.964 593.75 189.349
730.964 600 236.686
730.964 606.25 124.26
736.041 343.75 668.639
736.041 350 656.805
736.041 356.25 508.876
736.041 431.25 41.4201
736.041 437.5 195.266
736.041 443.75 147.929
736.041 450 207.101
736.041 456.25 112.426
736.041 493.75 573.964
736.041 500 621.302
736.041 506.25 609.467
736.041 512.5 585.799
736.041 518.75 331.361
736.041 575 35.503
736.041 581.25 189.349
736.041 587.5 183.432
736.041 593.75 177.515
736.041 600 159.763
736.041 606.25 242.604
741.117 343.75 532.544
741.117 350 656.805
741.117 356.25 520.71
741.117 431.25 41.4201
741.117 437.5 213.018
741.117 443.75 230.769
741.117 450 183.432
741.117 493.75 502.959
741.117 500 674.556
741.117 506.25 544.379
741.117 512.5 520.71
741.117 518.75 331.361
741.117 575 35.503
741.117 581.25 224.852
741.117 587.5 207.101
741.117 593.75 183.432
741.117 600 502.959
741.117 606.25 207.101
746.193 343.75 497.041
746.193 350 627.219
746.193 356.25 544.379
746.193 431.25 65.0888
746.193 437.5 230.769
746.193 443.75 242.604
746.193 450 207.101
746.193 500 656.805
746.193 506.25 573.964
746.193 512.5 449.704
746.193 518.75 289.941
746.193 575 76.9231
746.193 581.25 254.438
746.193 587.5 242.604
746.193 593.75 183.432
746.193 600 508.876
746.193 606.25 242.604
751.269 343.75 491.124
751.269 350 579.882
751.269 356.25 538.462
751.269 431.25 100.592
751.269 437.5 94.6746
751.269 443.75 272.189
751.269 450 260.355
751.269 500 662.722
751.269 506.25 633.136
751.269 512.5 526.627
751.269 518.75 260.355
751.269 575 88.7574
751.269 581.25 272.189
751.269 587.5 289.941
751.269 593.75 183.432
751.269 600 508.876
751.269 606.25 248.521
756.345 343.75 408.284
756.345 350 562.13
756.345 356.25 544.379
756.345 431.25 159.763
756.345 437.5 112.426
756.345 443.75 278.107
756.345 450 124.26
756.345 500 698.225
756.345 506.25 698.225
756.345 512.5 508.876
756.345 518.75 236.686
756.345 575 189.349
756.345 581.25 313.609
756.345 587.5 372.781
756.345 593.75 207.101
756.345 600 502.959
756.345 606.25 207.101
761.421 343.75 384.615
761.421 350 562.13
761.421 356.25 562.13
761.421 425 82.8402
761.421 431.25 171.598
761.421 437.5 213.018
761.421 443.75 266.272
761.421 450 106.509
761.421 500 710.059
761.421 506.25 692.308
761.421 512.5 627.219
761.421 518.75 236.686
761.421 568.75 76.9231
761.421 575 242.604
761.421 581.25 343.195
761.421 587.5 562.13
761.421 593.75 242.604
761.421 600 213.018
761.421 606.25 260.355
766.497 337.5 473.373
766.497 343.75 360.947
766.497 350 715.976
766.497 356.25 514.793
766.497 425 94.6746
766.497 431.25 94.6746
766.497 437.5 260.355
766.497 443.75 278.107
766.497 450 171.598
766.497 500 579.882
766.497 506.25 686.391
766.497 512.5 698.225
766.497 518.75 242.604
766.497 568.75 76.9231
766.497 575 189.349
766.497 581.25 508.876
766.497 587.5 502.959
766.497 593.75 242.604
766.497 600 183.432
766.497 606.25 236.686
771.574 337.5 473.373
771.574 343.75 355.03
771.574 350 710.059
771.574 356.25 491.124
771.574 425 94.6746
771.574 431.25 124.26
771.574 437.5 272.189
771.574 443.75 266.272
771.574 500 360.947
771.574 506.25 668.639
771.574 512.5 715.976
771.574 518.75 337.278
771.574 568.75 65.0888
771.574 575 189.349
771.574 581.25 491.124
771.574 587.5 502.959
771.574 593.75 242.604
771.574 600 213.018
771.574 606.25 159.763
776.65 343.75 355.03
776.65 350 650.888
776.65 356.25 473.373
776.65 425 82.8402
776.65 431.25 147.929
776.65 437.5 230.769
776.65 443.75 177.515
776.65 500 360.947
776.65 506.25 674.556
776.65 512.5 733.728
776.65 518.75 514.793
776.65 568.75 35.503
776.65 575 130.178
776.65 581.25 431.953
776.65 587.5 502.959
776.65 593.75 183.432
776.65 600 189.349
781.726 343.75 360.947
781.726 350 550.296
781.726 356.25 473.373
781.726 425 82.8402
781.726 431.25 171.598
781.726 437.5 248.521
781.726 443.75 177.515
781.726 500 360.947
781.726 506.25 692.308
781.726 512.5 644.97
781.726 518.75 467.456
781.726 575 100.592
781.726 581.25 313.609
781.726 587.5 449.704
781.726 593.75 183.432
781.726 600 189.349
786.802 343.75 461.538
786.802 350 455.621
786.802 356.25 508.876
786.802 425 29.5858
786.802 431.25 130.178
786.802 437.5 195.266
786.802 500 360.947
786.802 506.25 727.811
786.802 512.5 520.71
786.802 518.75 349.112
786.802 575 35.503
786.802 581.25 112.426
786.802 587.5 390.533
786.802 593.75 142.012
786.802 600 183.432
786.802 606.25 165.68
791.878 343.75 609.467
791.878 350 461.538
791.878 356.25 556.213
791.878 431.25 124.26
791.878 437.5 201.183
791.878 500 508.876
791.878 506.25 627.219
791.878 512.5 455.621
791.878 518.75 260.355
791.878 575 35.503
791.878 581.25 100.592
791.878 587.5 260.355
791.878 593.75 142.012
791.878 600 189.349
791.878 606.25 171.598
796.954 343.75 627.219
796.954 350 491.124
796.954 356.25 544.379
796.954 431.25 118.343
796.954 437.5 130.178
796.954 500 360.947
796.954 506.25 627.219
796.954 512.5 390.533
796.954 518.75 236.686
796.954 581.25 136.095
796.954 587.5 207.101
796.954 593.75 189.349
796.954 600 189.349
796.954 606.25 195.266
802.03 337.5 349.112
802.03 343.75 609.467
802.03 350 603.55
802.03 356.25 538.462
802.03 431.25 76.9231
802.03 437.5 159.763
802.03 443.75 171.598
802.03 506.25 621.302
802.03 512.5 378.698
802.03 518.75 171.598
802.03 581.25 100.592
802.03 587.5 142.012
802.03 593.75 189.349
802.03 600 189.349
802.03 606.25 165.68
807.107 337.5 349.112
807.107 343.75 650.888
807.107 350 591.716
807.107 356.25 426.036
807.107 431.25 65.0888
807.107 437.5 165.68
807.107 443.75 171.598
807.107 506.25 573.964
807.107 512.5 437.87
807.107 518.75 100.592
807.107 581.25 88.7574
807.107 587.5 142.012
807.107 593.75 224.852
807.107 600 189.349
807.107 606.25 171.598
812.183 337.5 414.201
812.183 343.75 692.308
812.183 350 556.213
812.183 356.25 319.527
812.183 431.25 65.0888
812.183 437.5 159.763
812.183 443.75 183.432
812.183 500 360.947
812.183 506.25 520.71
812.183 512.5 585.799
812.183 518.75 41.4201
812.183 581.25 100.592
812.183 587.5 124.26
812.183 593.75 242.604
812.183 600 189.349
812.183 606.25 171.598
817.259 343.75 680.473
817.259 350 520.71
817.259 356.25 165.68
817.259 437.5 112.426
817.259 443.75 213.018
817.259 500 360.947
817.259 506.25 597.633
817.259 512.5 609.467
817.259 518.75 236.686
817.259 581.25 100.592
817.259 587.5 118.343
817.259 593.75 207.101
817.259 600 189.349
817.259 606.25 171.598
822.335 343.75 745.562
822.335 350 473.373
822.335 356.25 130.178
822.335 437.5 106.509
822.335 443.75 266.272
822.335 500 431.953
822.335 506.25 633.136
822.335 512.5 579.882
822.335 518.75 171.598
822.335 581.25 94.6746
822.335 587.5 142.012
822.335 593.75 130.178
822.335 600 213.018
822.335 606.25 171.598
827.411 343.75 745.562
827.411 350 532.544
827.411 356.25 325.444
827.411 431.25 41.4201
827.411 437.5 177.515
827.411 443.75 325.444
827.411 500 550.296
827.411 506.25 621.302
827.411 512.5 526.627
827.411 518.75 106.509
827.411 581.25 100.592
827.411 587.5 189.349
827.411 593.75 242.604
827.411 600 213.018
827.411 606.25 201.183
832.487 343.75 828.402
832.487 350 491.124
832.487 356.25 319.527
832.487 431.25 82.8402
832.487 437.5 165.68
832.487 443.75 295.858
832.487 500 473.373
832.487 506.25 579.882
832.487 512.5 485.207
832.487 581.25 76.9231
832.487 587.5 136.095
832.487 593.75 213.018
832.487 600 213.018
832.487 606.25 165.68
837.563 343.75 751.479
837.563 350 473.373
837.563 356.25 254.438
837.563 431.25 41.4201
837.563 437.5 124.26
837.563 443.75 266.272
837.563 500 692.308
837.563 506.25 414.201
837.563 512.5 366.864
837.563 581.25 35.503
837.563 587.5 100.592
837.563 593.75 213.018
837.563 600 213.018
837.563 606.25 165.68
842.64 343.75 674.556
842.64 350 402.367
842.64 356.25 147.929
842.64 437.5 136.095
842.64 443.75 171.598
842.64 500 727.811
842.64 506.25 325.444
842.64 512.5 236.686
842.64 581.25 35.503
842.64 587.5 189.349
842.64 593.75 248.521
842.64 600 189.349
847.716 343.75 502.959
847.716 350 396.45
847.716 437.5 124.26
847.716 443.75 153.846
847.716 500 668.639
847.716 506.25 402.367
847.716 581.25 35.503
847.716 587.5 207.101
847.716 593.75 272.189
847.716 600 218.935
852.792 343.75 284.024
852.792 350 378.698
852.792 437.5 130.178
852.792 443.75 260.355
852.792 500 668.639
852.792 506.25 360.947
852.792 512.5 41.4201
852.792 581.25 59.1716
852.792 587.5 254.438
852.792 593.75 284.024
852.792 600 242.604
857.868 337.5 502.959
857.868 343.75 260.355
857.868 350 248.521
857.868 437.5 130.178
857.868 443.75 272.189
857.868 500 662.722
857.868 506.25 562.13
857.868 512.5 254.438
857.868 581.25 130.178
857.868 587.5 171.598
857.868 593.75 313.609
857.868 600 278.107
862.944 337.5 656.805
862.944 343.75 301.775
862.944 350 106.509
862.944 437.5 130.178
862.944 443.75 236.686
862.944 500 550.296
862.944 506.25 597.633
862.944 512.5 544.379
862.944 575 35.503
862.944 581.25 189.349
862.944 587.5 230.769
862.944 593.75 224.852
862.944 600 260.355
868.02 337.5 331.361
868.02 343.75 443.787
868.02 437.5 130.178
868.02 443.75 213.018
868.02 500 307.692
868.02 506.25 585.799
868.02 512.5 514.793
868.02 575 35.503
868.02 581.25 224.852
868.02 587.5 307.692
868.02 593.75 242.604
873.096 337.5 325.444
873.096 343.75 467.456
873.096 437.5 130.178
873.096 443.75 230.769
873.096 500 591.716
873.096 506.25 491.124
873.096 512.5 502.959
873.096 575 76.9231
873.096 581.25 242.604
873.096 587.5 260.355
873.096 593.75 289.941
878.173 337.5 390.533
878.173 343.75 467.456
878.173 437.5 130.178
878.173 443.75 218.935
878.173 500 721.893
878.173 506.25 491.124
878.173 512.5 473.373
878.173 575 35.503
878.173 581.25 171.598
878.173 587.5 242.604
878.173 593.75 307.692
883.249 337.5 603.55
883.249 343.75 491.124
883.249 437.5 124.26
883.249 443.75 195.266
883.249 500 704.142
883.249 506.25 514.793
883.249 512.5 408.284
883.249 581.25 153.846
883.249 587.5 218.935
883.249 593.75 242.604
888.325 337.5 769.231
888.325 343.75 591.716
888.325 350 35.503
888.325 437.5 124.26
888.325 443.75 224.852
888.325 500 715.976
888.325 506.25 402.367
888.325 512.5 325.444
888.325 581.25 130.178
888.325 587.5 189.349
888.325 593.75 165.68
893.401 337.5 609.467
893.401 343.75 514.793
893.401 350 236.686
893.401 437.5 130.178
893.401 443.75 242.604
893.401 500 692.308
893.401 506.25 343.195
893.401 512.5 189.349
893.401 581.25 124.26
893.401 587.5 242.604
898.477 337.5 544.379
898.477 343.75 420.118
898.477 350 242.604
898.477 437.5 130.178
898.477 443.75 284.024
898.477 500 497.041
898.477 506.25 372.781
898.477 581.25 147.929
898.477 587.5 325.444
903.553 337.5 739.645
903.553 343.75 384.615
903.553 350 189.349
903.553 437.5 130.178
903.553 443.75 313.609
903.553 500 343.195
903.553 506.25 491.124
903.553 575 41.4201
903.553 581.25 224.852
903.553 587.5 390.533
908.629 337.5 727.811
908.629 343.75 502.959
908.629 437.5 218.935
908.629 443.75 390.533
908.629 500 491.124
908.629 506.25 491.124
908.629 575 106.509
908.629 581.25 301.775
908.629 587.5 473.373
913.706 337.5 786.982
913.706 343.75 621.302
913.706 431.25 218.935
913.706 437.5 289.941
913.706 443.75 266.272
913.706 500 727.811
913.706 506.25 556.213
913.706 575 142.012
913.706 581.25 343.195
913.706 587.5 585.799
918.782 337.5 840.237
918.782 343.75 763.314
918.782 350 218.935
918.782 425 136.095
918.782 431.25 349.112
918.782 437.5 337.278
918.782 500 781.065
918.782 506.25 680.473
918.782 512.5 41.4201
918.782 568.75 41.4201
918.782 575 195.266
918.782 581.25 384.615
918.782 587.5 437.87
923.858 337.5 431.953
923.858 343.75 928.994
923.858 350 733.728
923.858 356.25 266.272
923.858 362.5 59.1716
923.858 418.75 47.3373
923.858 425 295.858
923.858 431.25 349.112
923.858 437.5 337.278
923.858 506.25 680.473
923.858 512.5 254.438
923.858 568.75 41.4201
923.858 575 224.852
923.858 581.25 532.544
923.858 587.5 491.124
928.934 343.75 431.953
928.934 350 733.728
928.934 356.25 745.562
928.934 362.5 366.864
928.934 368.75 153.846
928.934 418.75 242.604
928.934 425 331.361
928.934 431.25 502.959
928.934 506.25 775.148
928.934 512.5 508.876
928.934 568.75 65.0888
928.934 575 266.272
928.934 581.25 538.462
928.934 587.5 171.598
934.01 356.25 769.231
934.01 362.5 798.817
934.01 368.75 508.876
934.01 375 65.0888
934.01 412.5 147.929
934.01 418.75 319.527
934.01 425 544.379
934.01 506.25 727.811
934.01 512.5 568.047
934.01 568.75 94.6746
934.01 575 254.438
934.01 581.25 295.858
939.086 362.5 792.899
939.086 368.75 568.047
939.086 375 331.361
939.086 406.25 35.503
939.086 412.5 242.604
939.086 418.75 544.379
939.086 425 301.775
939.086 506.25 366.864
939.086 512.5 538.462
939.086 518.75 94.6746
939.086 568.75 213.018
939.086 575 319.527
944.162 362.5 715.976
944.162 368.75 585.799
944.162 375 248.521
944.162 406.25 248.521
944.162 412.5 437.87
944.162 418.75 307.692
944.162 512.5 852.071
944.162 518.75 455.621
944.162 562.5 195.266
944.162 568.75 325.444
944.162 575 337.278
949.239 362.5 526.627
949.239 368.75 491.124
949.239 375 278.107
949.239 400 153.846
949.239 406.25 337.278
949.239 412.5 520.71
949.239 512.5 798.817
949.239 518.75 710.059
949.239 525 213.018
949.239 531.25 106.509
949.239 537.5 41.4201
949.239 550 65.0888
949.239 556.25 278.107
949.239 562.5 449.704
949.239 568.75 544.379
949.239 575 301.775
954.315 356.25 532.544
954.315 362.5 556.213
954.315 368.75 579.882
954.315 375 485.207
954.315 400 153.846
954.315 406.25 408.284
954.315 412.5 295.858
954.315 512.5 508.876
954.315 518.75 721.893
954.315 525 686.391
954.315 531.25 378.698
954.315 537.5 278.107
954.315 543.75 248.521
954.315 550 390.533
954.315 556.25 532.544
954.315 562.5 579.882
954.315 568.75 775.148
959.391 356.25 568.047
959.391 362.5 502.959
959.391 368.75 792.899
959.391 375 615.385
959.391 381.25 71.0059
959.391 393.75 59.1716
959.391 400 224.852
959.391 406.25 349.112
959.391 518.75 668.639
959.391 525 852.071
959.391 531.25 822.485
959.391 537.5 627.219
959.391 543.75 597.633
959.391 550 544.379
959.391 556.25 781.065
959.391 562.5 846.154
959.391 568.75 573.964
964.467 350 485.207
964.467 356.25 360.947
964.467 362.5 680.473
964.467 368.75 727.811
964.467 375 591.716
964.467 381.25 289.941
964.467 393.75 59.1716
964.467 400 224.852
964.467 406.25 627.219
964.467 518.75 591.716
964.467 525 852.071
964.467 531.25 822.485
964.467 537.5 816.568
964.467 543.75 692.308
964.467 550 804.734
964.467 556.25 917.16
964.467 562.5 804.734
964.467 568.75 491.124
969.543 343.75 479.29
969.543 350 485.207
969.543 356.25 597.633
969.543 362.5 917.16
969.543 368.75 639.053
969.543 375 538.462
969.543 381.25 207.101
969.543 393.75 59.1716
969.543 400 230.769
969.543 406.25 550.296
969.543 512.5 426.036
969.543 518.75 644.97
969.543 525 857.988
969.543 531.25 822.485
969.543 537.5 822.485
969.543 543.75 798.817
969.543 550 810.651
969.543 556.25 923.077
969.543 562.5 846.154
969.543 568.75 485.207
974.619 343.75 479.29
974.619 350 804.734
974.619 356.25 934.911
974.619 362.5 733.728
974.619 368.75 579.882
974.619 375 621.302
974.619 381.25 331.361
974.619 393.75 35.503
974.619 400 201.183
974.619 406.25 615.385
974.619 512.5 485.207
974.619 518.75 775.148
974.619 525 846.154
974.619 531.25 822.485
