671.569 506.173 490.798
671.569 518.519 650.307
671.569 530.864 631.902
671.569 543.21 539.877
671.569 555.556 515.337
671.569 567.901 276.074
671.569 753.086 92.0245
671.569 765.432 226.994
671.569 777.778 312.883
671.569 790.123 441.718
671.569 802.469 687.117
671.569 814.815 417.178
671.569 827.16 564.417
676.471 148.148 386.503
676.471 160.494 282.209
676.471 172.84 742.331
676.471 185.185 564.417
676.471 197.531 601.227
676.471 209.877 552.147
676.471 222.222 380.368
676.471 234.568 447.853
676.471 246.914 521.472
676.471 419.753 36.8098
676.471 432.099 202.454
676.471 444.444 460.123
676.471 456.79 447.853
676.471 469.136 190.184
676.471 481.481 190.184
676.471 493.827 196.319
676.471 506.173 582.822
676.471 518.519 631.902
676.471 530.864 619.632
676.471 543.21 601.227
676.471 555.556 527.607
676.471 567.901 263.804
676.471 740.741 12.2699
676.471 753.086 159.509
676.471 765.432 263.804
676.471 777.778 466.258
676.471 790.123 441.718
676.471 802.469 687.117
676.471 814.815 417.178
676.471 827.16 564.417
681.373 148.148 386.503
681.373 160.494 276.074
681.373 172.84 736.196
681.373 185.185 564.417
681.373 197.531 650.307
681.373 209.877 546.012
681.373 222.222 447.853
681.373 234.568 503.067
681.373 246.914 515.337
681.373 419.753 36.8098
681.373 432.099 202.454
681.373 444.444 460.123
681.373 456.79 233.129
681.373 469.136 208.589
681.373 481.481 134.969
681.373 493.827 276.074
681.373 506.173 441.718
681.373 518.519 619.632
681.373 530.864 668.712
681.373 543.21 588.957
681.373 555.556 533.742
681.373 567.901 263.804
681.373 740.741 30.6748
681.373 753.086 202.454
681.373 765.432 257.669
681.373 777.778 484.663
681.373 790.123 460.123
681.373 802.469 564.417
681.373 814.815 435.583
681.373 827.16 564.417
686.275 148.148 386.503
686.275 160.494 276.074
686.275 172.84 736.196
686.275 185.185 595.092
686.275 197.531 662.577
686.275 209.877 539.877
686.275 222.222 478.528
686.275 234.568 503.067
686.275 246.914 546.012
686.275 419.753 36.8098
686.275 432.099 202.454
686.275 444.444 447.853
686.275 456.79 245.399
686.275 469.136 196.319
686.275 481.481 159.509
686.275 493.827 349.693
686.275 506.173 466.258
686.275 518.519 668.712
686.275 530.864 687.117
686.275 543.21 638.037
686.275 555.556 588.957
686.275 567.901 325.153
686.275 740.741 42.9448
686.275 753.086 184.049
686.275 765.432 300.613
686.275 777.778 453.988
686.275 790.123 484.663
686.275 802.469 453.988
686.275 814.815 466.258
686.275 827.16 564.417
691.176 160.494 276.074
691.176 172.84 736.196
691.176 185.185 711.656
691.176 197.531 582.822
691.176 209.877 515.337
691.176 222.222 460.123
691.176 234.568 533.742
691.176 246.914 625.767
691.176 259.259 6.13497
691.176 419.753 85.8896
691.176 432.099 239.264
691.176 444.444 239.264
691.176 456.79 484.663
691.176 469.136 196.319
691.176 481.481 147.239
691.176 493.827 392.638
691.176 506.173 417.178
691.176 518.519 625.767
691.176 530.864 521.472
691.176 543.21 576.687
691.176 555.556 644.172
691.176 567.901 441.718
691.176 740.741 42.9448
691.176 753.086 184.049
691.176 765.432 429.448
691.176 777.778 441.718
691.176 790.123 570.552
691.176 802.469 453.988
691.176 814.815 564.417
691.176 827.16 564.417
696.078 160.494 331.288
696.078 172.84 656.442
696.078 185.185 723.926
696.078 197.531 601.227
696.078 209.877 539.877
696.078 222.222 423.313
696.078 234.568 588.957
696.078 246.914 521.472
696.078 259.259 196.319
696.078 407.407 24.5399
696.078 419.753 134.969
696.078 432.099 294.479
696.078 444.444 269.939
696.078 456.79 582.822
696.078 469.136 208.589
696.078 481.481 196.319
696.078 493.827 521.472
696.078 506.173 509.202
696.078 518.519 478.528
696.078 530.864 515.337
696.078 543.21 533.742
696.078 555.556 668.712
696.078 567.901 613.497
696.078 580.247 49.0798
696.078 740.741 85.8896
696.078 753.086 196.319
696.078 765.432 429.448
696.078 777.778 453.988
696.078 790.123 576.687
696.078 802.469 453.988
696.078 814.815 564.417
696.078 827.16 564.417
700.98 160.494 386.503
700.98 172.84 398.773
700.98 185.185 742.331
700.98 197.531 564.417
700.98 209.877 539.877
700.98 222.222 472.393
700.98 234.568 521.472
700.98 246.914 404.908
700.98 259.259 460.123
700.98 407.407 73.6196
700.98 419.753 196.319
700.98 432.099 441.718
700.98 444.444 306.748
700.98 456.79 582.822
700.98 469.136 134.969
700.98 481.481 196.319
700.98 493.827 546.012
700.98 506.173 539.877
700.98 518.519 539.877
700.98 530.864 546.012
700.98 543.21 619.632
700.98 555.556 723.926
700.98 567.901 619.632
700.98 580.247 325.153
700.98 728.395 12.2699
700.98 740.741 159.509
700.98 753.086 257.669
700.98 765.432 435.583
700.98 777.778 472.393
700.98 790.123 588.957
700.98 802.469 441.718
700.98 814.815 564.417
700.98 827.16 564.417
705.882 160.494 386.503
705.882 172.84 398.773
705.882 185.185 717.791
705.882 197.531 558.282
705.882 209.877 546.012
705.882 222.222 472.393
705.882 234.568 521.472
705.882 246.914 386.503
705.882 259.259 515.337
705.882 395.062 18.4049
705.882 407.407 128.834
705.882 419.753 245.399
705.882 432.099 447.853
705.882 444.444 460.123
705.882 456.79 453.988
705.882 469.136 141.104
705.882 481.481 214.724
705.882 493.827 539.877
705.882 506.173 447.853
705.882 518.519 521.472
705.882 530.864 447.853
705.882 543.21 527.607
705.882 555.556 705.521
705.882 567.901 631.902
705.882 580.247 325.153
705.882 728.395 30.6748
705.882 740.741 202.454
705.882 753.086 331.288
705.882 765.432 472.393
705.882 777.778 503.067
705.882 790.123 588.957
705.882 802.469 441.718
705.882 814.815 564.417
705.882 827.16 122.699
710.784 160.494 386.503
710.784 172.84 398.773
710.784 185.185 674.847
710.784 197.531 662.577
710.784 209.877 521.472
710.784 222.222 478.528
710.784 234.568 521.472
710.784 246.914 429.448
710.784 259.259 546.012
710.784 395.062 18.4049
710.784 407.407 128.834
710.784 419.753 411.043
710.784 432.099 233.129
710.784 444.444 306.748
710.784 456.79 263.804
710.784 469.136 171.779
710.784 481.481 239.264
710.784 493.827 533.742
710.784 506.173 337.423
710.784 518.519 447.853
710.784 530.864 546.012
710.784 543.21 564.417
710.784 555.556 546.012
710.784 567.901 668.712
710.784 580.247 404.908
710.784 728.395 42.9448
710.784 740.741 184.049
710.784 753.086 294.479
710.784 765.432 509.202
710.784 777.778 607.362
710.784 790.123 595.092
710.784 802.469 441.718
710.784 814.815 564.417
710.784 827.16 122.699
715.686 160.494 386.503
715.686 172.84 361.963
715.686 185.185 693.252
715.686 197.531 656.442
715.686 209.877 558.282
715.686 222.222 496.933
715.686 234.568 521.472
715.686 246.914 429.448
715.686 259.259 570.552
715.686 271.605 6.13497
715.686 395.062 24.5399
715.686 407.407 141.104
715.686 419.753 429.448
715.686 432.099 306.748
715.686 444.444 245.399
715.686 456.79 312.883
715.686 469.136 202.454
715.686 481.481 288.344
715.686 493.827 337.423
715.686 506.173 337.423
715.686 518.519 601.227
715.686 530.864 546.012
715.686 543.21 521.472
715.686 555.556 601.227
715.686 567.901 699.387
715.686 580.247 460.123
715.686 728.395 85.8896
715.686 740.741 196.319
715.686 753.086 435.583
715.686 765.432 674.847
715.686 777.778 466.258
715.686 790.123 490.798
715.686 802.469 435.583
715.686 814.815 564.417
715.686 827.16 171.779
720.588 160.494 386.503
720.588 172.84 509.202
720.588 185.185 766.871
720.588 197.531 595.092
720.588 209.877 595.092
720.588 222.222 515.337
720.588 234.568 546.012
720.588 246.914 429.448
720.588 259.259 595.092
720.588 271.605 177.914
720.588 395.062 24.5399
720.588 407.407 165.644
720.588 419.753 226.994
720.588 432.099 466.258
720.588 444.444 300.613
720.588 456.79 460.123
720.588 469.136 239.264
720.588 481.481 447.853
720.588 493.827 411.043
720.588 506.173 411.043
720.588 518.519 650.307
720.588 530.864 527.607
720.588 543.21 613.497
720.588 555.556 619.632
720.588 567.901 656.442
720.588 580.247 564.417
720.588 592.593 18.4049
720.588 716.049 18.4049
720.588 728.395 141.104
720.588 740.741 220.859
720.588 753.086 441.718
720.588 765.432 693.252
720.588 777.778 460.123
720.588 790.123 588.957
720.588 802.469 466.258
720.588 814.815 417.178
720.588 827.16 226.994
725.49 160.494 331.288
725.49 172.84 478.528
725.49 185.185 785.276
725.49 197.531 644.172
725.49 209.877 613.497
725.49 222.222 490.798
725.49 234.568 546.012
725.49 246.914 423.313
725.49 259.259 619.632
725.49 271.605 257.669
725.49 395.062 36.8098
725.49 407.407 190.184
725.49 419.753 282.209
725.49 432.099 453.988
725.49 444.444 331.288
725.49 456.79 429.448
725.49 469.136 269.939
725.49 481.481 184.049
725.49 493.827 276.074
725.49 506.173 282.209
725.49 518.519 521.472
725.49 530.864 595.092
725.49 543.21 656.442
725.49 555.556 576.687
725.49 567.901 539.877
725.49 580.247 619.632
725.49 592.593 190.184
725.49 716.049 18.4049
725.49 728.395 134.969
725.49 740.741 208.589
725.49 753.086 423.313
725.49 765.432 680.982
725.49 777.778 453.988
725.49 790.123 552.147
725.49 802.469 527.607
725.49 814.815 423.313
730.392 160.494 435.583
730.392 172.84 717.791
730.392 185.185 809.816
730.392 197.531 638.037
730.392 209.877 662.577
730.392 222.222 521.472
730.392 234.568 423.313
730.392 246.914 423.313
730.392 259.259 527.607
730.392 271.605 294.479
730.392 395.062 49.0798
730.392 407.407 208.589
730.392 419.753 411.043
730.392 432.099 490.798
730.392 444.444 503.067
730.392 456.79 171.779
730.392 469.136 245.399
730.392 493.827 282.209
730.392 506.173 386.503
730.392 518.519 613.497
730.392 530.864 723.926
730.392 543.21 693.252
730.392 555.556 668.712
730.392 567.901 601.227
730.392 580.247 674.847
730.392 592.593 269.939
730.392 716.049 67.4847
730.392 728.395 190.184
730.392 740.741 429.448
730.392 753.086 398.773
730.392 765.432 650.307
730.392 777.778 607.362
730.392 790.123 368.098
730.392 802.469 490.798
730.392 814.815 184.049
735.294 160.494 478.528
735.294 172.84 638.037
735.294 185.185 822.086
735.294 197.531 650.307
735.294 209.877 693.252
735.294 222.222 472.393
735.294 234.568 447.853
735.294 246.914 423.313
735.294 259.259 361.963
735.294 271.605 331.288
735.294 395.062 61.3497
735.294 407.407 202.454
735.294 419.753 435.583
735.294 432.099 582.822
735.294 444.444 613.497
735.294 456.79 245.399
735.294 469.136 239.264
735.294 493.827 331.288
735.294 506.173 460.123
735.294 518.519 282.209
735.294 530.864 595.092
735.294 543.21 674.847
735.294 555.556 576.687
735.294 567.901 601.227
735.294 580.247 680.982
735.294 592.593 374.233
735.294 703.704 18.4049
735.294 716.049 122.699
735.294 728.395 251.534
735.294 740.741 429.448
735.294 753.086 472.393
735.294 765.432 625.767
735.294 777.778 687.117
735.294 790.123 239.264
735.294 802.469 441.718
735.294 814.815 184.049
740.196 160.494 509.202
740.196 172.84 527.607
740.196 185.185 852.761
740.196 197.531 644.172
740.196 209.877 699.387
740.196 222.222 533.742
740.196 234.568 515.337
740.196 246.914 447.853
740.196 259.259 404.908
740.196 271.605 441.718
740.196 395.062 67.4847
740.196 407.407 184.049
740.196 419.753 484.663
740.196 432.099 460.123
740.196 444.444 171.779
740.196 456.79 276.074
740.196 469.136 165.644
740.196 506.173 276.074
740.196 518.519 282.209
740.196 530.864 484.663
740.196 543.21 674.847
740.196 555.556 582.822
740.196 567.901 582.822
740.196 580.247 723.926
740.196 592.593 466.258
740.196 716.049 79.7546
740.196 728.395 368.098
740.196 740.741 429.448
740.196 753.086 466.258
740.196 765.432 460.123
740.196 777.778 668.712
740.196 790.123 184.049
740.196 802.469 466.258
740.196 814.815 196.319
745.098 160.494 546.012
745.098 172.84 435.583
745.098 185.185 858.896
745.098 197.531 693.252
745.098 209.877 705.521
745.098 222.222 564.417
745.098 234.568 496.933
745.098 246.914 478.528
745.098 259.259 368.098
745.098 271.605 441.718
745.098 395.062 98.1595
745.098 407.407 190.184
745.098 419.753 460.123
745.098 432.099 159.509
745.098 444.444 171.779
745.098 456.79 276.074
745.098 506.173 331.288
745.098 518.519 411.043
745.098 530.864 460.123
745.098 543.21 539.877
745.098 555.556 558.282
745.098 567.901 644.172
745.098 580.247 656.442
745.098 592.593 533.742
745.098 716.049 36.8098
745.098 728.395 319.018
745.098 740.741 429.448
745.098 753.086 441.718
745.098 765.432 441.718
745.098 777.778 644.172
745.098 790.123 226.994
745.098 802.469 564.417
750 160.494 546.012
750 172.84 509.202
750 185.185 748.466
750 197.531 760.736
750 209.877 693.252
750 222.222 552.147
750 234.568 472.393
750 246.914 533.742
750 259.259 361.963
750 271.605 582.822
750 382.716 24.5399
750 395.062 141.104
750 407.407 325.153
750 419.753 417.178
750 432.099 153.374
750 444.444 196.319
750 456.79 331.288
750 518.519 276.074
750 530.864 282.209
750 543.21 521.472
750 555.556 539.877
750 567.901 588.957
750 580.247 490.798
750 592.593 619.632
750 604.938 36.8098
750 716.049 30.6748
750 728.395 190.184
750 740.741 226.994
750 753.086 319.018
750 765.432 447.853
750 777.778 441.718
750 790.123 300.613
750 802.469 423.313
754.902 160.494 386.503
754.902 172.84 546.012
754.902 185.185 588.957
754.902 197.531 834.356
754.902 209.877 625.767
754.902 222.222 564.417
754.902 234.568 539.877
754.902 246.914 478.528
754.902 259.259 361.963
754.902 271.605 177.914
754.902 283.951 79.7546
754.902 382.716 79.7546
754.902 395.062 220.859
754.902 407.407 447.853
754.902 419.753 312.883
754.902 432.099 153.374
754.902 444.444 226.994
754.902 456.79 288.344
754.902 518.519 276.074
754.902 530.864 337.423
754.902 543.21 484.663
754.902 555.556 564.417
754.902 567.901 546.012
754.902 580.247 582.822
754.902 592.593 693.252
754.902 604.938 263.804
754.902 716.049 30.6748
754.902 728.395 190.184
754.902 740.741 226.994
754.902 753.086 441.718
754.902 765.432 447.853
754.902 777.778 435.583
754.902 790.123 466.258
754.902 802.469 202.454
759.804 160.494 386.503
759.804 172.84 546.012
759.804 185.185 478.528
759.804 197.531 736.196
759.804 209.877 638.037
759.804 222.222 601.227
759.804 234.568 496.933
759.804 246.914 472.393
759.804 259.259 423.313
759.804 283.951 447.853
759.804 370.37 24.5399
759.804 382.716 141.104
759.804 395.062 294.479
759.804 407.407 429.448
759.804 419.753 429.448
759.804 432.099 122.699
759.804 444.444 288.344
759.804 456.79 214.724
759.804 530.864 337.423
759.804 543.21 337.423
759.804 555.556 558.282
759.804 567.901 478.528
759.804 580.247 570.552
759.804 592.593 711.656
759.804 604.938 325.153
759.804 716.049 30.6748
759.804 728.395 190.184
759.804 740.741 196.319
759.804 753.086 453.988
759.804 765.432 435.583
759.804 777.778 184.049
759.804 790.123 558.282
764.706 172.84 386.503
764.706 185.185 478.528
764.706 197.531 736.196
764.706 209.877 699.387
764.706 222.222 619.632
764.706 234.568 533.742
764.706 246.914 478.528
764.706 259.259 429.448
764.706 271.605 12.2699
764.706 283.951 472.393
764.706 370.37 79.7546
764.706 382.716 226.994
764.706 395.062 447.853
764.706 407.407 435.583
764.706 419.753 435.583
764.706 432.099 423.313
764.706 444.444 269.939
764.706 530.864 368.098
764.706 543.21 447.853
764.706 555.556 570.552
764.706 567.901 503.067
764.706 580.247 595.092
764.706 592.593 509.202
764.706 604.938 509.202
764.706 716.049 24.5399
764.706 728.395 214.724
764.706 740.741 196.319
764.706 753.086 441.718
764.706 765.432 429.448
764.706 777.778 147.239
764.706 790.123 527.607
769.608 172.84 386.503
769.608 185.185 478.528
769.608 197.531 638.037
769.608 209.877 638.037
769.608 222.222 607.362
769.608 234.568 533.742
769.608 246.914 576.687
769.608 259.259 447.853
769.608 271.605 171.779
769.608 283.951 472.393
769.608 358.025 24.5399
769.608 370.37 147.239
769.608 382.716 282.209
769.608 395.062 478.528
769.608 407.407 453.988
769.608 419.753 435.583
769.608 432.099 220.859
769.608 444.444 312.883
769.608 543.21 447.853
769.608 555.556 515.337
769.608 567.901 478.528
769.608 580.247 582.822
769.608 592.593 496.933
769.608 604.938 576.687
769.608 716.049 36.8098
769.608 728.395 214.724
769.608 740.741 190.184
769.608 753.086 435.583
769.608 765.432 576.687
769.608 777.778 153.374
769.608 790.123 368.098
774.51 185.185 478.528
774.51 197.531 662.577
774.51 209.877 674.847
774.51 222.222 576.687
774.51 234.568 576.687
774.51 246.914 576.687
774.51 259.259 411.043
774.51 271.605 220.859
774.51 283.951 466.258
774.51 358.025 73.6196
774.51 370.37 214.724
774.51 382.716 429.448
774.51 395.062 417.178
774.51 407.407 269.939
774.51 419.753 453.988
774.51 432.099 312.883
774.51 444.444 233.129
774.51 543.21 411.043
774.51 555.556 558.282
774.51 567.901 613.497
774.51 580.247 570.552
774.51 592.593 521.472
774.51 604.938 576.687
774.51 716.049 61.3497
774.51 728.395 202.454
774.51 740.741 251.534
774.51 753.086 423.313
774.51 765.432 392.638
774.51 777.778 527.607
774.51 790.123 319.018
779.412 185.185 478.528
779.412 197.531 687.117
779.412 209.877 601.227
779.412 222.222 552.147
779.412 234.568 527.607
779.412 246.914 558.282
779.412 259.259 386.503
779.412 271.605 196.319
779.412 283.951 484.663
779.412 345.679 18.4049
779.412 358.025 134.969
779.412 370.37 245.399
779.412 382.716 429.448
779.412 395.062 441.718
779.412 407.407 355.828
779.412 419.753 496.933
779.412 432.099 478.528
779.412 444.444 159.509
779.412 543.21 368.098
779.412 555.556 515.337
779.412 567.901 625.767
779.412 580.247 576.687
779.412 592.593 527.607
779.412 604.938 576.687
779.412 716.049 67.4847
779.412 728.395 190.184
779.412 740.741 300.613
779.412 753.086 558.282
779.412 765.432 343.558
779.412 777.778 490.798
779.412 790.123 190.184
784.314 185.185 509.202
784.314 197.531 687.117
784.314 209.877 564.417
784.314 222.222 625.767
784.314 234.568 552.147
784.314 246.914 478.528
784.314 259.259 294.479
784.314 271.605 116.564
784.314 283.951 509.202
784.314 296.296 12.2699
784.314 358.025 85.8896
784.314 370.37 349.693
784.314 382.716 429.448
784.314 395.062 245.399
784.314 407.407 478.528
784.314 419.753 441.718
784.314 432.099 435.583
784.314 543.21 276.074
784.314 555.556 570.552
784.314 567.901 631.902
784.314 580.247 631.902
784.314 592.593 546.012
784.314 604.938 588.957
784.314 716.049 116.564
784.314 728.395 190.184
784.314 740.741 435.583
784.314 753.086 558.282
784.314 765.432 233.129
784.314 777.778 570.552
784.314 790.123 202.454
789.216 185.185 496.933
789.216 197.531 779.141
789.216 209.877 558.282
789.216 222.222 638.037
789.216 234.568 613.497
789.216 246.914 460.123
789.216 259.259 208.589
789.216 271.605 61.3497
789.216 283.951 533.742
789.216 296.296 177.914
789.216 358.025 24.5399
789.216 370.37 294.479
789.216 382.716 417.178
789.216 395.062 245.399
789.216 407.407 570.552
789.216 419.753 226.994
789.216 432.099 190.184
789.216 555.556 552.147
789.216 567.901 668.712
789.216 580.247 570.552
789.216 592.593 521.472
789.216 604.938 619.632
789.216 617.284 6.13497
789.216 703.704 24.5399
789.216 716.049 122.699
789.216 728.395 134.969
789.216 740.741 398.773
789.216 753.086 619.632
789.216 765.432 233.129
789.216 777.778 564.417
789.216 790.123 177.914
794.118 172.84 423.313
794.118 185.185 484.663
794.118 197.531 779.141
794.118 209.877 558.282
794.118 222.222 644.172
794.118 234.568 595.092
794.118 246.914 496.933
794.118 259.259 171.779
794.118 283.951 355.828
794.118 296.296 226.994
794.118 370.37 92.0245
794.118 382.716 349.693
794.118 395.062 165.644
794.118 407.407 496.933
794.118 419.753 239.264
794.118 432.099 220.859
794.118 555.556 392.638
794.118 567.901 576.687
794.118 580.247 546.012
794.118 592.593 546.012
794.118 604.938 613.497
794.118 617.284 184.049
794.118 703.704 24.5399
794.118 716.049 122.699
794.118 728.395 392.638
794.118 740.741 349.693
794.118 753.086 552.147
794.118 765.432 257.669
794.118 777.778 558.282
794.118 790.123 116.564
799.02 172.84 423.313
799.02 185.185 552.147
799.02 197.531 785.276
799.02 209.877 558.282
799.02 222.222 705.521
799.02 234.568 588.957
799.02 246.914 453.988
799.02 259.259 233.129
799.02 283.951 368.098
799.02 296.296 239.264
799.02 370.37 42.9448
799.02 382.716 300.613
799.02 395.062 423.313
799.02 407.407 398.773
799.02 419.753 269.939
799.02 432.099 122.699
799.02 555.556 386.503
799.02 567.901 515.337
799.02 580.247 588.957
799.02 592.593 582.822
799.02 604.938 619.632
799.02 617.284 325.153
799.02 703.704 24.5399
799.02 716.049 122.699
799.02 728.395 411.043
799.02 740.741 226.994
799.02 753.086 392.638
799.02 765.432 294.479
799.02 777.778 429.448
799.02 790.123 116.564
803.922 172.84 423.313
803.922 185.185 398.773
803.922 197.531 785.276
803.922 209.877 558.282
803.922 222.222 705.521
803.922 234.568 625.767
803.922 246.914 496.933
803.922 259.259 343.558
803.922 271.605 6.13497
803.922 283.951 484.663
803.922 296.296 196.319
803.922 382.716 92.0245
803.922 395.062 374.233
803.922 407.407 239.264
803.922 419.753 226.994
803.922 432.099 122.699
803.922 555.556 392.638
803.922 567.901 533.742
803.922 580.247 607.362
803.922 592.593 539.877
803.922 604.938 588.957
803.922 617.284 411.043
803.922 703.704 0
803.922 716.049 79.7546
803.922 728.395 184.049
803.922 740.741 202.454
803.922 753.086 411.043
803.922 765.432 361.963
803.922 777.778 429.448
803.922 790.123 411.043
808.824 172.84 423.313
808.824 185.185 269.939
808.824 197.531 791.411
808.824 209.877 588.957
808.824 222.222 711.656
808.824 234.568 674.847
808.824 246.914 472.393
808.824 259.259 343.558
808.824 271.605 171.779
808.824 283.951 392.638
808.824 296.296 122.699
808.824 382.716 61.3497
808.824 395.062 331.288
808.824 407.407 226.994
808.824 419.753 411.043
808.824 432.099 190.184
808.824 555.556 484.663
808.824 567.901 539.877
808.824 580.247 576.687
808.824 592.593 392.638
808.824 604.938 613.497
808.824 617.284 453.988
808.824 716.049 85.8896
808.824 728.395 184.049
808.824 740.741 177.914
808.824 753.086 453.988
808.824 765.432 380.368
808.824 777.778 429.448
808.824 790.123 386.503
813.725 172.84 380.368
813.725 185.185 325.153
813.725 197.531 644.172
813.725 209.877 613.497
813.725 222.222 705.521
813.725 234.568 680.982
813.725 246.914 570.552
813.725 259.259 429.448
813.725 271.605 435.583
813.725 283.951 282.209
813.725 296.296 67.4847
813.725 382.716 49.0798
813.725 395.062 177.914
813.725 407.407 196.319
813.725 419.753 374.233
813.725 432.099 214.724
813.725 555.556 429.448
813.725 567.901 539.877
813.725 580.247 552.147
813.725 592.593 435.583
813.725 604.938 601.227
813.725 617.284 460.123
813.725 716.049 49.0798
813.725 728.395 184.049
813.725 740.741 404.908
813.725 753.086 251.534
813.725 765.432 319.018
813.725 777.778 417.178
813.725 790.123 386.503
818.627 185.185 380.368
818.627 197.531 582.822
818.627 209.877 668.712
818.627 222.222 754.601
818.627 234.568 705.521
818.627 246.914 601.227
818.627 259.259 466.258
818.627 271.605 515.337
818.627 283.951 202.454
818.627 382.716 36.8098
818.627 395.062 177.914
818.627 407.407 184.049
818.627 419.753 386.503
818.627 432.099 239.264
818.627 555.556 625.767
818.627 567.901 496.933
818.627 580.247 533.742
818.627 592.593 417.178
818.627 604.938 631.902
818.627 617.284 429.448
818.627 716.049 55.2147
818.627 728.395 184.049
818.627 740.741 411.043
818.627 753.086 239.264
818.627 765.432 380.368
818.627 777.778 423.313
818.627 790.123 386.503
823.529 185.185 380.368
823.529 197.531 515.337
823.529 209.877 674.847
823.529 222.222 705.521
823.529 234.568 723.926
823.529 246.914 662.577
823.529 259.259 558.282
823.529 271.605 533.742
823.529 283.951 177.914
823.529 382.716 36.8098
823.529 395.062 177.914
823.529 407.407 171.779
823.529 419.753 306.748
823.529 432.099 484.663
823.529 543.21 509.202
823.529 555.556 638.037
823.529 567.901 515.337
823.529 580.247 613.497
823.529 592.593 392.638
823.529 604.938 619.632
823.529 617.284 380.368
823.529 716.049 49.0798
823.529 728.395 184.049
823.529 740.741 423.313
823.529 753.086 282.209
823.529 765.432 361.963
823.529 777.778 564.417
823.529 790.123 392.638
828.431 197.531 380.368
828.431 209.877 521.472
828.431 222.222 680.982
828.431 234.568 699.387
828.431 246.914 668.712
828.431 259.259 631.902
828.431 271.605 607.362
828.431 283.951 184.049
828.431 382.716 55.2147
828.431 395.062 220.859
828.431 407.407 165.644
828.431 419.753 306.748
828.431 432.099 490.798
828.431 543.21 484.663
828.431 555.556 552.147
828.431 567.901 515.337
828.431 580.247 582.822
828.431 592.593 441.718
828.431 604.938 601.227
828.431 617.284 349.693
828.431 716.049 55.2147
828.431 728.395 190.184
828.431 740.741 453.988
828.431 753.086 343.558
828.431 765.432 294.479
828.431 777.778 564.417
828.431 790.123 392.638
833.333 209.877 484.663
833.333 222.222 687.117
833.333 234.568 699.387
833.333 246.914 705.521
833.333 259.259 601.227
833.333 271.605 705.521
833.333 283.951 263.804
833.333 382.716 67.4847
833.333 395.062 202.454
833.333 407.407 196.319
833.333 419.753 251.534
833.333 432.099 490.798
833.333 543.21 515.337
833.333 555.556 533.742
833.333 567.901 521.472
833.333 580.247 552.147
833.333 592.593 441.718
833.333 604.938 613.497
833.333 617.284 300.613
833.333 716.049 49.0798
833.333 728.395 214.724
833.333 740.741 441.718
833.333 753.086 496.933
833.333 765.432 196.319
833.333 777.778 570.552
833.333 790.123 392.638
838.235 209.877 515.337
838.235 222.222 515.337
838.235 234.568 693.252
838.235 246.914 625.767
838.235 259.259 638.037
838.235 271.605 668.712
838.235 283.951 361.963
838.235 382.716 73.6196
838.235 395.062 202.454
838.235 407.407 245.399
838.235 419.753 214.724
838.235 432.099 490.798
838.235 543.21 607.362
838.235 555.556 521.472
838.235 567.901 564.417
838.235 580.247 570.552
838.235 592.593 392.638
838.235 604.938 625.767
838.235 617.284 282.209
838.235 716.049 61.3497
838.235 728.395 202.454
838.235 740.741 398.773
838.235 753.086 564.417
838.235 765.432 196.319
838.235 777.778 570.552
838.235 790.123 392.638
843.137 209.877 509.202
843.137 222.222 521.472
843.137 234.568 687.117
843.137 246.914 699.387
843.137 259.259 613.497
843.137 271.605 564.417
843.137 283.951 496.933
843.137 382.716 61.3497
843.137 395.062 220.859
843.137 407.407 257.669
843.137 419.753 214.724
843.137 432.099 276.074
843.137 543.21 588.957
843.137 555.556 509.202
843.137 567.901 595.092
843.137 580.247 601.227
843.137 592.593 539.877
843.137 604.938 539.877
843.137 617.284 226.994
843.137 716.049 67.4847
843.137 728.395 239.264
843.137 740.741 374.233
843.137 753.086 576.687
843.137 765.432 233.129
843.137 777.778 588.957
843.137 790.123 392.638
848.039 209.877 509.202
848.039 222.222 515.337
848.039 234.568 723.926
848.039 246.914 730.061
848.039 259.259 619.632
848.039 271.605 582.822
848.039 283.951 613.497
848.039 296.296 61.3497
848.039 382.716 55.2147
848.039 395.062 220.859
848.039 407.407 288.344
848.039 419.753 226.994
848.039 432.099 276.074
848.039 444.444 417.178
848.039 543.21 595.092
848.039 555.556 601.227
848.039 567.901 564.417
848.039 580.247 601.227
848.039 592.593 662.577
848.039 604.938 496.933
848.039 617.284 110.429
848.039 716.049 104.294
848.039 728.395 226.994
848.039 740.741 312.883
848.039 753.086 564.417
848.039 765.432 263.804
848.039 777.778 607.362
848.039 790.123 392.638
852.941 209.877 276.074
852.941 222.222 441.718
852.941 234.568 785.276
852.941 246.914 613.497
852.941 259.259 644.172
852.941 271.605 595.092
852.941 283.951 687.117
852.941 296.296 337.423
852.941 308.642 67.4847
852.941 382.716 36.8098
852.941 395.062 184.049
852.941 407.407 380.368
852.941 419.753 251.534
852.941 432.099 257.669
852.941 444.444 466.258
852.941 543.21 404.908
852.941 555.556 631.902
852.941 567.901 539.877
852.941 580.247 552.147
852.941 592.593 650.307
852.941 604.938 460.123
852.941 703.704 6.13497
852.941 716.049 141.104
852.941 728.395 233.129
852.941 740.741 453.988
852.941 753.086 564.417
852.941 765.432 288.344
852.941 777.778 576.687
852.941 790.123 392.638
857.843 222.222 496.933
857.843 234.568 766.871
857.843 246.914 625.767
857.843 259.259 766.871
857.843 271.605 619.632
857.843 283.951 742.331
857.843 296.296 466.258
857.843 308.642 282.209
857.843 320.988 6.13497
857.843 382.716 42.9448
857.843 395.062 165.644
857.843 407.407 337.423
857.843 419.753 472.393
857.843 432.099 159.509
857.843 444.444 417.178
857.843 543.21 582.822
857.843 555.556 668.712
857.843 567.901 503.067
857.843 580.247 552.147
857.843 592.593 631.902
857.843 604.938 429.448
857.843 703.704 6.13497
857.843 716.049 141.104
857.843 728.395 233.129
857.843 740.741 460.123
857.843 753.086 429.448
857.843 765.432 306.748
857.843 777.778 564.417
857.843 790.123 392.638
862.745 222.222 447.853
862.745 234.568 539.877
862.745 246.914 699.387
862.745 259.259 662.577
862.745 271.605 564.417
862.745 283.951 539.877
862.745 296.296 601.227
862.745 308.642 288.344
862.745 320.988 171.779
862.745 382.716 85.8896
862.745 395.062 208.589
862.745 407.407 214.724
862.745 419.753 478.528
862.745 432.099 582.822
862.745 444.444 343.558
862.745 543.21 582.822
862.745 555.556 668.712
862.745 567.901 558.282
862.745 580.247 558.282
862.745 592.593 631.902
862.745 604.938 404.908
862.745 617.284 67.4847
862.745 629.63 12.2699
862.745 703.704 6.13497
862.745 716.049 159.509
862.745 728.395 233.129
862.745 740.741 453.988
862.745 753.086 472.393
862.745 765.432 435.583
862.745 777.778 392.638
862.745 790.123 392.638
867.647 222.222 282.209
867.647 234.568 447.853
867.647 246.914 748.466
867.647 259.259 717.791
867.647 271.605 705.521
867.647 283.951 546.012
867.647 296.296 680.982
867.647 308.642 349.693
867.647 320.988 171.779
867.647 370.37 12.2699
867.647 382.716 134.969
867.647 395.062 257.669
867.647 407.407 208.589
867.647 419.753 453.988
867.647 432.099 515.337
867.647 444.444 220.859
867.647 543.21 349.693
867.647 555.556 680.982
867.647 567.901 607.362
867.647 580.247 355.828
867.647 592.593 754.601
867.647 604.938 484.663
867.647 617.284 239.264
867.647 629.63 177.914
867.647 641.975 122.699
867.647 654.321 12.2699
867.647 703.704 73.6196
867.647 716.049 226.994
867.647 728.395 294.479
867.647 740.741 331.288
867.647 753.086 496.933
867.647 765.432 435.583
867.647 777.778 398.773
872.549 222.222 282.209
872.549 234.568 447.853
872.549 246.914 515.337
872.549 259.259 723.926
872.549 271.605 723.926
872.549 283.951 503.067
872.549 296.296 638.037
872.549 308.642 355.828
872.549 320.988 116.564
872.549 370.37 92.0245
872.549 382.716 190.184
872.549 395.062 423.313
872.549 407.407 214.724
872.549 419.753 601.227
872.549 432.099 453.988
872.549 444.444 196.319
872.549 543.21 294.479
872.549 555.556 699.387
872.549 567.901 582.822
872.549 580.247 404.908
872.549 592.593 907.975
872.549 604.938 668.712
872.549 617.284 417.178
872.549 629.63 404.908
872.549 641.975 404.908
872.549 654.321 128.834
872.549 666.667 12.2699
872.549 691.358 6.13497
872.549 703.704 122.699
872.549 716.049 263.804
872.549 728.395 251.534
872.549 740.741 374.233
872.549 753.086 435.583
872.549 765.432 233.129
872.549 777.778 398.773
877.451 222.222 337.423
877.451 234.568 472.393
877.451 246.914 582.822
877.451 259.259 791.411
877.451 271.605 760.736
877.451 283.951 558.282
877.451 296.296 503.067
877.451 308.642 441.718
877.451 320.988 61.3497
877.451 358.025 79.7546
877.451 370.37 239.264
877.451 382.716 319.018
877.451 395.062 441.718
877.451 407.407 263.804
877.451 419.753 613.497
877.451 432.099 294.479
877.451 444.444 276.074
877.451 543.21 294.479
877.451 555.556 717.791
877.451 567.901 595.092
877.451 580.247 404.908
877.451 592.593 883.436
877.451 604.938 754.601
877.451 617.284 558.282
877.451 629.63 404.908
877.451 641.975 349.693
877.451 654.321 239.264
877.451 666.667 122.699
877.451 691.358 6.13497
877.451 703.704 147.239
877.451 716.049 429.448
877.451 728.395 263.804
877.451 740.741 496.933
877.451 753.086 177.914
877.451 765.432 398.773
877.451 777.778 398.773
882.353 234.568 447.853
882.353 246.914 644.172
882.353 259.259 411.043
882.353 271.605 674.847
882.353 283.951 558.282
882.353 296.296 552.147
882.353 308.642 503.067
882.353 345.679 61.3497
882.353 358.025 177.914
882.353 370.37 288.344
882.353 382.716 588.957
882.353 395.062 588.957
882.353 407.407 325.153
882.353 419.753 601.227
882.353 432.099 288.344
882.353 444.444 355.828
882.353 543.21 239.264
882.353 555.556 723.926
882.353 567.901 588.957
882.353 580.247 515.337
882.353 592.593 803.681
882.353 604.938 644.172
882.353 617.284 386.503
882.353 629.63 282.209
882.353 641.975 177.914
882.353 654.321 122.699
882.353 666.667 61.3497
882.353 691.358 24.5399
882.353 703.704 190.184
882.353 716.049 472.393
882.353 728.395 288.344
882.353 740.741 435.583
882.353 753.086 239.264
882.353 765.432 398.773
882.353 777.778 398.773
887.255 246.914 453.988
887.255 259.259 411.043
887.255 271.605 705.521
887.255 283.951 601.227
887.255 296.296 601.227
887.255 308.642 503.067
887.255 320.988 12.2699
887.255 333.333 6.13497
887.255 345.679 128.834
887.255 358.025 257.669
887.255 370.37 411.043
887.255 382.716 490.798
887.255 395.062 521.472
887.255 407.407 404.908
887.255 419.753 631.902
887.255 432.099 294.479
887.255 444.444 423.313
887.255 543.21 361.963
887.255 555.556 730.061
887.255 567.901 564.417
887.255 580.247 509.202
887.255 592.593 773.006
887.255 604.938 558.282
887.255 617.284 233.129
887.255 629.63 122.699
887.255 641.975 67.4847
887.255 654.321 67.4847
887.255 691.358 30.6748
887.255 703.704 202.454
887.255 716.049 570.552
887.255 728.395 380.368
887.255 740.741 417.178
887.255 753.086 404.908
887.255 765.432 404.908
892.157 246.914 453.988
892.157 259.259 484.663
892.157 271.605 613.497
892.157 283.951 668.712
892.157 296.296 644.172
892.157 308.642 515.337
892.157 320.988 177.914
892.157 345.679 67.4847
892.157 358.025 134.969
892.157 370.37 73.6196
892.157 382.716 429.448
892.157 395.062 441.718
892.157 407.407 300.613
892.157 419.753 631.902
892.157 432.099 325.153
892.157 543.21 392.638
892.157 555.556 736.196
892.157 567.901 539.877
892.157 580.247 472.393
892.157 592.593 797.546
892.157 604.938 527.607
892.157 617.284 196.319
892.157 691.358 30.6748
892.157 703.704 208.589
892.157 716.049 441.718
892.157 728.395 484.663
892.157 740.741 184.049
892.157 753.086 404.908
892.157 765.432 404.908
897.059 246.914 343.558
897.059 259.259 503.067
897.059 271.605 509.202
897.059 283.951 650.307
897.059 296.296 717.791
897.059 308.642 521.472
897.059 320.988 128.834
897.059 345.679 6.13497
897.059 358.025 159.509
897.059 370.37 380.368
897.059 382.716 429.448
897.059 395.062 417.178
897.059 407.407 171.779
897.059 419.753 411.043
897.059 432.099 196.319
897.059 543.21 300.613
897.059 555.556 638.037
897.059 567.901 552.147
897.059 580.247 472.393
897.059 592.593 815.951
897.059 604.938 570.552
897.059 617.284 196.319
897.059 691.358 30.6748
897.059 703.704 214.724
897.059 716.049 453.988
897.059 728.395 374.233
897.059 740.741 239.264
897.059 753.086 404.908
897.059 765.432 398.773
901.961 246.914 349.693
901.961 259.259 539.877
901.961 271.605 527.607
901.961 283.951 619.632
901.961 296.296 730.061
901.961 308.642 509.202
901.961 320.988 202.454
901.961 358.025 61.3497
901.961 370.37 263.804
901.961 382.716 361.963
901.961 395.062 417.178
901.961 407.407 159.509
901.961 419.753 361.963
901.961 432.099 159.509
901.961 543.21 306.748
901.961 555.556 613.497
901.961 567.901 552.147
901.961 580.247 576.687
901.961 592.593 803.681
901.961 604.938 613.497
901.961 617.284 251.534
901.961 691.358 85.8896
901.961 703.704 269.939
901.961 716.049 472.393
901.961 728.395 269.939
901.961 740.741 404.908
901.961 753.086 404.908
906.863 246.914 276.074
906.863 259.259 588.957
906.863 271.605 644.172
906.863 283.951 564.417
906.863 296.296 674.847
906.863 308.642 490.798
906.863 320.988 226.994
906.863 358.025 12.2699
906.863 370.37 300.613
906.863 382.716 300.613
906.863 395.062 417.178
906.863 407.407 141.104
906.863 419.753 306.748
906.863 432.099 196.319
906.863 543.21 300.613
906.863 555.556 625.767
906.863 567.901 521.472
906.863 580.247 472.393
906.863 592.593 503.067
906.863 604.938 779.141
906.863 617.284 343.558
906.863 629.63 85.8896
906.863 641.975 12.2699
906.863 679.012 12.2699
906.863 691.358 128.834
906.863 703.704 294.479
906.863 716.049 558.282
906.863 728.395 319.018
906.863 740.741 404.908
906.863 753.086 398.773
911.765 234.568 288.344
911.765 246.914 453.988
911.765 259.259 674.847
911.765 271.605 558.282
911.765 283.951 539.877
911.765 296.296 656.442
911.765 308.642 527.607
911.765 320.988 202.454
911.765 358.025 12.2699
911.765 370.37 128.834
911.765 382.716 73.6196
911.765 395.062 361.963
911.765 407.407 190.184
911.765 419.753 282.209
911.765 432.099 196.319
911.765 543.21 300.613
911.765 555.556 613.497
911.765 567.901 466.258
911.765 580.247 374.233
911.765 592.593 484.663
911.765 604.938 834.356
911.765 617.284 607.362
911.765 629.63 312.883
911.765 641.975 184.049
911.765 654.321 67.4847
911.765 679.012 18.4049
911.765 691.358 141.104
911.765 703.704 447.853
911.765 716.049 558.282
911.765 728.395 509.202
911.765 740.741 417.178
916.667 234.568 349.693
916.667 246.914 472.393
916.667 259.259 398.773
916.667 271.605 515.337
916.667 283.951 607.362
916.667 296.296 650.307
916.667 308.642 484.663
916.667 320.988 184.049
916.667 358.025 12.2699
916.667 370.37 128.834
916.667 382.716 417.178
916.667 395.062 312.883
916.667 407.407 257.669
916.667 419.753 263.804
916.667 432.099 128.834
916.667 555.556 607.362
916.667 567.901 404.908
916.667 580.247 337.423
916.667 592.593 472.393
916.667 604.938 717.791
916.667 617.284 687.117
916.667 629.63 453.988
916.667 641.975 404.908
916.667 654.321 294.479
916.667 666.667 12.2699
916.667 691.358 153.374
916.667 703.704 386.503
916.667 716.049 392.638
916.667 728.395 521.472
916.667 740.741 564.417
921.569 234.568 404.908
921.569 246.914 349.693
921.569 259.259 411.043
921.569 271.605 490.798
921.569 283.951 699.387
921.569 296.296 680.982
921.569 308.642 472.393
921.569 320.988 190.184
921.569 358.025 67.4847
921.569 370.37 184.049
921.569 382.716 417.178
921.569 395.062 165.644
921.569 407.407 478.528
921.569 419.753 245.399
921.569 432.099 73.6196
921.569 543.21 300.613
921.569 555.556 631.902
921.569 567.901 380.368
921.569 580.247 374.233
921.569 592.593 447.853
921.569 604.938 496.933
921.569 617.284 650.307
921.569 629.63 411.043
921.569 641.975 239.264
921.569 654.321 184.049
921.569 666.667 122.699
921.569 679.012 49.0798
921.569 691.358 233.129
921.569 703.704 398.773
921.569 716.049 374.233
921.569 728.395 453.988
921.569 740.741 521.472
921.569 753.086 349.693
926.471 246.914 404.908
926.471 259.259 294.479
926.471 271.605 398.773
926.471 283.951 723.926
926.471 296.296 687.117
926.471 308.642 533.742
926.471 320.988 110.429
926.471 345.679 12.2699
926.471 358.025 128.834
926.471 370.37 245.399
926.471 382.716 417.178
926.471 395.062 196.319
926.471 407.407 466.258
926.471 419.753 245.399
926.471 432.099 417.178
926.471 543.21 441.718
926.471 555.556 576.687
926.471 567.901 417.178
926.471 580.247 429.448
926.471 592.593 306.748
926.471 604.938 429.448
926.471 617.284 717.791
926.471 629.63 319.018
926.471 641.975 67.4847
926.471 654.321 67.4847
926.471 666.667 67.4847
926.471 679.012 153.374
926.471 691.358 337.423
926.471 703.704 546.012
926.471 716.049 650.307
926.471 728.395 460.123
926.471 740.741 300.613
926.471 753.086 306.748
931.373 246.914 404.908
931.373 259.259 355.828
931.373 271.605 472.393
931.373 283.951 822.086
931.373 296.296 674.847
931.373 308.642 625.767
931.373 320.988 18.4049
931.373 345.679 12.2699
931.373 358.025 128.834
931.373 370.37 417.178
931.373 382.716 423.313
931.373 395.062 233.129
931.373 407.407 294.479
931.373 419.753 245.399
931.373 432.099 417.178
931.373 543.21 582.822
931.373 555.556 613.497
931.373 567.901 484.663
931.373 580.247 558.282
931.373 592.593 319.018
931.373 604.938 472.393
931.373 617.284 748.466
931.373 629.63 429.448
931.373 666.667 42.9448
931.373 679.012 263.804
931.373 691.358 392.638
931.373 703.704 613.497
931.373 716.049 717.791
931.373 728.395 453.988
931.373 740.741 288.344
931.373 753.086 202.454
936.275 246.914 404.908
936.275 259.259 411.043
936.275 271.605 300.613
936.275 283.951 822.086
936.275 296.296 699.387
936.275 308.642 650.307
936.275 320.988 196.319
936.275 345.679 12.2699
936.275 358.025 128.834
936.275 370.37 417.178
936.275 382.716 429.448
936.275 395.062 288.344
936.275 407.407 312.883
936.275 419.753 202.454
936.275 543.21 564.417
936.275 555.556 625.767
936.275 567.901 374.233
936.275 580.247 595.092
936.275 592.593 429.448
936.275 604.938 361.963
936.275 617.284 754.601
936.275 629.63 417.178
936.275 666.667 67.4847
936.275 679.012 276.074
936.275 691.358 546.012
936.275 703.704 674.847
936.275 716.049 496.933
936.275 728.395 490.798
936.275 740.741 417.178
936.275 753.086 128.834
941.176 259.259 460.123
941.176 271.605 625.767
941.176 283.951 871.166
941.176 296.296 760.736
941.176 308.642 644.172
941.176 320.988 312.883
941.176 345.679 12.2699
941.176 358.025 128.834
941.176 370.37 417.178
941.176 382.716 177.914
941.176 395.062 343.558
941.176 407.407 411.043
941.176 419.753 220.859
941.176 543.21 361.963
941.176 555.556 668.712
941.176 567.901 417.178
941.176 580.247 521.472
941.176 592.593 472.393
941.176 604.938 478.528
941.176 617.284 748.466
941.176 629.63 533.742
941.176 666.667 36.8098
941.176 679.012 208.589
941.176 691.358 650.307
941.176 703.704 509.202
941.176 716.049 251.534
941.176 728.395 613.497
941.176 740.741 429.448
941.176 753.086 190.184
946.078 259.259 496.933
946.078 271.605 625.767
946.078 283.951 858.896
946.078 296.296 766.871
946.078 308.642 705.521
946.078 320.988 361.963
946.078 345.679 73.6196
946.078 358.025 184.049
946.078 370.37 423.313
946.078 382.716 208.589
946.078 395.062 484.663
946.078 407.407 472.393
946.078 419.753 128.834
946.078 543.21 355.828
946.078 555.556 723.926
946.078 567.901 417.178
946.078 580.247 521.472
946.078 592.593 546.012
946.078 604.938 546.012
946.078 617.284 730.061
946.078 629.63 564.417
946.078 654.321 12.2699
946.078 666.667 134.969
946.078 679.012 220.859
946.078 691.358 570.552
946.078 703.704 484.663
946.078 716.049 496.933
946.078 728.395 564.417
946.078 740.741 220.859
950.98 259.259 453.988
950.98 271.605 552.147
950.98 283.951 883.436
950.98 296.296 852.761
950.98 308.642 822.086
950.98 320.988 552.147
950.98 333.333 49.0798
950.98 345.679 128.834
950.98 358.025 245.399
950.98 370.37 423.313
950.98 382.716 233.129
950.98 395.062 527.607
950.98 407.407 619.632
950.98 419.753 128.834
950.98 543.21 411.043
950.98 555.556 300.613
950.98 567.901 601.227
950.98 580.247 472.393
950.98 592.593 515.337
950.98 604.938 564.417
950.98 617.284 785.276
950.98 629.63 558.282
950.98 641.975 122.699
950.98 654.321 184.049
950.98 666.667 245.399
950.98 679.012 288.344
950.98 691.358 521.472
950.98 703.704 368.098
950.98 716.049 680.982
950.98 728.395 521.472
950.98 740.741 67.4847
955.882 246.914 239.264
955.882 259.259 435.583
955.882 271.605 674.847
955.882 283.951 889.571
955.882 296.296 950.92
955.882 308.642 828.221
955.882 320.988 607.362
955.882 333.333 294.479
955.882 345.679 190.184
955.882 358.025 417.178
955.882 370.37 423.313
955.882 382.716 300.613
955.882 395.062 539.877
955.882 407.407 447.853
955.882 555.556 355.828
955.882 567.901 754.601
955.882 580.247 441.718
955.882 592.593 638.037
955.882 604.938 595.092
955.882 617.284 736.196
955.882 629.63 619.632
955.882 641.975 245.399
955.882 654.321 245.399
955.882 666.667 417.178
955.882 679.012 441.718
955.882 691.358 435.583
955.882 703.704 251.534
955.882 716.049 656.442
955.882 728.395 490.798
955.882 740.741 417.178
960.784 246.914 453.988
960.784 259.259 417.178
960.784 271.605 773.006
960.784 283.951 926.38
960.784 296.296 1000
960.784 308.642 865.031
960.784 320.988 711.656
960.784 333.333 447.853
960.784 345.679 245.399
960.784 358.025 417.178
960.784 370.37 441.718
960.784 382.716 300.613
960.784 395.062 478.528
960.784 407.407 453.988
960.784 555.556 411.043
960.784 567.901 490.798
960.784 580.247 613.497
960.784 592.593 625.767
960.784 604.938 619.632
960.784 617.284 619.632
960.784 629.63 766.871
960.784 641.975 423.313
960.784 654.321 417.178
960.784 666.667 417.178
960.784 679.012 441.718
960.784 691.358 447.853
960.784 703.704 306.748
960.784 716.049 386.503
960.784 728.395 595.092
960.784 740.741 619.632
965.686 246.914 453.988
965.686 259.259 404.908
965.686 271.605 533.742
965.686 283.951 883.436
965.686 296.296 975.46
965.686 308.642 901.84
965.686 320.988 730.061
965.686 333.333 546.012
965.686 345.679 484.663
965.686 358.025 423.313
965.686 370.37 263.804
965.686 382.716 386.503
965.686 395.062 435.583
965.686 407.407 220.859
965.686 555.556 411.043
965.686 567.901 294.479
965.686 580.247 748.466
965.686 592.593 699.387
965.686 604.938 552.147
965.686 617.284 484.663
965.686 629.63 865.031
965.686 641.975 631.902
965.686 654.321 423.313
965.686 666.667 429.448
965.686 679.012 490.798
965.686 691.358 521.472
965.686 703.704 343.558
965.686 716.049 429.448
965.686 728.395 582.822
965.686 740.741 411.043
970.588 246.914 429.448
970.588 259.259 404.908
970.588 271.605 687.117
970.588 283.951 969.325
970.588 296.296 920.245
970.588 308.642 834.356
970.588 320.988 791.411
970.588 333.333 723.926
970.588 345.679 478.528
970.588 358.025 472.393
970.588 370.37 294.479
970.588 382.716 564.417
970.588 395.062 478.528
970.588 567.901 294.479
970.588 580.247 748.466
970.588 592.593 680.982
970.588 604.938 546.012
970.588 617.284 576.687
970.588 629.63 742.331
970.588 641.975 815.951
970.588 654.321 576.687
970.588 666.667 546.012
970.588 679.012 570.552
970.588 691.358 429.448
970.588 703.704 466.258
970.588 716.049 368.098
970.588 728.395 484.663
970.588 740.741 404.908
975.49 234.568 404.908
975.49 246.914 404.908
975.49 259.259 404.908
975.49 271.605 650.307
975.49 283.951 920.245
975.49 296.296 883.436
975.49 308.642 797.546
975.49 320.988 785.276
975.49 333.333 779.141
975.49 345.679 723.926
975.49 358.025 533.742
975.49 370.37 466.258
975.49 382.716 699.387
975.49 395.062 515.337
975.49 567.901 294.479
975.49 580.247 680.982
975.49 592.593 723.926
975.49 604.938 546.012
975.49 617.284 638.037
975.49 629.63 650.307
975.49 641.975 883.436
975.49 654.321 791.411
975.49 666.667 674.847
975.49 679.012 748.466
975.49 691.358 570.552
975.49 703.704 478.528
975.49 716.049 478.528
975.49 728.395 582.822
975.49 740.741 404.908
975.49 753.086 404.908
980.392 234.568 404.908
980.392 246.914 404.908
980.392 259.259 404.908
980.392 271.605 539.877
980.392 283.951 901.84
980.392 296.296 895.706
980.392 308.642 822.086
980.392 320.988 828.221
980.392 333.333 730.061
980.392 345.679 748.466
980.392 358.025 674.847
980.392 370.37 760.736
980.392 382.716 828.221
980.392 395.062 122.699
980.392 580.247 404.908
980.392 592.593 748.466
980.392 604.938 546.012
980.392 617.284 607.362
980.392 629.63 527.607
980.392 641.975 883.436
980.392 654.321 877.301
980.392 666.667 865.031
980.392 679.012 822.086
980.392 691.358 631.902
980.392 703.704 582.822
980.392 716.049 539.877
980.392 728.395 582.822
980.392 740.741 582.822
980.392 753.086 404.908
985.294 246.914 404.908
985.294 259.259 404.908
985.294 271.605 625.767
985.294 283.951 858.896
985.294 296.296 883.436
985.294 308.642 852.761
985.294 320.988 809.816
985.294 333.333 760.736
985.294 345.679 797.546
985.294 358.025 809.816
985.294 370.37 822.086
985.294 382.716 797.546
985.294 395.062 122.699
985.294 580.247 509.202
985.294 592.593 773.006
985.294 604.938 539.877
985.294 617.284 607.362
985.294 629.63 552.147
985.294 641.975 889.571
985.294 654.321 877.301
985.294 666.667 895.706
985.294 679.012 926.38
985.294 691.358 742.331
985.294 703.704 539.877
985.294 716.049 509.202
985.294 728.395 582.822
985.294 740.741 582.822
985.294 753.086 404.908
990.196 246.914 398.773
990.196 259.259 404.908
990.196 271.605 613.497
990.196 283.951 883.436
990.196 296.296 895.706
990.196 308.642 938.65
990.196 320.988 840.491
990.196 333.333 815.951
990.196 345.679 785.276
990.196 358.025 822.086
990.196 370.37 865.031
990.196 382.716 803.681
990.196 395.062 177.914
990.196 592.593 797.546
990.196 604.938 564.417
990.196 617.284 607.362
990.196 629.63 576.687
990.196 641.975 680.982
990.196 654.321 926.38
990.196 666.667 938.65
990.196 679.012 950.92
990.196 691.358 822.086
990.196 703.704 595.092
990.196 716.049 447.853
990.196 728.395 582.822
990.196 740.741 582.822
990.196 753.086 404.908
995.098 259.259 398.773
995.098 271.605 576.687
995.098 283.951 871.166
995.098 296.296 914.11
995.098 308.642 969.325
