232.323 903.846 190.476
232.323 913.462 190.476
232.323 923.077 192.381
232.323 932.692 255.238
232.323 942.308 255.238
232.323 951.923 253.333
232.323 961.538 518.095
232.323 971.154 518.095
232.323 980.769 386.667
232.323 990.385 386.667
232.323 1000 384.762
237.374 38.4615 367.619
237.374 48.0769 367.619
237.374 57.6923 367.619
237.374 67.3077 847.619
237.374 76.9231 598.095
237.374 86.5385 291.429
237.374 96.1538 7.61905
237.374 105.769 11.4286
237.374 115.385 3.80952
237.374 125 1.90476
237.374 134.615 0
237.374 163.462 1.90476
237.374 173.077 0
237.374 182.692 1.90476
237.374 192.308 13.3333
237.374 201.923 7.61905
237.374 211.538 9.52381
237.374 221.154 11.4286
237.374 230.769 9.52381
237.374 240.385 0
237.374 269.231 9.52381
237.374 278.846 17.1429
237.374 288.462 19.0476
237.374 298.077 15.2381
237.374 307.692 11.4286
237.374 317.308 11.4286
237.374 326.923 9.52381
237.374 336.538 15.2381
237.374 346.154 20.9524
237.374 355.769 28.5714
237.374 365.385 19.0476
237.374 375 17.1429
237.374 384.615 22.8571
237.374 394.231 20.9524
237.374 403.846 11.4286
237.374 413.462 13.3333
237.374 423.077 11.4286
237.374 432.692 11.4286
237.374 442.308 13.3333
237.374 451.923 19.0476
237.374 461.538 17.1429
237.374 471.154 17.1429
237.374 480.769 11.4286
237.374 490.385 9.52381
237.374 500 7.61905
237.374 509.615 74.2857
237.374 519.231 215.238
237.374 528.846 186.667
237.374 538.462 112.381
237.374 548.077 112.381
237.374 557.692 137.143
237.374 567.308 175.238
237.374 576.923 99.0476
237.374 586.538 211.429
237.374 596.154 451.429
237.374 605.769 405.714
237.374 615.385 209.524
237.374 625 209.524
237.374 634.615 110.476
237.374 644.231 108.571
237.374 653.846 110.476
237.374 663.462 108.571
237.374 673.077 110.476
237.374 682.692 106.667
237.374 692.308 104.762
237.374 701.923 192.381
237.374 711.538 110.476
237.374 721.154 222.857
237.374 730.769 131.429
237.374 740.385 129.524
237.374 750 129.524
237.374 759.615 127.619
237.374 769.231 129.524
237.374 778.846 127.619
237.374 788.462 127.619
237.374 798.077 127.619
237.374 807.692 127.619
237.374 817.308 127.619
237.374 826.923 127.619
237.374 836.538 150.476
237.374 846.154 148.571
237.374 855.769 148.571
237.374 865.385 148.571
237.374 875 146.667
237.374 884.615 304.762
237.374 894.231 190.476
237.374 903.846 190.476
237.374 913.462 190.476
237.374 923.077 190.476
237.374 932.692 255.238
237.374 942.308 253.333
237.374 951.923 253.333
237.374 961.538 253.333
237.374 971.154 518.095
237.374 980.769 518.095
237.374 990.385 386.667
237.374 1000 384.762
242.424 48.0769 363.81
242.424 57.6923 748.571
242.424 67.3077 868.571
242.424 76.9231 521.905
242.424 86.5385 304.762
242.424 96.1538 13.3333
242.424 105.769 7.61905
242.424 115.385 3.80952
242.424 125 3.80952
242.424 134.615 0
242.424 144.231 0
242.424 163.462 3.80952
242.424 173.077 0
242.424 182.692 3.80952
242.424 192.308 7.61905
242.424 201.923 7.61905
242.424 211.538 7.61905
242.424 221.154 9.52381
242.424 230.769 3.80952
242.424 269.231 5.71429
242.424 278.846 5.71429
242.424 288.462 9.52381
242.424 298.077 11.4286
242.424 307.692 15.2381
242.424 317.308 13.3333
242.424 326.923 13.3333
242.424 336.538 11.4286
242.424 346.154 13.3333
242.424 355.769 22.8571
242.424 365.385 15.2381
242.424 375 15.2381
242.424 384.615 20.9524
242.424 394.231 19.0476
242.424 403.846 19.0476
242.424 413.462 13.3333
242.424 423.077 11.4286
242.424 432.692 11.4286
242.424 442.308 13.3333
242.424 451.923 15.2381
242.424 461.538 17.1429
242.424 471.154 15.2381
242.424 480.769 11.4286
242.424 490.385 11.4286
242.424 500 68.5714
242.424 509.615 171.429
242.424 519.231 182.857
242.424 528.846 154.286
242.424 538.462 76.1905
242.424 548.077 123.81
242.424 557.692 121.905
242.424 567.308 140.952
242.424 576.923 139.048
242.424 586.538 211.429
242.424 596.154 358.095
242.424 605.769 445.714
242.424 615.385 287.619
242.424 625 209.524
242.424 634.615 108.571
242.424 644.231 108.571
242.424 653.846 110.476
242.424 663.462 108.571
242.424 673.077 108.571
242.424 682.692 104.762
242.424 692.308 106.667
242.424 701.923 104.762
242.424 711.538 222.857
242.424 721.154 220.952
242.424 730.769 131.429
242.424 740.385 131.429
242.424 750 127.619
242.424 759.615 127.619
242.424 769.231 127.619
242.424 778.846 127.619
242.424 788.462 127.619
242.424 798.077 127.619
242.424 807.692 127.619
242.424 817.308 127.619
242.424 826.923 150.476
242.424 836.538 150.476
242.424 846.154 148.571
242.424 855.769 148.571
242.424 865.385 148.571
242.424 875 306.667
242.424 884.615 304.762
242.424 894.231 190.476
242.424 903.846 190.476
242.424 913.462 190.476
242.424 923.077 190.476
242.424 932.692 255.238
242.424 942.308 253.333
242.424 951.923 253.333
242.424 961.538 253.333
242.424 971.154 251.429
242.424 980.769 518.095
242.424 990.385 386.667
247.475 57.6923 876.19
247.475 67.3077 847.619
247.475 76.9231 466.667
247.475 86.5385 344.762
247.475 96.1538 66.6667
247.475 105.769 3.80952
247.475 115.385 1.90476
247.475 125 0
247.475 163.462 0
247.475 173.077 0
247.475 182.692 0
247.475 192.308 5.71429
247.475 201.923 3.80952
247.475 211.538 5.71429
247.475 221.154 3.80952
247.475 269.231 3.80952
247.475 278.846 1.90476
247.475 298.077 3.80952
247.475 307.692 11.4286
247.475 317.308 9.52381
247.475 326.923 9.52381
247.475 336.538 13.3333
247.475 346.154 13.3333
247.475 355.769 15.2381
247.475 365.385 13.3333
247.475 375 11.4286
247.475 384.615 19.0476
247.475 394.231 19.0476
247.475 403.846 17.1429
247.475 413.462 7.61905
247.475 423.077 9.52381
247.475 432.692 17.1429
247.475 442.308 9.52381
247.475 451.923 13.3333
247.475 461.538 20.9524
247.475 471.154 19.0476
247.475 480.769 15.2381
247.475 490.385 43.8095
247.475 500 125.714
247.475 509.615 142.857
247.475 519.231 200
247.475 528.846 146.667
247.475 538.462 76.1905
247.475 548.077 118.095
247.475 557.692 135.238
247.475 567.308 91.4286
247.475 576.923 139.048
247.475 586.538 165.714
247.475 596.154 302.857
247.475 605.769 443.81
247.475 615.385 350.476
247.475 625 207.619
247.475 634.615 108.571
247.475 644.231 108.571
247.475 653.846 108.571
247.475 663.462 106.667
247.475 673.077 108.571
247.475 682.692 104.762
247.475 692.308 106.667
247.475 701.923 203.81
247.475 711.538 262.857
247.475 721.154 131.429
247.475 730.769 131.429
247.475 740.385 129.524
247.475 750 129.524
247.475 759.615 127.619
247.475 769.231 127.619
247.475 778.846 127.619
247.475 788.462 127.619
247.475 798.077 127.619
247.475 807.692 127.619
247.475 817.308 148.571
247.475 826.923 150.476
247.475 836.538 148.571
247.475 846.154 150.476
247.475 855.769 150.476
247.475 865.385 306.667
247.475 875 306.667
247.475 884.615 190.476
247.475 894.231 190.476
247.475 903.846 190.476
247.475 913.462 192.381
247.475 923.077 190.476
247.475 932.692 253.333
247.475 942.308 253.333
247.475 951.923 253.333
247.475 961.538 251.429
247.475 971.154 251.429
247.475 980.769 516.19
247.475 990.385 386.667
252.525 57.6923 920
252.525 67.3077 702.857
252.525 76.9231 546.667
252.525 86.5385 325.714
252.525 96.1538 74.2857
252.525 105.769 1.90476
252.525 125 3.80952
252.525 134.615 1.90476
252.525 144.231 0
252.525 163.462 0
252.525 182.692 3.80952
252.525 192.308 5.71429
252.525 201.923 5.71429
252.525 211.538 7.61905
252.525 221.154 1.90476
252.525 269.231 3.80952
252.525 288.462 0
252.525 298.077 0
252.525 307.692 0
252.525 317.308 1.90476
252.525 326.923 5.71429
252.525 336.538 11.4286
252.525 346.154 11.4286
252.525 355.769 15.2381
252.525 365.385 9.52381
252.525 375 13.3333
252.525 384.615 19.0476
252.525 394.231 20.9524
252.525 403.846 20.9524
252.525 413.462 15.2381
252.525 423.077 9.52381
252.525 432.692 15.2381
252.525 442.308 11.4286
252.525 451.923 13.3333
252.525 461.538 19.0476
252.525 471.154 24.7619
252.525 480.769 20.9524
252.525 490.385 43.8095
252.525 500 131.429
252.525 509.615 81.9048
252.525 519.231 180.952
252.525 528.846 146.667
252.525 538.462 74.2857
252.525 548.077 121.905
252.525 557.692 179.048
252.525 567.308 97.1429
252.525 576.923 139.048
252.525 586.538 215.238
252.525 596.154 240
252.525 605.769 361.905
252.525 615.385 403.81
252.525 625 207.619
252.525 634.615 108.571
252.525 644.231 125.714
252.525 653.846 106.667
252.525 663.462 104.762
252.525 673.077 106.667
252.525 682.692 104.762
252.525 692.308 123.81
252.525 701.923 222.857
252.525 711.538 131.429
252.525 721.154 133.333
252.525 730.769 131.429
252.525 740.385 129.524
252.525 750 129.524
252.525 759.615 127.619
252.525 769.231 129.524
252.525 778.846 127.619
252.525 788.462 156.19
252.525 798.077 127.619
252.525 807.692 148.571
252.525 817.308 150.476
252.525 826.923 152.381
252.525 836.538 150.476
252.525 846.154 150.476
252.525 855.769 304.762
252.525 865.385 306.667
252.525 875 190.476
252.525 884.615 190.476
252.525 894.231 190.476
252.525 903.846 190.476
252.525 913.462 190.476
252.525 923.077 190.476
252.525 932.692 253.333
252.525 942.308 253.333
252.525 951.923 253.333
252.525 961.538 251.429
252.525 971.154 251.429
252.525 980.769 516.19
257.576 57.6923 920
257.576 67.3077 558.095
257.576 76.9231 577.143
257.576 86.5385 247.619
257.576 96.1538 7.61905
257.576 144.231 0
257.576 278.846 0
257.576 288.462 0
257.576 298.077 0
257.576 307.692 0
257.576 336.538 3.80952
257.576 346.154 7.61905
257.576 355.769 5.71429
257.576 365.385 11.4286
257.576 375 11.4286
257.576 384.615 15.2381
257.576 394.231 19.0476
257.576 403.846 17.1429
257.576 413.462 13.3333
257.576 423.077 13.3333
257.576 432.692 9.52381
257.576 442.308 11.4286
257.576 451.923 15.2381
257.576 461.538 19.0476
257.576 471.154 30.4762
257.576 480.769 26.6667
257.576 490.385 76.1905
257.576 500 158.095
257.576 509.615 112.381
257.576 519.231 171.429
257.576 528.846 148.571
257.576 538.462 74.2857
257.576 548.077 127.619
257.576 557.692 169.524
257.576 567.308 95.2381
257.576 576.923 91.4286
257.576 586.538 201.905
257.576 596.154 188.571
257.576 605.769 318.095
257.576 615.385 443.81
257.576 625 346.667
257.576 634.615 106.667
257.576 644.231 106.667
257.576 653.846 104.762
257.576 663.462 104.762
257.576 673.077 104.762
257.576 682.692 106.667
257.576 692.308 203.81
257.576 701.923 220.952
257.576 711.538 133.333
257.576 721.154 163.81
257.576 730.769 131.429
257.576 740.385 131.429
257.576 750 131.429
257.576 759.615 129.524
257.576 769.231 158.095
257.576 778.846 127.619
257.576 788.462 127.619
257.576 798.077 152.381
257.576 807.692 310.476
257.576 817.308 310.476
257.576 826.923 310.476
257.576 836.538 306.667
257.576 846.154 306.667
257.576 855.769 304.762
257.576 865.385 190.476
257.576 875 188.571
257.576 884.615 190.476
257.576 894.231 190.476
257.576 903.846 190.476
257.576 913.462 192.381
257.576 923.077 190.476
257.576 932.692 251.429
257.576 942.308 251.429
257.576 951.923 253.333
257.576 961.538 251.429
257.576 971.154 516.19
257.576 980.769 516.19
262.626 57.6923 918.095
262.626 67.3077 615.238
262.626 76.9231 440
262.626 86.5385 146.667
262.626 298.077 0
262.626 317.308 0
262.626 326.923 0
262.626 336.538 3.80952
262.626 346.154 1.90476
262.626 355.769 1.90476
262.626 365.385 11.4286
262.626 375 11.4286
262.626 384.615 11.4286
262.626 394.231 11.4286
262.626 403.846 13.3333
262.626 413.462 15.2381
262.626 423.077 17.1429
262.626 432.692 11.4286
262.626 442.308 13.3333
262.626 451.923 11.4286
262.626 461.538 17.1429
262.626 471.154 22.8571
262.626 480.769 19.0476
262.626 490.385 19.0476
262.626 500 129.524
262.626 509.615 133.333
262.626 519.231 175.238
262.626 528.846 156.19
262.626 538.462 112.381
262.626 548.077 133.333
262.626 557.692 127.619
262.626 567.308 102.857
262.626 576.923 97.1429
262.626 586.538 200
262.626 596.154 228.571
262.626 605.769 300.952
262.626 615.385 358.095
262.626 625 346.667
262.626 634.615 104.762
262.626 644.231 104.762
262.626 653.846 104.762
262.626 663.462 102.857
262.626 673.077 102.857
262.626 682.692 205.714
262.626 692.308 224.762
262.626 701.923 131.429
262.626 711.538 133.333
262.626 721.154 131.429
262.626 730.769 163.81
262.626 740.385 133.333
262.626 750 133.333
262.626 759.615 131.429
262.626 769.231 129.524
262.626 778.846 129.524
262.626 788.462 314.286
262.626 798.077 312.381
262.626 807.692 310.476
262.626 817.308 192.381
262.626 826.923 192.381
262.626 836.538 192.381
262.626 846.154 190.476
262.626 855.769 188.571
262.626 865.385 188.571
262.626 875 188.571
262.626 884.615 190.476
262.626 894.231 190.476
262.626 903.846 192.381
262.626 913.462 192.381
262.626 923.077 253.333
262.626 932.692 253.333
262.626 942.308 253.333
262.626 951.923 253.333
262.626 961.538 516.19
262.626 971.154 516.19
267.677 57.6923 902.857
267.677 67.3077 664.762
267.677 76.9231 300.952
267.677 86.5385 76.1905
267.677 288.462 0
267.677 326.923 5.71429
267.677 336.538 7.61905
267.677 346.154 1.90476
267.677 355.769 3.80952
267.677 365.385 3.80952
267.677 375 13.3333
267.677 384.615 11.4286
267.677 394.231 9.52381
267.677 403.846 3.80952
267.677 413.462 1.90476
267.677 423.077 9.52381
267.677 432.692 9.52381
267.677 442.308 7.61905
267.677 451.923 3.80952
267.677 461.538 7.61905
267.677 471.154 15.2381
267.677 480.769 20.9524
267.677 490.385 15.2381
267.677 500 97.1429
267.677 509.615 127.619
267.677 519.231 108.571
267.677 528.846 158.095
267.677 538.462 152.381
267.677 548.077 171.429
267.677 557.692 171.429
267.677 567.308 102.857
267.677 576.923 97.1429
267.677 586.538 152.381
267.677 596.154 243.81
267.677 605.769 228.571
267.677 615.385 360
267.677 625 346.667
267.677 634.615 203.81
267.677 644.231 104.762
267.677 653.846 104.762
267.677 663.462 102.857
267.677 673.077 106.667
267.677 682.692 226.667
267.677 692.308 161.905
267.677 701.923 129.524
267.677 711.538 131.429
267.677 721.154 131.429
267.677 730.769 133.333
267.677 740.385 133.333
267.677 750 133.333
267.677 759.615 133.333
267.677 769.231 133.333
267.677 778.846 403.81
267.677 788.462 316.19
267.677 798.077 196.19
267.677 807.692 194.286
267.677 817.308 194.286
267.677 826.923 192.381
267.677 836.538 190.476
267.677 846.154 190.476
267.677 855.769 188.571
267.677 865.385 190.476
267.677 875 190.476
267.677 884.615 192.381
267.677 894.231 190.476
267.677 903.846 192.381
267.677 913.462 253.333
267.677 923.077 253.333
267.677 932.692 255.238
267.677 942.308 520
267.677 951.923 518.095
267.677 961.538 514.286
272.727 57.6923 918.095
272.727 67.3077 725.714
272.727 76.9231 240
272.727 298.077 0
272.727 317.308 3.80952
272.727 326.923 15.2381
272.727 336.538 9.52381
272.727 346.154 13.3333
272.727 355.769 5.71429
272.727 365.385 5.71429
272.727 375 5.71429
272.727 384.615 24.7619
272.727 394.231 7.61905
272.727 403.846 5.71429
272.727 423.077 1.90476
272.727 432.692 5.71429
272.727 442.308 9.52381
272.727 451.923 1.90476
272.727 461.538 1.90476
272.727 471.154 1.90476
272.727 480.769 1.90476
272.727 490.385 3.80952
272.727 500 60.9524
272.727 509.615 152.381
272.727 519.231 40
272.727 528.846 211.429
272.727 538.462 360
272.727 548.077 293.333
272.727 557.692 312.381
272.727 567.308 215.238
272.727 576.923 146.667
272.727 586.538 152.381
272.727 596.154 186.667
272.727 605.769 226.667
272.727 615.385 382.857
272.727 625 392.381
272.727 634.615 278.095
272.727 644.231 104.762
272.727 653.846 102.857
272.727 663.462 207.619
272.727 673.077 207.619
272.727 682.692 226.667
272.727 692.308 131.429
272.727 701.923 129.524
272.727 711.538 129.524
272.727 721.154 131.429
272.727 730.769 133.333
272.727 740.385 135.238
272.727 750 135.238
272.727 759.615 156.19
272.727 769.231 203.81
272.727 778.846 321.905
272.727 788.462 200
272.727 798.077 198.095
272.727 807.692 194.286
272.727 817.308 194.286
272.727 826.923 194.286
272.727 836.538 396.19
272.727 846.154 598.095
272.727 855.769 596.19
272.727 865.385 527.619
272.727 875 525.714
272.727 884.615 523.81
272.727 894.231 523.81
272.727 903.846 523.81
272.727 913.462 523.81
272.727 923.077 521.905
272.727 932.692 521.905
272.727 942.308 516.19
277.778 57.6923 933.333
277.778 67.3077 554.286
277.778 76.9231 135.238
277.778 326.923 0
277.778 336.538 7.61905
277.778 346.154 11.4286
277.778 355.769 5.71429
277.778 365.385 3.80952
277.778 375 5.71429
277.778 384.615 11.4286
277.778 394.231 7.61905
277.778 403.846 7.61905
277.778 423.077 1.90476
277.778 432.692 3.80952
277.778 442.308 1.90476
277.778 461.538 0
277.778 480.769 0
277.778 500 22.8571
277.778 509.615 127.619
277.778 519.231 106.667
277.778 528.846 272.381
277.778 538.462 352.381
277.778 548.077 211.429
277.778 557.692 262.857
277.778 567.308 217.143
277.778 576.923 304.762
277.778 586.538 415.238
277.778 596.154 361.905
277.778 605.769 398.095
277.778 615.385 415.238
277.778 625 407.619
277.778 634.615 278.095
277.778 644.231 207.619
277.778 653.846 207.619
277.778 663.462 207.619
277.778 673.077 131.429
277.778 682.692 131.429
277.778 692.308 131.429
277.778 701.923 131.429
277.778 711.538 131.429
277.778 721.154 131.429
277.778 730.769 135.238
277.778 740.385 137.143
277.778 750 154.286
277.778 759.615 203.81
277.778 769.231 323.81
277.778 778.846 323.81
277.778 788.462 203.81
277.778 798.077 200
277.778 807.692 196.19
277.778 817.308 401.905
277.778 826.923 537.143
277.778 836.538 533.333
277.778 846.154 392.381
277.778 884.615 390.476
277.778 894.231 390.476
277.778 903.846 390.476
277.778 913.462 390.476
282.828 48.0769 489.524
282.828 57.6923 937.143
282.828 67.3077 514.286
282.828 76.9231 106.667
282.828 375 1.90476
282.828 384.615 1.90476
282.828 394.231 13.3333
282.828 403.846 1.90476
282.828 423.077 3.80952
282.828 432.692 1.90476
282.828 442.308 1.90476
282.828 500 26.6667
282.828 509.615 131.429
282.828 519.231 268.571
282.828 528.846 264.762
282.828 538.462 257.143
282.828 548.077 205.714
282.828 557.692 230.476
282.828 567.308 156.19
282.828 576.923 131.429
282.828 586.538 226.667
282.828 596.154 297.143
282.828 605.769 460.952
282.828 615.385 521.905
282.828 625 700.952
282.828 634.615 622.857
282.828 644.231 480
282.828 653.846 278.095
282.828 663.462 131.429
282.828 673.077 131.429
282.828 682.692 131.429
282.828 692.308 131.429
282.828 701.923 129.524
282.828 711.538 129.524
282.828 721.154 129.524
282.828 730.769 169.524
282.828 740.385 156.19
282.828 750 327.619
282.828 759.615 327.619
282.828 769.231 323.81
282.828 778.846 203.81
282.828 788.462 203.81
282.828 798.077 203.81
282.828 807.692 544.762
282.828 817.308 539.048
282.828 826.923 398.095
287.879 48.0769 744.762
287.879 57.6923 880
287.879 67.3077 491.429
287.879 76.9231 100.952
287.879 423.077 5.71429
287.879 432.692 5.71429
287.879 442.308 0
287.879 500 30.4762
287.879 509.615 120
287.879 519.231 394.286
287.879 528.846 228.571
287.879 538.462 316.19
287.879 548.077 171.429
287.879 557.692 165.714
287.879 567.308 93.3333
287.879 576.923 74.2857
287.879 586.538 165.714
287.879 596.154 207.619
287.879 605.769 320
287.879 615.385 342.857
287.879 625 640
287.879 634.615 758.095
287.879 644.231 636.19
287.879 653.846 422.857
287.879 663.462 506.667
287.879 673.077 278.095
287.879 682.692 131.429
287.879 692.308 129.524
287.879 701.923 129.524
287.879 711.538 274.286
287.879 721.154 329.524
287.879 730.769 329.524
287.879 740.385 327.619
287.879 750 327.619
287.879 759.615 201.905
287.879 769.231 201.905
287.879 778.846 207.619
287.879 788.462 556.19
287.879 798.077 556.19
287.879 807.692 539.048
292.929 48.0769 796.19
292.929 57.6923 796.19
292.929 67.3077 474.286
292.929 432.692 1.90476
292.929 471.154 0
292.929 480.769 1.90476
292.929 490.385 1.90476
292.929 509.615 188.571
292.929 519.231 478.095
292.929 528.846 196.19
292.929 538.462 314.286
292.929 548.077 81.9048
292.929 557.692 165.714
292.929 567.308 125.714
292.929 576.923 93.3333
292.929 586.538 165.714
292.929 596.154 182.857
292.929 605.769 318.095
292.929 615.385 241.905
292.929 625 586.667
292.929 634.615 830.476
292.929 644.231 411.429
292.929 653.846 411.429
292.929 663.462 558.095
292.929 673.077 558.095
292.929 682.692 504.762
292.929 692.308 419.048
292.929 701.923 331.429
292.929 711.538 329.524
292.929 721.154 419.048
292.929 730.769 417.143
292.929 740.385 417.143
292.929 750 417.143
292.929 759.615 632.381
292.929 769.231 624.762
292.929 778.846 560
292.929 788.462 554.286
297.98 48.0769 855.238
297.98 57.6923 720
297.98 67.3077 474.286
297.98 432.692 1.90476
297.98 509.615 177.143
297.98 519.231 417.143
297.98 528.846 66.6667
297.98 538.462 339.048
297.98 548.077 165.714
297.98 557.692 163.81
297.98 567.308 106.667
297.98 576.923 93.3333
297.98 586.538 83.8095
297.98 596.154 186.667
297.98 605.769 289.524
297.98 615.385 340.952
297.98 625 382.857
297.98 634.615 828.571
297.98 644.231 702.857
297.98 692.308 413.333
297.98 701.923 561.905
297.98 711.538 563.81
297.98 721.154 561.905
297.98 730.769 417.143
297.98 740.385 417.143
297.98 750 417.143
297.98 759.615 417.143
303.03 48.0769 897.143
303.03 57.6923 798.095
303.03 67.3077 390.476
303.03 509.615 220.952
303.03 519.231 409.524
303.03 528.846 66.6667
303.03 538.462 339.048
303.03 548.077 165.714
303.03 557.692 83.8095
303.03 567.308 95.2381
303.03 576.923 95.2381
303.03 586.538 85.7143
303.03 596.154 186.667
303.03 605.769 285.714
303.03 615.385 335.238
303.03 625 318.095
303.03 634.615 560
303.03 644.231 756.19
308.081 48.0769 908.571
308.081 57.6923 718.095
308.081 67.3077 280
308.081 509.615 243.81
308.081 519.231 344.762
308.081 528.846 116.19
308.081 538.462 371.429
308.081 548.077 167.619
308.081 557.692 81.9048
308.081 567.308 95.2381
308.081 576.923 106.667
308.081 586.538 83.8095
308.081 596.154 165.714
308.081 605.769 287.619
308.081 615.385 367.619
308.081 625 333.333
308.081 634.615 560
308.081 644.231 796.19
308.081 653.846 603.81
313.131 48.0769 940.952
313.131 57.6923 700.952
313.131 67.3077 80
313.131 509.615 232.381
313.131 519.231 348.571
313.131 528.846 238.095
313.131 538.462 327.619
313.131 548.077 93.3333
313.131 557.692 95.2381
313.131 567.308 93.3333
313.131 576.923 125.714
313.131 586.538 81.9048
313.131 596.154 167.619
313.131 605.769 184.762
313.131 615.385 287.619
313.131 625 297.143
313.131 634.615 485.714
313.131 644.231 485.714
313.131 653.846 603.81
318.182 38.4615 489.524
318.182 48.0769 950.476
318.182 57.6923 493.333
318.182 509.615 253.333
318.182 519.231 352.381
318.182 528.846 304.762
318.182 538.462 340.952
318.182 548.077 106.667
318.182 557.692 83.8095
318.182 567.308 93.3333
318.182 576.923 125.714
318.182 586.538 81.9048
318.182 596.154 167.619
318.182 605.769 184.762
318.182 615.385 285.714
318.182 625 297.143
318.182 634.615 459.048
318.182 644.231 485.714
318.182 653.846 601.905
318.182 663.462 430.476
323.232 38.4615 489.524
323.232 48.0769 912.381
323.232 57.6923 447.619
323.232 509.615 236.19
323.232 519.231 337.143
323.232 528.846 171.429
323.232 538.462 316.19
323.232 548.077 106.667
323.232 557.692 83.8095
323.232 567.308 108.571
323.232 576.923 125.714
323.232 586.538 93.3333
323.232 596.154 167.619
323.232 605.769 184.762
323.232 615.385 285.714
323.232 625 207.619
323.232 634.615 459.048
323.232 644.231 485.714
323.232 653.846 476.19
323.232 663.462 430.476
323.232 673.077 428.571
328.283 38.4615 659.048
328.283 48.0769 920
328.283 57.6923 291.429
328.283 509.615 234.286
328.283 519.231 337.143
328.283 528.846 171.429
328.283 538.462 358.095
328.283 548.077 81.9048
328.283 557.692 81.9048
328.283 567.308 108.571
328.283 576.923 123.81
328.283 586.538 108.571
328.283 596.154 165.714
328.283 605.769 285.714
328.283 615.385 285.714
328.283 625 207.619
328.283 634.615 459.048
328.283 644.231 485.714
328.283 653.846 643.81
328.283 663.462 428.571
328.283 673.077 428.571
328.283 682.692 428.571
333.333 38.4615 746.667
333.333 48.0769 891.429
333.333 57.6923 200
333.333 509.615 270.476
333.333 519.231 358.095
333.333 528.846 102.857
333.333 538.462 358.095
333.333 548.077 163.81
333.333 557.692 74.2857
333.333 567.308 108.571
333.333 576.923 125.714
333.333 586.538 150.476
333.333 596.154 95.2381
333.333 605.769 259.048
333.333 615.385 207.619
333.333 625 209.524
333.333 634.615 459.048
333.333 644.231 413.333
333.333 653.846 643.81
333.333 663.462 428.571
333.333 673.077 428.571
333.333 682.692 428.571
333.333 692.308 428.571
338.384 38.4615 906.667
338.384 48.0769 887.619
338.384 57.6923 38.0952
338.384 509.615 200
338.384 519.231 390.476
338.384 528.846 95.2381
338.384 538.462 316.19
338.384 548.077 165.714
338.384 557.692 74.2857
338.384 567.308 93.3333
338.384 576.923 108.571
338.384 586.538 148.571
338.384 596.154 93.3333
338.384 605.769 259.048
338.384 615.385 207.619
338.384 625 207.619
338.384 634.615 329.524
338.384 644.231 415.238
338.384 653.846 643.81
338.384 663.462 291.429
338.384 673.077 428.571
338.384 682.692 428.571
338.384 692.308 428.571
338.384 701.923 428.571
343.434 38.4615 946.667
343.434 48.0769 674.286
343.434 57.6923 40
343.434 509.615 81.9048
343.434 519.231 438.095
343.434 528.846 97.1429
343.434 538.462 299.048
343.434 548.077 184.762
343.434 557.692 81.9048
343.434 567.308 81.9048
343.434 576.923 106.667
343.434 586.538 150.476
343.434 596.154 93.3333
343.434 605.769 259.048
343.434 615.385 207.619
343.434 625 207.619
343.434 634.615 295.238
343.434 644.231 415.238
343.434 653.846 487.619
343.434 663.462 569.524
343.434 673.077 428.571
343.434 682.692 428.571
343.434 692.308 428.571
343.434 701.923 428.571
343.434 711.538 428.571
348.485 28.8462 489.524
348.485 38.4615 920
348.485 48.0769 424.762
348.485 57.6923 80
348.485 519.231 470.476
348.485 528.846 152.381
348.485 538.462 348.571
348.485 548.077 260.952
348.485 557.692 81.9048
348.485 567.308 74.2857
348.485 576.923 108.571
348.485 586.538 123.81
348.485 596.154 72.381
348.485 605.769 259.048
348.485 615.385 318.095
348.485 625 207.619
348.485 634.615 295.238
348.485 644.231 413.333
348.485 653.846 413.333
348.485 663.462 569.524
348.485 673.077 426.667
348.485 682.692 426.667
348.485 692.308 428.571
348.485 701.923 428.571
348.485 711.538 428.571
353.535 28.8462 796.19
353.535 38.4615 918.095
353.535 48.0769 167.619
353.535 57.6923 30.4762
353.535 519.231 487.619
353.535 528.846 236.19
353.535 538.462 340.952
353.535 548.077 203.81
353.535 557.692 161.905
353.535 567.308 74.2857
353.535 576.923 106.667
353.535 586.538 125.714
353.535 596.154 95.2381
353.535 605.769 165.714
353.535 615.385 285.714
353.535 625 295.238
353.535 634.615 295.238
353.535 644.231 268.571
353.535 653.846 415.238
353.535 663.462 569.524
353.535 673.077 291.429
353.535 682.692 426.667
353.535 692.308 426.667
353.535 701.923 426.667
353.535 711.538 426.667
358.586 28.8462 796.19
358.586 38.4615 779.048
358.586 48.0769 236.19
358.586 57.6923 40
358.586 519.231 453.333
358.586 528.846 417.143
358.586 538.462 443.81
358.586 548.077 274.286
358.586 557.692 93.3333
358.586 567.308 83.8095
358.586 576.923 144.762
358.586 586.538 123.81
358.586 596.154 108.571
358.586 605.769 165.714
358.586 615.385 363.81
358.586 625 295.238
358.586 634.615 236.19
358.586 644.231 268.571
358.586 653.846 485.714
358.586 663.462 382.857
358.586 673.077 291.429
358.586 682.692 291.429
358.586 692.308 426.667
358.586 701.923 424.762
358.586 711.538 424.762
358.586 721.154 417.143
363.636 28.8462 832.381
363.636 38.4615 780.952
363.636 48.0769 186.667
363.636 57.6923 62.8571
363.636 519.231 264.762
363.636 528.846 558.095
363.636 538.462 405.714
363.636 548.077 93.3333
363.636 557.692 255.238
363.636 567.308 81.9048
363.636 576.923 83.8095
363.636 586.538 106.667
363.636 596.154 205.714
363.636 605.769 236.19
363.636 615.385 365.714
363.636 625 320
363.636 634.615 270.476
363.636 644.231 268.571
363.636 653.846 558.095
363.636 663.462 380.952
363.636 673.077 291.429
363.636 682.692 289.524
363.636 692.308 287.619
363.636 701.923 422.857
363.636 711.538 420.952
363.636 721.154 415.238
368.687 19.2308 489.524
368.687 28.8462 819.048
368.687 38.4615 756.19
368.687 48.0769 209.524
368.687 57.6923 51.4286
368.687 519.231 194.286
368.687 528.846 601.905
368.687 538.462 367.619
368.687 548.077 205.714
368.687 557.692 150.476
368.687 567.308 196.19
368.687 576.923 81.9048
368.687 586.538 106.667
368.687 596.154 125.714
368.687 605.769 184.762
368.687 615.385 207.619
368.687 625 318.095
368.687 634.615 236.19
368.687 644.231 413.333
368.687 653.846 558.095
368.687 663.462 226.667
368.687 673.077 222.857
368.687 682.692 289.524
368.687 692.308 287.619
368.687 701.923 287.619
368.687 711.538 293.333
368.687 721.154 415.238
373.737 19.2308 744.762
373.737 28.8462 845.714
373.737 38.4615 645.714
373.737 48.0769 83.8095
373.737 57.6923 51.4286
373.737 519.231 85.7143
373.737 528.846 592.381
373.737 538.462 316.19
373.737 548.077 205.714
373.737 557.692 106.667
373.737 567.308 125.714
373.737 576.923 196.19
373.737 586.538 108.571
373.737 596.154 95.2381
373.737 605.769 95.2381
373.737 615.385 209.524
373.737 625 320
373.737 634.615 236.19
373.737 644.231 415.238
373.737 653.846 481.905
373.737 663.462 226.667
373.737 673.077 222.857
373.737 682.692 291.429
373.737 692.308 287.619
373.737 701.923 289.524
373.737 711.538 293.333
373.737 721.154 577.143
378.788 19.2308 592.381
378.788 28.8462 887.619
378.788 38.4615 613.333
378.788 48.0769 83.8095
378.788 519.231 53.3333
378.788 528.846 579.048
378.788 538.462 268.571
378.788 548.077 203.81
378.788 557.692 108.571
378.788 567.308 125.714
378.788 576.923 194.286
378.788 586.538 106.667
378.788 596.154 125.714
378.788 605.769 108.571
378.788 615.385 207.619
378.788 625 361.905
378.788 634.615 272.381
378.788 644.231 417.143
378.788 653.846 480
378.788 663.462 224.762
378.788 673.077 224.762
378.788 682.692 289.524
378.788 692.308 289.524
378.788 701.923 289.524
378.788 711.538 291.429
378.788 721.154 575.238
378.788 730.769 443.81
383.838 19.2308 830.476
383.838 28.8462 902.857
383.838 38.4615 238.095
383.838 48.0769 74.2857
383.838 519.231 57.1429
383.838 528.846 569.524
383.838 538.462 417.143
383.838 548.077 310.476
383.838 557.692 108.571
383.838 567.308 150.476
383.838 576.923 125.714
383.838 586.538 220.952
383.838 596.154 125.714
383.838 605.769 150.476
383.838 615.385 270.476
383.838 625 363.81
383.838 634.615 272.381
383.838 644.231 415.238
383.838 653.846 480
383.838 663.462 224.762
383.838 673.077 222.857
383.838 682.692 289.524
383.838 692.308 289.524
383.838 701.923 291.429
383.838 711.538 293.333
383.838 721.154 573.333
383.838 730.769 445.714
388.889 19.2308 878.095
388.889 28.8462 693.333
388.889 38.4615 121.905
388.889 48.0769 34.2857
388.889 519.231 97.1429
388.889 528.846 499.048
388.889 538.462 544.762
388.889 548.077 232.381
388.889 557.692 226.667
388.889 567.308 125.714
388.889 576.923 125.714
388.889 586.538 127.619
388.889 596.154 255.238
388.889 605.769 148.571
388.889 615.385 272.381
388.889 625 363.81
388.889 634.615 272.381
388.889 644.231 415.238
388.889 653.846 478.095
388.889 663.462 224.762
388.889 673.077 222.857
388.889 682.692 289.524
388.889 692.308 289.524
388.889 701.923 291.429
388.889 711.538 291.429
388.889 721.154 573.333
388.889 730.769 443.81
393.939 19.2308 942.857
393.939 28.8462 466.667
393.939 38.4615 32.381
393.939 519.231 110.476
393.939 528.846 462.857
393.939 538.462 542.857
393.939 548.077 127.619
393.939 557.692 127.619
393.939 567.308 150.476
393.939 576.923 262.857
393.939 586.538 127.619
393.939 596.154 150.476
393.939 605.769 295.238
393.939 615.385 274.286
393.939 625 363.81
393.939 634.615 272.381
393.939 644.231 417.143
393.939 653.846 487.619
393.939 663.462 480
393.939 673.077 220.952
393.939 682.692 220.952
393.939 692.308 291.429
393.939 701.923 291.429
393.939 711.538 293.333
393.939 721.154 573.333
393.939 730.769 447.619
398.99 19.2308 948.571
398.99 28.8462 371.429
398.99 38.4615 83.8095
398.99 519.231 165.714
398.99 528.846 445.714
398.99 538.462 542.857
398.99 548.077 127.619
398.99 557.692 150.476
398.99 567.308 184.762
398.99 576.923 125.714
398.99 586.538 260.952
398.99 596.154 127.619
398.99 605.769 150.476
398.99 615.385 396.19
398.99 625 363.81
398.99 634.615 320
398.99 644.231 236.19
398.99 653.846 361.905
398.99 663.462 554.286
398.99 673.077 480
398.99 682.692 220.952
398.99 692.308 289.524
398.99 701.923 289.524
398.99 711.538 291.429
398.99 721.154 571.429
398.99 730.769 445.714
404.04 19.2308 950.476
404.04 28.8462 390.476
404.04 38.4615 38.0952
404.04 519.231 314.286
404.04 528.846 535.238
404.04 538.462 542.857
404.04 548.077 127.619
404.04 557.692 152.381
404.04 567.308 184.762
404.04 576.923 127.619
404.04 586.538 152.381
404.04 596.154 306.667
404.04 605.769 150.476
404.04 615.385 320
404.04 625 272.381
404.04 634.615 417.143
404.04 644.231 236.19
404.04 653.846 272.381
404.04 663.462 409.524
404.04 673.077 478.095
404.04 682.692 220.952
404.04 692.308 219.048
404.04 701.923 291.429
404.04 711.538 289.524
404.04 721.154 571.429
404.04 730.769 443.81
409.091 9.61538 659.048
409.091 19.2308 960
409.091 28.8462 302.857
409.091 57.6923 51.4286
409.091 519.231 373.333
409.091 528.846 459.048
409.091 538.462 441.905
409.091 548.077 268.571
409.091 557.692 152.381
409.091 567.308 186.667
409.091 576.923 152.381
409.091 586.538 184.762
409.091 596.154 260.952
409.091 605.769 150.476
409.091 615.385 272.381
409.091 625 272.381
409.091 634.615 363.81
409.091 644.231 342.857
409.091 653.846 272.381
409.091 663.462 409.524
409.091 673.077 552.381
409.091 682.692 478.095
409.091 692.308 219.048
409.091 701.923 220.952
409.091 711.538 287.619
409.091 721.154 569.524
409.091 730.769 441.905
414.141 9.61538 908.571
414.141 19.2308 958.095
414.141 28.8462 57.1429
414.141 57.6923 51.4286
414.141 519.231 352.381
414.141 528.846 436.19
414.141 538.462 550.476
414.141 548.077 266.667
414.141 557.692 312.381
414.141 567.308 184.762
414.141 576.923 152.381
414.141 586.538 150.476
414.141 596.154 150.476
414.141 605.769 304.762
414.141 615.385 274.286
414.141 625 272.381
414.141 634.615 363.81
414.141 644.231 321.905
414.141 653.846 462.857
414.141 663.462 310.476
414.141 673.077 409.524
414.141 682.692 480
414.141 692.308 219.048
414.141 701.923 220.952
414.141 711.538 287.619
414.141 721.154 567.619
414.141 730.769 438.095
419.192 9.61538 950.476
419.192 19.2308 710.476
419.192 28.8462 102.857
419.192 57.6923 47.619
419.192 519.231 356.19
419.192 528.846 588.571
419.192 538.462 643.81
419.192 548.077 184.762
419.192 557.692 184.762
419.192 567.308 377.143
419.192 576.923 150.476
419.192 586.538 150.476
419.192 596.154 152.381
419.192 605.769 150.476
419.192 615.385 403.81
419.192 625 272.381
419.192 634.615 365.714
419.192 644.231 321.905
419.192 653.846 320
419.192 663.462 546.667
419.192 673.077 480
419.192 682.692 478.095
419.192 692.308 377.143
419.192 701.923 219.048
419.192 711.538 285.714
419.192 721.154 563.81
419.192 730.769 400
424.242 0 662.857
424.242 9.61538 923.81
424.242 19.2308 367.619
424.242 28.8462 102.857
424.242 48.0769 43.8095
424.242 519.231 200
424.242 528.846 634.286
424.242 538.462 596.19
424.242 548.077 186.667
424.242 557.692 184.762
424.242 567.308 320
424.242 576.923 476.19
424.242 586.538 182.857
424.242 596.154 127.619
424.242 605.769 127.619
424.242 615.385 274.286
424.242 625 350.476
424.242 634.615 365.714
424.242 644.231 363.81
424.242 653.846 320
424.242 663.462 474.286
424.242 673.077 619.048
424.242 682.692 480
424.242 692.308 480
424.242 701.923 220.952
424.242 711.538 283.81
424.242 721.154 283.81
424.242 730.769 400
429.293 0 872.381
429.293 9.61538 880
429.293 19.2308 120
429.293 28.8462 55.2381
429.293 48.0769 43.8095
429.293 519.231 43.8095
429.293 528.846 645.714
429.293 538.462 596.19
429.293 548.077 152.381
429.293 557.692 234.286
429.293 567.308 320
429.293 576.923 476.19
429.293 586.538 150.476
429.293 596.154 125.714
429.293 605.769 110.476
429.293 615.385 272.381
429.293 625 350.476
429.293 634.615 238.095
429.293 644.231 363.81
429.293 653.846 320
429.293 663.462 476.19
429.293 673.077 476.19
429.293 682.692 620.952
429.293 692.308 481.905
429.293 701.923 220.952
429.293 711.538 283.81
429.293 721.154 283.81
429.293 730.769 400
434.343 0 916.19
434.343 9.61538 771.429
434.343 19.2308 173.333
434.343 28.8462 62.8571
434.343 38.4615 51.4286
434.343 528.846 720
434.343 538.462 596.19
434.343 548.077 154.286
434.343 557.692 150.476
434.343 567.308 320
434.343 576.923 184.762
434.343 586.538 310.476
434.343 596.154 150.476
434.343 605.769 127.619
434.343 615.385 321.905
434.343 625 323.81
434.343 634.615 350.476
434.343 644.231 363.81
434.343 653.846 320
434.343 663.462 474.286
434.343 673.077 476.19
434.343 682.692 619.048
434.343 692.308 480
434.343 701.923 220.952
434.343 711.538 281.905
434.343 721.154 281.905
434.343 730.769 558.095
439.394 0 914.286
439.394 9.61538 720
439.394 19.2308 217.143
439.394 519.231 289.524
439.394 528.846 746.667
439.394 538.462 527.619
439.394 548.077 154.286
439.394 557.692 152.381
439.394 567.308 150.476
439.394 576.923 184.762
439.394 586.538 184.762
439.394 596.154 262.857
439.394 605.769 150.476
439.394 615.385 274.286
439.394 625 323.81
439.394 634.615 348.571
439.394 644.231 363.81
439.394 653.846 320
439.394 663.462 476.19
439.394 673.077 377.143
439.394 682.692 481.905
439.394 692.308 619.048
439.394 701.923 222.857
439.394 711.538 280
439.394 721.154 280
439.394 730.769 556.19
444.444 0 796.19
444.444 9.61538 893.333
444.444 19.2308 424.762
444.444 28.8462 51.4286
444.444 519.231 481.905
444.444 528.846 786.667
444.444 538.462 382.857
444.444 548.077 188.571
444.444 557.692 152.381
444.444 567.308 152.381
444.444 576.923 150.476
444.444 586.538 150.476
444.444 596.154 262.857
444.444 605.769 129.524
444.444 615.385 274.286
444.444 625 321.905
444.444 634.615 274.286
444.444 644.231 474.286
444.444 653.846 388.571
444.444 663.462 474.286
444.444 673.077 377.143
444.444 682.692 480
444.444 692.308 617.143
444.444 701.923 222.857
444.444 711.538 278.095
444.444 721.154 281.905
444.444 730.769 556.19
449.495 9.61538 948.571
449.495 19.2308 579.048
449.495 519.231 537.143
449.495 528.846 779.048
449.495 538.462 272.381
449.495 548.077 321.905
449.495 557.692 320
449.495 567.308 154.286
449.495 576.923 152.381
449.495 586.538 152.381
449.495 596.154 228.571
449.495 605.769 110.476
449.495 615.385 274.286
449.495 625 321.905
449.495 634.615 274.286
449.495 644.231 474.286
449.495 653.846 388.571
449.495 663.462 474.286
449.495 673.077 476.19
449.495 682.692 579.048
449.495 692.308 579.048
449.495 701.923 300.952
449.495 711.538 554.286
449.495 721.154 556.19
449.495 730.769 552.381
454.545 9.61538 855.238
454.545 19.2308 864.762
454.545 28.8462 87.619
454.545 509.615 173.333
454.545 519.231 729.524
454.545 528.846 714.286
454.545 538.462 154.286
454.545 548.077 272.381
454.545 557.692 487.619
454.545 567.308 321.905
454.545 576.923 152.381
454.545 586.538 129.524
454.545 596.154 129.524
454.545 605.769 228.571
454.545 615.385 238.095
454.545 625 274.286
454.545 634.615 419.048
454.545 644.231 417.143
454.545 653.846 565.714
454.545 663.462 474.286
454.545 673.077 579.048
454.545 682.692 649.524
454.545 692.308 476.19
454.545 701.923 300.952
454.545 711.538 424.762
454.545 721.154 424.762
454.545 730.769 422.857
459.596 19.2308 937.143
459.596 28.8462 582.857
459.596 509.615 420.952
459.596 519.231 609.524
459.596 528.846 582.857
459.596 538.462 154.286
459.596 548.077 413.333
459.596 557.692 487.619
459.596 567.308 321.905
459.596 576.923 131.429
459.596 586.538 131.429
459.596 596.154 131.429
459.596 605.769 228.571
459.596 615.385 238.095
459.596 625 274.286
459.596 634.615 419.048
459.596 644.231 320
459.596 653.846 489.524
459.596 663.462 695.238
459.596 673.077 579.048
459.596 682.692 579.048
459.596 692.308 300.952
459.596 701.923 300.952
459.596 711.538 424.762
459.596 721.154 424.762
459.596 730.769 422.857
464.646 19.2308 826.667
464.646 28.8462 820.952
464.646 38.4615 154.286
464.646 115.385 19.0476
464.646 509.615 535.238
464.646 519.231 716.19
464.646 528.846 594.286
464.646 538.462 129.524
464.646 548.077 320
464.646 557.692 320
464.646 567.308 321.905
464.646 576.923 133.333
464.646 586.538 131.429
464.646 596.154 131.429
464.646 605.769 356.19
464.646 615.385 238.095
464.646 625 274.286
464.646 634.615 419.048
464.646 644.231 321.905
464.646 653.846 375.238
464.646 663.462 626.667
464.646 673.077 647.619
464.646 682.692 474.286
464.646 692.308 299.048
464.646 701.923 299.048
464.646 711.538 424.762
464.646 721.154 424.762
464.646 730.769 424.762
469.697 28.8462 902.857
469.697 38.4615 352.381
469.697 105.769 20.9524
469.697 115.385 20.9524
469.697 125 17.1429
469.697 509.615 529.524
469.697 519.231 660.952
469.697 528.846 478.095
469.697 538.462 129.524
469.697 548.077 129.524
469.697 557.692 272.381
469.697 567.308 272.381
469.697 576.923 131.429
469.697 586.538 156.19
469.697 596.154 188.571
469.697 605.769 409.524
469.697 615.385 274.286
469.697 625 417.143
469.697 634.615 417.143
469.697 644.231 321.905
469.697 653.846 472.381
469.697 663.462 575.238
469.697 673.077 752.381
469.697 682.692 297.143
469.697 692.308 297.143
469.697 701.923 297.143
469.697 711.538 424.762
469.697 721.154 424.762
469.697 730.769 424.762
469.697 740.385 422.857
474.747 28.8462 910.476
474.747 38.4615 626.667
474.747 48.0769 123.81
474.747 96.1538 47.619
474.747 105.769 22.8571
474.747 115.385 22.8571
474.747 509.615 428.571
474.747 519.231 714.286
474.747 528.846 548.571
474.747 538.462 127.619
474.747 548.077 129.524
474.747 557.692 129.524
474.747 567.308 129.524
474.747 576.923 129.524
474.747 586.538 154.286
474.747 596.154 323.81
474.747 605.769 407.619
474.747 615.385 320
474.747 625 417.143
474.747 634.615 320
474.747 644.231 388.571
474.747 653.846 373.333
474.747 663.462 575.238
474.747 673.077 720
474.747 682.692 588.571
474.747 692.308 295.238
474.747 701.923 293.333
474.747 711.538 422.857
474.747 721.154 422.857
474.747 730.769 422.857
474.747 740.385 422.857
479.798 28.8462 904.762
479.798 38.4615 626.667
479.798 48.0769 213.333
479.798 105.769 26.6667
479.798 115.385 19.0476
479.798 509.615 192.381
479.798 519.231 689.524
479.798 528.846 592.381
479.798 538.462 127.619
479.798 548.077 127.619
479.798 557.692 129.524
479.798 567.308 129.524
479.798 576.923 129.524
479.798 586.538 321.905
479.798 596.154 321.905
479.798 605.769 476.19
479.798 615.385 485.714
479.798 625 485.714
479.798 634.615 386.667
479.798 644.231 373.333
479.798 653.846 571.429
479.798 663.462 771.429
479.798 673.077 626.667
479.798 682.692 584.762
479.798 692.308 297.143
479.798 701.923 293.333
479.798 711.538 422.857
479.798 721.154 422.857
479.798 730.769 422.857
479.798 740.385 422.857
484.848 28.8462 742.857
484.848 38.4615 857.143
484.848 48.0769 236.19
484.848 509.615 163.81
484.848 519.231 643.81
484.848 528.846 592.381
484.848 538.462 150.476
484.848 548.077 127.619
484.848 557.692 152.381
484.848 567.308 152.381
484.848 576.923 152.381
484.848 586.538 320
484.848 596.154 386.667
484.848 605.769 386.667
484.848 615.385 641.905
484.848 625 384.762
484.848 634.615 382.857
484.848 644.231 468.571
484.848 653.846 769.524
484.848 663.462 712.381
484.848 673.077 449.524
484.848 682.692 451.429
484.848 692.308 586.667
484.848 701.923 419.048
484.848 711.538 420.952
484.848 721.154 422.857
484.848 730.769 422.857
484.848 740.385 422.857
489.899 38.4615 899.048
489.899 48.0769 302.857
489.899 57.6923 28.5714
489.899 509.615 219.048
489.899 519.231 712.381
489.899 528.846 592.381
489.899 538.462 152.381
489.899 548.077 127.619
489.899 557.692 150.476
489.899 567.308 152.381
489.899 576.923 320
489.899 586.538 320
489.899 596.154 384.762
489.899 605.769 584.762
489.899 615.385 640
489.899 625 382.857
489.899 634.615 466.667
489.899 644.231 714.286
489.899 653.846 767.619
489.899 663.462 449.524
489.899 673.077 449.524
489.899 682.692 449.524
489.899 692.308 584.762
489.899 701.923 420.952
489.899 711.538 420.952
489.899 721.154 422.857
489.899 730.769 422.857
489.899 740.385 422.857
494.949 38.4615 870.476
494.949 48.0769 485.714
494.949 57.6923 110.476
494.949 509.615 400
494.949 519.231 689.524
494.949 528.846 592.381
494.949 538.462 150.476
494.949 548.077 150.476
494.949 557.692 125.714
494.949 567.308 150.476
494.949 576.923 320
494.949 586.538 384.762
494.949 596.154 384.762
494.949 605.769 584.762
494.949 615.385 567.619
494.949 625 466.667
494.949 634.615 714.286
494.949 644.231 767.619
494.949 653.846 624.762
494.949 663.462 449.524
494.949 673.077 449.524
494.949 682.692 449.524
494.949 692.308 449.524
494.949 701.923 422.857
494.949 711.538 419.048
494.949 721.154 422.857
494.949 730.769 422.857
494.949 740.385 422.857
500 38.4615 893.333
500 48.0769 657.143
500 57.6923 152.381
500 67.3077 30.4762
500 509.615 500.952
500 519.231 699.048
500 528.846 521.905
500 538.462 152.381
500 548.077 150.476
500 557.692 125.714
500 567.308 270.476
500 576.923 320
500 586.538 384.762
500 596.154 582.857
500 605.769 584.762
500 615.385 466.667
500 625 624.762
500 634.615 712.381
500 644.231 712.381
500 653.846 449.524
500 663.462 449.524
500 673.077 449.524
500 682.692 449.524
500 692.308 449.524
500 701.923 422.857
500 711.538 422.857
500 721.154 422.857
500 730.769 422.857
500 740.385 422.857
505.051 38.4615 792.381
505.051 48.0769 765.714
505.051 57.6923 152.381
505.051 67.3077 186.667
505.051 509.615 478.095
505.051 519.231 740.952
505.051 528.846 478.095
505.051 538.462 150.476
505.051 548.077 182.857
505.051 557.692 150.476
505.051 567.308 270.476
505.051 576.923 384.762
505.051 586.538 483.81
505.051 596.154 582.857
505.051 605.769 318.095
505.051 615.385 466.667
505.051 625 714.286
505.051 634.615 763.81
505.051 644.231 712.381
505.051 653.846 449.524
505.051 663.462 449.524
505.051 673.077 449.524
505.051 682.692 449.524
505.051 692.308 449.524
505.051 701.923 422.857
505.051 711.538 422.857
505.051 721.154 422.857
505.051 730.769 422.857
505.051 740.385 422.857
510.101 38.4615 739.048
510.101 48.0769 716.19
510.101 57.6923 337.143
510.101 67.3077 194.286
510.101 76.9231 28.5714
510.101 509.615 388.571
510.101 519.231 819.048
510.101 528.846 478.095
510.101 538.462 148.571
510.101 548.077 182.857
510.101 557.692 182.857
510.101 567.308 316.19
510.101 576.923 481.905
510.101 586.538 582.857
510.101 596.154 582.857
510.101 605.769 318.095
510.101 615.385 318.095
510.101 625 714.286
510.101 634.615 763.81
510.101 644.231 447.619
510.101 653.846 447.619
510.101 663.462 449.524
510.101 673.077 449.524
510.101 682.692 449.524
510.101 692.308 449.524
510.101 701.923 449.524
510.101 721.154 422.857
510.101 730.769 422.857
515.152 38.4615 655.238
515.152 48.0769 706.667
515.152 57.6923 400
515.152 67.3077 169.524
515.152 76.9231 152.381
515.152 509.615 361.905
515.152 519.231 777.143
515.152 528.846 523.81
515.152 538.462 182.857
515.152 548.077 232.381
515.152 557.692 316.19
515.152 567.308 316.19
515.152 576.923 481.905
515.152 586.538 582.857
515.152 596.154 320
515.152 605.769 321.905
515.152 615.385 320
515.152 625 626.667
515.152 634.615 763.81
515.152 644.231 447.619
515.152 653.846 447.619
515.152 663.462 449.524
515.152 673.077 449.524
515.152 682.692 449.524
515.152 692.308 449.524
515.152 701.923 449.524
520.202 48.0769 809.524
520.202 57.6923 520
520.202 67.3077 321.905
520.202 76.9231 112.381
520.202 86.5385 22.8571
520.202 509.615 314.286
520.202 519.231 615.238
520.202 528.846 523.81
520.202 538.462 150.476
520.202 548.077 182.857
520.202 557.692 382.857
520.202 567.308 481.905
520.202 576.923 481.905
520.202 586.538 580.952
520.202 596.154 320
520.202 605.769 321.905
520.202 615.385 321.905
520.202 625 483.81
520.202 634.615 763.81
520.202 644.231 447.619
520.202 653.846 447.619
520.202 663.462 447.619
520.202 673.077 449.524
520.202 682.692 449.524
520.202 692.308 449.524
520.202 701.923 449.524
525.253 48.0769 740.952
525.253 57.6923 641.905
525.253 67.3077 306.667
525.253 76.9231 139.048
525.253 86.5385 57.1429
525.253 509.615 480
525.253 519.231 628.571
525.253 528.846 523.81
525.253 538.462 182.857
525.253 548.077 182.857
525.253 557.692 316.19
525.253 567.308 481.905
525.253 576.923 481.905
525.253 586.538 580.952
525.253 596.154 318.095
525.253 605.769 320
525.253 615.385 321.905
525.253 625 647.619
525.253 634.615 727.619
525.253 644.231 447.619
525.253 653.846 447.619
525.253 663.462 447.619
525.253 673.077 449.524
525.253 682.692 449.524
525.253 692.308 449.524
525.253 701.923 449.524
530.303 48.0769 739.048
530.303 57.6923 796.19
530.303 67.3077 289.524
530.303 76.9231 186.667
530.303 86.5385 99.0476
