372.727 443.182 33.8983
372.727 454.545 31.7797
372.727 465.909 29.661
372.727 477.273 33.8983
372.727 488.636 40.2542
372.727 500 50.8475
372.727 511.364 46.6102
372.727 522.727 46.6102
372.727 534.091 50.8475
372.727 545.455 44.4915
372.727 556.818 36.0169
372.727 568.182 46.6102
372.727 579.545 50.8475
372.727 590.909 95.339
372.727 602.273 131.356
372.727 613.636 141.949
372.727 625 25.4237
372.727 636.364 36.0169
372.727 647.727 52.9661
372.727 659.091 48.7288
372.727 670.455 48.7288
372.727 681.818 114.407
372.727 693.182 99.5763
372.727 704.545 82.6271
372.727 715.909 36.0169
372.727 727.273 40.2542
372.727 738.636 44.4915
372.727 750 250
372.727 761.364 279.661
372.727 772.727 105.932
372.727 784.091 114.407
372.727 795.455 125
372.727 806.818 135.593
372.727 818.182 317.797
372.727 829.545 211.864
372.727 840.909 519.068
372.727 852.273 546.61
372.727 863.636 364.407
372.727 875 548.729
372.727 886.364 447.034
372.727 897.727 298.729
372.727 909.091 298.729
372.727 920.455 300.847
372.727 931.818 300.847
372.727 943.182 614.407
377.273 68.1818 451.271
377.273 79.5455 449.153
377.273 90.9091 218.22
377.273 102.273 169.492
377.273 113.636 171.61
377.273 125 298.729
377.273 136.364 298.729
377.273 147.727 125
377.273 159.091 230.932
377.273 170.455 281.78
377.273 181.818 519.068
377.273 193.182 201.271
377.273 204.545 48.7288
377.273 215.909 33.8983
377.273 227.273 29.661
377.273 238.636 65.678
377.273 250 63.5593
377.273 261.364 23.3051
377.273 272.727 23.3051
377.273 284.091 23.3051
377.273 295.455 25.4237
377.273 306.818 25.4237
377.273 318.182 31.7797
377.273 329.545 44.4915
377.273 340.909 40.2542
377.273 352.273 33.8983
377.273 363.636 42.3729
377.273 375 40.2542
377.273 386.364 48.7288
377.273 397.727 118.644
377.273 409.091 150.424
377.273 420.455 42.3729
377.273 431.818 36.0169
377.273 443.182 29.661
377.273 454.545 23.3051
377.273 465.909 29.661
377.273 477.273 36.0169
377.273 488.636 42.3729
377.273 500 57.2034
377.273 511.364 50.8475
377.273 522.727 50.8475
377.273 534.091 46.6102
377.273 545.455 42.3729
377.273 556.818 40.2542
377.273 568.182 50.8475
377.273 579.545 36.0169
377.273 590.909 88.9831
377.273 602.273 148.305
377.273 613.636 127.119
377.273 625 31.7797
377.273 636.364 31.7797
377.273 647.727 44.4915
377.273 659.091 52.9661
377.273 670.455 59.322
377.273 681.818 52.9661
377.273 693.182 48.7288
377.273 704.545 82.6271
377.273 715.909 80.5085
377.273 727.273 40.2542
377.273 738.636 105.932
377.273 750 266.949
377.273 761.364 243.644
377.273 772.727 114.407
377.273 784.091 133.475
377.273 795.455 125
377.273 806.818 148.305
377.273 818.182 317.797
377.273 829.545 360.169
377.273 840.909 519.068
377.273 852.273 648.305
377.273 863.636 470.339
377.273 875 550.847
377.273 886.364 298.729
377.273 897.727 298.729
377.273 909.091 298.729
377.273 920.455 298.729
377.273 931.818 453.39
377.273 943.182 453.39
381.818 56.8182 447.034
381.818 68.1818 449.153
381.818 79.5455 449.153
381.818 90.9091 216.102
381.818 102.273 169.492
381.818 113.636 296.61
381.818 125 298.729
381.818 136.364 125
381.818 147.727 228.814
381.818 159.091 228.814
381.818 170.455 260.593
381.818 181.818 491.525
381.818 193.182 241.525
381.818 204.545 48.7288
381.818 215.909 38.1356
381.818 227.273 65.678
381.818 238.636 61.4407
381.818 250 23.3051
381.818 261.364 21.1864
381.818 272.727 23.3051
381.818 284.091 23.3051
381.818 295.455 27.5424
381.818 306.818 23.3051
381.818 318.182 27.5424
381.818 329.545 31.7797
381.818 340.909 29.661
381.818 352.273 33.8983
381.818 363.636 33.8983
381.818 375 42.3729
381.818 386.364 57.2034
381.818 397.727 50.8475
381.818 409.091 139.831
381.818 420.455 50.8475
381.818 431.818 42.3729
381.818 443.182 31.7797
381.818 454.545 31.7797
381.818 465.909 31.7797
381.818 477.273 42.3729
381.818 488.636 50.8475
381.818 500 42.3729
381.818 511.364 46.6102
381.818 522.727 46.6102
381.818 534.091 46.6102
381.818 545.455 42.3729
381.818 556.818 46.6102
381.818 568.182 46.6102
381.818 579.545 36.0169
381.818 590.909 36.0169
381.818 602.273 139.831
381.818 613.636 127.119
381.818 625 36.0169
381.818 636.364 29.661
381.818 647.727 33.8983
381.818 659.091 38.1356
381.818 670.455 42.3729
381.818 681.818 44.4915
381.818 693.182 50.8475
381.818 704.545 36.0169
381.818 715.909 78.3898
381.818 727.273 84.7458
381.818 738.636 152.542
381.818 750 281.78
381.818 761.364 203.39
381.818 772.727 105.932
381.818 784.091 122.881
381.818 795.455 114.407
381.818 806.818 125
381.818 818.182 250
381.818 829.545 442.797
381.818 840.909 281.78
381.818 852.273 580.508
381.818 863.636 546.61
381.818 875 550.847
381.818 886.364 457.627
381.818 897.727 453.39
381.818 909.091 453.39
381.818 920.455 453.39
381.818 931.818 453.39
381.818 943.182 453.39
386.364 56.8182 444.915
386.364 68.1818 447.034
386.364 79.5455 447.034
386.364 90.9091 169.492
386.364 102.273 169.492
386.364 113.636 296.61
386.364 125 122.881
386.364 136.364 122.881
386.364 147.727 228.814
386.364 159.091 188.559
386.364 170.455 237.288
386.364 181.818 586.864
386.364 193.182 201.271
386.364 204.545 40.2542
386.364 215.909 74.1525
386.364 227.273 69.9153
386.364 238.636 23.3051
386.364 250 25.4237
386.364 261.364 21.1864
386.364 272.727 25.4237
386.364 284.091 23.3051
386.364 295.455 27.5424
386.364 306.818 25.4237
386.364 318.182 27.5424
386.364 329.545 31.7797
386.364 340.909 27.5424
386.364 352.273 27.5424
386.364 363.636 42.3729
386.364 375 52.9661
386.364 386.364 57.2034
386.364 397.727 161.017
386.364 409.091 188.559
386.364 420.455 50.8475
386.364 431.818 42.3729
386.364 443.182 33.8983
386.364 454.545 31.7797
386.364 465.909 44.4915
386.364 477.273 46.6102
386.364 488.636 46.6102
386.364 500 46.6102
386.364 511.364 50.8475
386.364 522.727 46.6102
386.364 534.091 42.3729
386.364 545.455 44.4915
386.364 556.818 44.4915
386.364 568.182 48.7288
386.364 579.545 38.1356
386.364 590.909 84.7458
386.364 602.273 139.831
386.364 613.636 139.831
386.364 625 110.169
386.364 636.364 42.3729
386.364 647.727 29.661
386.364 659.091 36.0169
386.364 670.455 36.0169
386.364 681.818 55.0847
386.364 693.182 59.322
386.364 704.545 44.4915
386.364 715.909 38.1356
386.364 727.273 44.4915
386.364 738.636 131.356
386.364 750 300.847
386.364 761.364 99.5763
386.364 772.727 105.932
386.364 784.091 116.525
386.364 795.455 125
386.364 806.818 125
386.364 818.182 190.678
386.364 829.545 375
386.364 840.909 252.119
386.364 852.273 536.017
386.364 863.636 733.051
386.364 875 752.119
386.364 886.364 614.407
386.364 897.727 453.39
386.364 909.091 453.39
386.364 920.455 453.39
386.364 931.818 453.39
386.364 943.182 453.39
390.909 56.8182 440.678
390.909 68.1818 442.797
390.909 79.5455 444.915
390.909 90.9091 171.61
390.909 102.273 296.61
390.909 113.636 254.237
390.909 125 122.881
390.909 136.364 105.932
390.909 147.727 201.271
390.909 159.091 188.559
390.909 170.455 239.407
390.909 181.818 540.254
390.909 193.182 48.7288
390.909 204.545 40.2542
390.909 215.909 74.1525
390.909 227.273 25.4237
390.909 238.636 23.3051
390.909 250 23.3051
390.909 261.364 23.3051
390.909 272.727 25.4237
390.909 284.091 29.661
390.909 295.455 25.4237
390.909 306.818 23.3051
390.909 318.182 27.5424
390.909 329.545 31.7797
390.909 340.909 33.8983
390.909 352.273 42.3729
390.909 363.636 146.186
390.909 375 161.017
390.909 386.364 154.661
390.909 397.727 226.695
390.909 409.091 72.0339
390.909 420.455 42.3729
390.909 431.818 42.3729
390.909 443.182 31.7797
390.909 454.545 31.7797
390.909 465.909 44.4915
390.909 477.273 36.0169
390.909 488.636 42.3729
390.909 500 46.6102
390.909 511.364 57.2034
390.909 522.727 40.2542
390.909 534.091 44.4915
390.909 545.455 44.4915
390.909 556.818 57.2034
390.909 568.182 48.7288
390.909 579.545 42.3729
390.909 590.909 99.5763
390.909 602.273 95.339
390.909 613.636 150.424
390.909 625 101.695
390.909 636.364 50.8475
390.909 647.727 44.4915
390.909 659.091 36.0169
390.909 670.455 40.2542
390.909 681.818 57.2034
390.909 693.182 57.2034
390.909 704.545 42.3729
390.909 715.909 38.1356
390.909 727.273 42.3729
390.909 738.636 97.4576
390.909 750 277.542
390.909 761.364 205.508
390.909 772.727 108.051
390.909 784.091 127.119
390.909 795.455 148.305
390.909 806.818 190.678
390.909 818.182 190.678
390.909 829.545 338.983
390.909 840.909 313.559
390.909 852.273 194.915
390.909 863.636 650.424
390.909 875 828.39
390.909 886.364 690.678
390.909 897.727 455.508
390.909 909.091 455.508
390.909 920.455 455.508
390.909 931.818 455.508
390.909 943.182 453.39
395.455 56.8182 436.441
395.455 68.1818 440.678
395.455 79.5455 444.915
395.455 90.9091 296.61
395.455 102.273 252.119
395.455 113.636 122.881
395.455 125 125
395.455 136.364 199.153
395.455 147.727 180.085
395.455 159.091 169.492
395.455 170.455 436.441
395.455 181.818 495.763
395.455 193.182 42.3729
395.455 204.545 84.7458
395.455 215.909 78.3898
395.455 227.273 29.661
395.455 238.636 25.4237
395.455 250 23.3051
395.455 261.364 25.4237
395.455 272.727 25.4237
395.455 284.091 29.661
395.455 295.455 23.3051
395.455 306.818 21.1864
395.455 318.182 31.7797
395.455 329.545 74.1525
395.455 340.909 80.5085
395.455 352.273 97.4576
395.455 363.636 122.881
395.455 375 63.5593
395.455 386.364 122.881
395.455 397.727 161.017
395.455 409.091 63.5593
395.455 420.455 52.9661
395.455 431.818 40.2542
395.455 443.182 31.7797
395.455 454.545 74.1525
395.455 465.909 88.9831
395.455 477.273 84.7458
395.455 488.636 88.9831
395.455 500 88.9831
395.455 511.364 48.7288
395.455 522.727 46.6102
395.455 534.091 55.0847
395.455 545.455 52.9661
395.455 556.818 59.322
395.455 568.182 52.9661
395.455 579.545 52.9661
395.455 590.909 55.0847
395.455 602.273 105.932
395.455 613.636 105.932
395.455 625 103.814
395.455 636.364 52.9661
395.455 647.727 33.8983
395.455 659.091 33.8983
395.455 670.455 33.8983
395.455 681.818 48.7288
395.455 693.182 44.4915
395.455 704.545 40.2542
395.455 715.909 40.2542
395.455 727.273 46.6102
395.455 738.636 93.2203
395.455 750 260.593
395.455 761.364 194.915
395.455 772.727 184.322
395.455 784.091 207.627
395.455 795.455 190.678
395.455 806.818 205.508
395.455 818.182 122.881
395.455 829.545 266.949
395.455 840.909 313.559
395.455 852.273 220.339
395.455 863.636 309.322
395.455 875 735.169
395.455 886.364 796.61
395.455 897.727 455.508
395.455 909.091 455.508
395.455 920.455 457.627
395.455 931.818 457.627
395.455 943.182 455.508
400 68.1818 438.559
400 79.5455 540.254
400 90.9091 296.61
400 102.273 125
400 113.636 108.051
400 125 105.932
400 136.364 177.966
400 147.727 169.492
400 159.091 154.661
400 170.455 413.136
400 181.818 279.661
400 193.182 84.7458
400 204.545 88.9831
400 215.909 36.0169
400 227.273 29.661
400 238.636 23.3051
400 250 25.4237
400 261.364 23.3051
400 272.727 67.7966
400 284.091 80.5085
400 295.455 57.2034
400 306.818 61.4407
400 318.182 72.0339
400 329.545 84.7458
400 340.909 40.2542
400 352.273 36.0169
400 363.636 48.7288
400 375 52.9661
400 386.364 97.4576
400 397.727 59.322
400 409.091 50.8475
400 420.455 44.4915
400 431.818 36.0169
400 443.182 78.3898
400 454.545 78.3898
400 465.909 40.2542
400 477.273 38.1356
400 488.636 40.2542
400 500 82.6271
400 511.364 97.4576
400 522.727 91.1017
400 534.091 93.2203
400 545.455 95.339
400 556.818 57.2034
400 568.182 61.4407
400 579.545 52.9661
400 590.909 57.2034
400 602.273 101.695
400 613.636 97.4576
400 625 154.661
400 636.364 57.2034
400 647.727 44.4915
400 659.091 40.2542
400 670.455 36.0169
400 681.818 38.1356
400 693.182 44.4915
400 704.545 40.2542
400 715.909 40.2542
400 727.273 40.2542
400 738.636 88.9831
400 750 262.712
400 761.364 211.864
400 772.727 262.712
400 784.091 260.593
400 795.455 135.593
400 806.818 133.475
400 818.182 192.797
400 829.545 264.831
400 840.909 313.559
400 852.273 192.797
400 863.636 192.797
400 875 608.051
400 886.364 826.271
400 897.727 457.627
400 909.091 457.627
400 920.455 457.627
400 931.818 457.627
400 943.182 457.627
404.545 68.1818 436.441
404.545 79.5455 605.932
404.545 90.9091 296.61
404.545 102.273 228.814
404.545 113.636 108.051
404.545 125 93.2203
404.545 136.364 254.237
404.545 147.727 76.2712
404.545 159.091 218.22
404.545 170.455 381.356
404.545 181.818 264.831
404.545 193.182 91.1017
404.545 204.545 42.3729
404.545 215.909 38.1356
404.545 227.273 25.4237
404.545 238.636 25.4237
404.545 250 25.4237
404.545 261.364 61.4407
404.545 272.727 63.5593
404.545 284.091 25.4237
404.545 295.455 21.1864
404.545 306.818 25.4237
404.545 318.182 33.8983
404.545 329.545 44.4915
404.545 340.909 31.7797
404.545 352.273 29.661
404.545 363.636 44.4915
404.545 375 46.6102
404.545 386.364 97.4576
404.545 397.727 52.9661
404.545 409.091 38.1356
404.545 420.455 33.8983
404.545 431.818 74.1525
404.545 443.182 69.9153
404.545 454.545 27.5424
404.545 465.909 31.7797
404.545 477.273 29.661
404.545 488.636 40.2542
404.545 500 48.7288
404.545 511.364 46.6102
404.545 522.727 44.4915
404.545 534.091 46.6102
404.545 545.455 95.339
404.545 556.818 101.695
404.545 568.182 99.5763
404.545 579.545 55.0847
404.545 590.909 52.9661
404.545 602.273 48.7288
404.545 613.636 52.9661
404.545 625 167.373
404.545 636.364 99.5763
404.545 647.727 86.8644
404.545 659.091 36.0169
404.545 670.455 36.0169
404.545 681.818 36.0169
404.545 693.182 36.0169
404.545 704.545 40.2542
404.545 715.909 36.0169
404.545 727.273 42.3729
404.545 738.636 135.593
404.545 750 262.712
404.545 761.364 226.695
404.545 772.727 125
404.545 784.091 192.797
404.545 795.455 133.475
404.545 806.818 135.593
404.545 818.182 192.797
404.545 829.545 286.017
404.545 840.909 311.441
404.545 852.273 220.339
404.545 863.636 192.797
404.545 875 421.61
404.545 886.364 838.983
404.545 897.727 612.288
404.545 909.091 457.627
404.545 920.455 457.627
404.545 931.818 457.627
404.545 943.182 457.627
409.091 68.1818 593.22
409.091 79.5455 601.695
409.091 90.9091 125
409.091 102.273 230.932
409.091 113.636 95.339
409.091 125 254.237
409.091 136.364 163.136
409.091 147.727 76.2712
409.091 159.091 300.847
409.091 170.455 324.153
409.091 181.818 290.254
409.091 193.182 36.0169
409.091 204.545 40.2542
409.091 215.909 38.1356
409.091 227.273 27.5424
409.091 238.636 23.3051
409.091 250 63.5593
409.091 261.364 69.9153
409.091 272.727 23.3051
409.091 284.091 21.1864
409.091 295.455 23.3051
409.091 306.818 25.4237
409.091 318.182 36.0169
409.091 329.545 33.8983
409.091 340.909 29.661
409.091 352.273 33.8983
409.091 363.636 42.3729
409.091 375 46.6102
409.091 386.364 105.932
409.091 397.727 59.322
409.091 409.091 44.4915
409.091 420.455 82.6271
409.091 431.818 63.5593
409.091 443.182 27.5424
409.091 454.545 29.661
409.091 500 40.2542
409.091 511.364 61.4407
409.091 522.727 48.7288
409.091 534.091 44.4915
409.091 545.455 50.8475
409.091 556.818 50.8475
409.091 568.182 99.5763
409.091 579.545 84.7458
409.091 590.909 88.9831
409.091 602.273 52.9661
409.091 613.636 52.9661
409.091 625 103.814
409.091 636.364 48.7288
409.091 647.727 78.3898
409.091 659.091 76.2712
409.091 670.455 33.8983
409.091 681.818 44.4915
409.091 693.182 36.0169
409.091 704.545 36.0169
409.091 715.909 38.1356
409.091 727.273 40.2542
409.091 738.636 144.068
409.091 750 300.847
409.091 761.364 226.695
409.091 772.727 114.407
409.091 784.091 167.373
409.091 795.455 180.085
409.091 806.818 125
409.091 818.182 180.085
409.091 829.545 286.017
409.091 840.909 311.441
409.091 852.273 197.034
409.091 863.636 218.22
409.091 875 216.102
409.091 886.364 703.39
409.091 897.727 612.288
409.091 909.091 457.627
409.091 920.455 457.627
409.091 931.818 457.627
409.091 943.182 457.627
413.636 68.1818 591.102
413.636 79.5455 444.915
413.636 90.9091 127.119
413.636 102.273 108.051
413.636 113.636 283.898
413.636 125 161.017
413.636 136.364 76.2712
413.636 147.727 76.2712
413.636 159.091 379.237
413.636 170.455 305.085
413.636 181.818 192.797
413.636 193.182 36.0169
413.636 204.545 36.0169
413.636 215.909 29.661
413.636 227.273 25.4237
413.636 238.636 57.2034
413.636 250 69.9153
413.636 261.364 31.7797
413.636 272.727 23.3051
413.636 284.091 21.1864
413.636 295.455 23.3051
413.636 306.818 33.8983
413.636 318.182 36.0169
413.636 329.545 25.4237
413.636 340.909 27.5424
413.636 352.273 27.5424
413.636 363.636 36.0169
413.636 375 46.6102
413.636 386.364 103.814
413.636 397.727 52.9661
413.636 409.091 103.814
413.636 420.455 84.7458
413.636 431.818 29.661
413.636 511.364 2.11864
413.636 522.727 10.5932
413.636 534.091 46.6102
413.636 545.455 40.2542
413.636 556.818 46.6102
413.636 568.182 46.6102
413.636 579.545 44.4915
413.636 590.909 88.9831
413.636 602.273 131.356
413.636 613.636 101.695
413.636 625 139.831
413.636 636.364 52.9661
413.636 647.727 36.0169
413.636 659.091 76.2712
413.636 670.455 72.0339
413.636 681.818 72.0339
413.636 693.182 36.0169
413.636 704.545 29.661
413.636 715.909 31.7797
413.636 727.273 38.1356
413.636 738.636 105.932
413.636 750 330.508
413.636 761.364 156.78
413.636 772.727 114.407
413.636 784.091 114.407
413.636 795.455 167.373
413.636 806.818 114.407
413.636 818.182 180.085
413.636 829.545 286.017
413.636 840.909 311.441
413.636 852.273 175.847
413.636 863.636 218.22
413.636 875 250
413.636 886.364 703.39
413.636 897.727 612.288
413.636 909.091 457.627
413.636 920.455 457.627
413.636 931.818 457.627
413.636 943.182 457.627
418.182 56.8182 427.966
418.182 68.1818 588.983
418.182 79.5455 442.797
418.182 90.9091 125
418.182 102.273 205.508
418.182 113.636 256.356
418.182 125 78.3898
418.182 136.364 76.2712
418.182 147.727 78.3898
418.182 159.091 358.051
418.182 170.455 309.322
418.182 181.818 171.61
418.182 193.182 36.0169
418.182 204.545 38.1356
418.182 215.909 29.661
418.182 227.273 27.5424
418.182 238.636 59.322
418.182 250 25.4237
418.182 261.364 31.7797
418.182 272.727 21.1864
418.182 284.091 21.1864
418.182 295.455 25.4237
418.182 306.818 31.7797
418.182 318.182 40.2542
418.182 329.545 27.5424
418.182 340.909 27.5424
418.182 352.273 33.8983
418.182 363.636 44.4915
418.182 375 52.9661
418.182 386.364 103.814
418.182 397.727 101.695
418.182 409.091 95.339
418.182 420.455 38.1356
418.182 431.818 42.3729
418.182 511.364 0
418.182 522.727 4.23729
418.182 534.091 2.11864
418.182 545.455 0
418.182 556.818 0
418.182 568.182 38.1356
418.182 579.545 36.0169
418.182 590.909 42.3729
418.182 602.273 175.847
418.182 613.636 182.203
418.182 625 80.5085
418.182 636.364 50.8475
418.182 647.727 33.8983
418.182 659.091 27.5424
418.182 670.455 31.7797
418.182 681.818 67.7966
418.182 693.182 72.0339
418.182 704.545 29.661
418.182 715.909 31.7797
418.182 727.273 36.0169
418.182 738.636 93.2203
418.182 750 375
418.182 761.364 116.525
418.182 772.727 105.932
418.182 784.091 114.407
418.182 795.455 167.373
418.182 806.818 167.373
418.182 818.182 180.085
418.182 829.545 288.136
418.182 840.909 311.441
418.182 852.273 250
418.182 863.636 218.22
418.182 875 404.661
418.182 886.364 701.271
418.182 897.727 612.288
418.182 909.091 457.627
418.182 920.455 457.627
418.182 931.818 457.627
422.727 56.8182 427.966
422.727 68.1818 288.136
422.727 79.5455 440.678
422.727 90.9091 122.881
422.727 102.273 279.661
422.727 113.636 163.136
422.727 125 78.3898
422.727 136.364 78.3898
422.727 147.727 203.39
422.727 159.091 417.373
422.727 170.455 239.407
422.727 181.818 29.661
422.727 193.182 31.7797
422.727 204.545 42.3729
422.727 215.909 88.9831
422.727 227.273 69.9153
422.727 238.636 59.322
422.727 250 27.5424
422.727 261.364 31.7797
422.727 272.727 25.4237
422.727 284.091 23.3051
422.727 295.455 23.3051
422.727 306.818 25.4237
422.727 318.182 33.8983
422.727 329.545 33.8983
422.727 340.909 36.0169
422.727 352.273 40.2542
422.727 363.636 59.322
422.727 375 127.119
422.727 386.364 86.8644
422.727 397.727 82.6271
422.727 409.091 33.8983
422.727 420.455 42.3729
422.727 522.727 0
422.727 534.091 0
422.727 545.455 0
422.727 556.818 0
422.727 568.182 0
422.727 579.545 33.8983
422.727 590.909 78.3898
422.727 602.273 131.356
422.727 613.636 161.017
422.727 625 69.9153
422.727 636.364 44.4915
422.727 647.727 31.7797
422.727 659.091 27.5424
422.727 670.455 23.3051
422.727 681.818 25.4237
422.727 693.182 72.0339
422.727 704.545 65.678
422.727 715.909 31.7797
422.727 727.273 31.7797
422.727 738.636 93.2203
422.727 750 391.949
422.727 761.364 116.525
422.727 772.727 105.932
422.727 784.091 108.051
422.727 795.455 105.932
422.727 806.818 167.373
422.727 818.182 122.881
422.727 829.545 264.831
422.727 840.909 336.864
422.727 852.273 311.441
422.727 863.636 300.847
422.727 875 406.78
422.727 886.364 582.627
422.727 897.727 614.407
422.727 909.091 457.627
422.727 920.455 457.627
422.727 931.818 457.627
427.273 56.8182 427.966
427.273 68.1818 440.678
427.273 79.5455 436.441
427.273 90.9091 375
427.273 102.273 277.542
427.273 113.636 78.3898
427.273 125 78.3898
427.273 136.364 78.3898
427.273 147.727 341.102
427.273 159.091 419.492
427.273 170.455 167.373
427.273 181.818 72.0339
427.273 193.182 74.1525
427.273 204.545 80.5085
427.273 215.909 125
427.273 227.273 103.814
427.273 238.636 21.1864
427.273 250 23.3051
427.273 261.364 27.5424
427.273 272.727 29.661
427.273 284.091 23.3051
427.273 295.455 27.5424
427.273 306.818 27.5424
427.273 318.182 40.2542
427.273 329.545 74.1525
427.273 340.909 95.339
427.273 352.273 97.4576
427.273 363.636 105.932
427.273 375 110.169
427.273 386.364 33.8983
427.273 397.727 74.1525
427.273 409.091 36.0169
427.273 534.091 0
427.273 545.455 2.11864
427.273 556.818 0
427.273 568.182 2.11864
427.273 590.909 112.288
427.273 602.273 108.051
427.273 613.636 161.017
427.273 625 69.9153
427.273 636.364 42.3729
427.273 647.727 27.5424
427.273 659.091 27.5424
427.273 670.455 21.1864
427.273 681.818 21.1864
427.273 693.182 25.4237
427.273 704.545 63.5593
427.273 715.909 72.0339
427.273 727.273 33.8983
427.273 738.636 88.9831
427.273 750 417.373
427.273 761.364 169.492
427.273 772.727 108.051
427.273 784.091 108.051
427.273 795.455 108.051
427.273 806.818 167.373
427.273 818.182 177.966
427.273 829.545 192.797
427.273 840.909 264.831
427.273 852.273 427.966
427.273 863.636 343.22
427.273 875 406.78
427.273 886.364 582.627
427.273 897.727 614.407
427.273 909.091 614.407
427.273 920.455 457.627
431.818 68.1818 703.39
431.818 79.5455 436.441
431.818 90.9091 375
431.818 102.273 88.9831
431.818 113.636 78.3898
431.818 125 78.3898
431.818 136.364 78.3898
431.818 147.727 370.763
431.818 159.091 351.695
431.818 170.455 180.085
431.818 181.818 80.5085
431.818 193.182 76.2712
431.818 204.545 125
431.818 215.909 163.136
431.818 227.273 105.932
431.818 238.636 27.5424
431.818 250 21.1864
431.818 261.364 25.4237
431.818 272.727 25.4237
431.818 284.091 21.1864
431.818 295.455 31.7797
431.818 306.818 25.4237
431.818 318.182 80.5085
431.818 329.545 84.7458
431.818 340.909 57.2034
431.818 352.273 57.2034
431.818 363.636 63.5593
431.818 375 31.7797
431.818 386.364 67.7966
431.818 397.727 69.9153
431.818 409.091 29.661
431.818 545.455 0
431.818 590.909 57.2034
431.818 602.273 108.051
431.818 613.636 199.153
431.818 625 59.322
431.818 636.364 31.7797
431.818 647.727 29.661
431.818 659.091 27.5424
431.818 670.455 25.4237
431.818 681.818 23.3051
431.818 693.182 25.4237
431.818 704.545 21.1864
431.818 715.909 67.7966
431.818 727.273 76.2712
431.818 738.636 86.8644
431.818 750 366.525
431.818 761.364 205.508
431.818 772.727 108.051
431.818 784.091 108.051
431.818 795.455 108.051
431.818 806.818 108.051
431.818 818.182 180.085
431.818 829.545 180.085
431.818 840.909 288.136
431.818 852.273 360.169
431.818 863.636 421.61
431.818 875 404.661
431.818 886.364 735.169
431.818 897.727 298.729
431.818 909.091 614.407
436.364 56.8182 656.78
436.364 68.1818 701.271
436.364 79.5455 330.508
436.364 90.9091 375
436.364 102.273 91.1017
436.364 113.636 80.5085
436.364 125 74.1525
436.364 136.364 148.305
436.364 147.727 451.271
436.364 159.091 385.593
436.364 170.455 76.2712
436.364 181.818 141.949
436.364 193.182 133.475
436.364 204.545 171.61
436.364 215.909 127.119
436.364 227.273 84.7458
436.364 238.636 69.9153
436.364 250 23.3051
436.364 261.364 23.3051
436.364 272.727 21.1864
436.364 284.091 25.4237
436.364 295.455 65.678
436.364 306.818 69.9153
436.364 318.182 91.1017
436.364 329.545 36.0169
436.364 340.909 42.3729
436.364 352.273 57.2034
436.364 363.636 50.8475
436.364 375 40.2542
436.364 386.364 61.4407
436.364 397.727 27.5424
436.364 409.091 29.661
436.364 590.909 25.4237
436.364 602.273 59.322
436.364 613.636 188.559
436.364 625 48.7288
436.364 636.364 33.8983
436.364 647.727 21.1864
436.364 659.091 27.5424
436.364 670.455 25.4237
436.364 681.818 25.4237
436.364 693.182 29.661
436.364 704.545 25.4237
436.364 715.909 25.4237
436.364 727.273 29.661
436.364 738.636 84.7458
436.364 750 349.576
436.364 761.364 266.949
436.364 772.727 108.051
436.364 784.091 116.525
436.364 795.455 116.525
436.364 806.818 116.525
436.364 818.182 177.966
436.364 829.545 279.661
436.364 840.909 389.831
436.364 852.273 336.864
436.364 863.636 423.729
436.364 875 478.814
436.364 886.364 582.627
436.364 897.727 644.068
436.364 909.091 455.508
440.909 56.8182 654.661
440.909 68.1818 341.102
440.909 79.5455 250
440.909 90.9091 275.424
440.909 102.273 91.1017
440.909 113.636 82.6271
440.909 125 74.1525
440.909 136.364 224.576
440.909 147.727 474.576
440.909 159.091 326.271
440.909 170.455 97.4576
440.909 181.818 148.305
440.909 193.182 144.068
440.909 204.545 133.475
440.909 215.909 133.475
440.909 227.273 148.305
440.909 238.636 105.932
440.909 250 23.3051
440.909 261.364 19.0678
440.909 272.727 55.0847
440.909 284.091 61.4407
440.909 295.455 63.5593
440.909 306.818 29.661
440.909 318.182 44.4915
440.909 329.545 44.4915
440.909 340.909 42.3729
440.909 352.273 50.8475
440.909 363.636 42.3729
440.909 375 27.5424
440.909 386.364 65.678
440.909 397.727 33.8983
440.909 409.091 31.7797
440.909 602.273 31.7797
440.909 613.636 211.864
440.909 625 44.4915
440.909 636.364 31.7797
440.909 647.727 23.3051
440.909 659.091 25.4237
440.909 670.455 25.4237
440.909 681.818 23.3051
440.909 693.182 27.5424
440.909 704.545 29.661
440.909 715.909 25.4237
440.909 727.273 27.5424
440.909 738.636 33.8983
440.909 750 336.864
440.909 761.364 345.339
440.909 772.727 156.78
440.909 784.091 116.525
440.909 795.455 127.119
440.909 806.818 190.678
440.909 818.182 177.966
440.909 829.545 258.475
440.909 840.909 313.559
440.909 852.273 279.661
440.909 863.636 355.932
440.909 875 309.322
440.909 886.364 578.39
440.909 897.727 644.068
440.909 909.091 457.627
445.455 45.4545 425.847
445.455 56.8182 652.542
445.455 68.1818 338.983
445.455 79.5455 250
445.455 90.9091 277.542
445.455 102.273 88.9831
445.455 113.636 82.6271
445.455 125 245.763
445.455 136.364 224.576
445.455 147.727 449.153
445.455 159.091 277.542
445.455 170.455 146.186
445.455 181.818 103.814
445.455 193.182 144.068
445.455 204.545 101.695
445.455 215.909 112.288
445.455 227.273 112.288
445.455 238.636 74.1525
445.455 250 63.5593
445.455 261.364 63.5593
445.455 272.727 59.322
445.455 284.091 21.1864
445.455 295.455 23.3051
445.455 306.818 29.661
445.455 318.182 38.1356
445.455 329.545 36.0169
445.455 340.909 42.3729
445.455 352.273 46.6102
445.455 363.636 29.661
445.455 375 29.661
445.455 386.364 74.1525
445.455 397.727 38.1356
445.455 409.091 38.1356
445.455 613.636 139.831
445.455 625 97.4576
445.455 636.364 65.678
445.455 647.727 23.3051
445.455 659.091 23.3051
445.455 670.455 27.5424
445.455 681.818 25.4237
445.455 693.182 29.661
445.455 704.545 36.0169
445.455 715.909 27.5424
445.455 727.273 29.661
445.455 738.636 38.1356
445.455 750 271.186
445.455 761.364 375
445.455 772.727 169.492
445.455 784.091 169.492
445.455 795.455 190.678
445.455 806.818 190.678
445.455 818.182 137.712
445.455 829.545 209.746
445.455 840.909 394.068
445.455 852.273 279.661
445.455 863.636 355.932
445.455 875 144.068
445.455 886.364 578.39
445.455 897.727 644.068
445.455 909.091 457.627
450 45.4545 572.034
450 56.8182 430.085
450 68.1818 207.627
450 79.5455 377.119
450 90.9091 275.424
450 102.273 82.6271
450 113.636 82.6271
450 125 224.576
450 136.364 182.203
450 147.727 411.017
450 159.091 375
450 170.455 156.78
450 181.818 192.797
450 193.182 182.203
450 204.545 133.475
450 215.909 148.305
450 227.273 148.305
450 238.636 112.288
450 250 118.644
450 261.364 23.3051
450 272.727 25.4237
450 284.091 21.1864
450 295.455 19.0678
450 306.818 27.5424
450 318.182 33.8983
450 329.545 40.2542
450 340.909 36.0169
450 352.273 36.0169
450 363.636 29.661
450 375 33.8983
450 386.364 74.1525
450 397.727 42.3729
450 409.091 38.1356
450 602.273 23.3051
450 613.636 99.5763
450 625 31.7797
450 636.364 65.678
450 647.727 59.322
450 659.091 21.1864
450 670.455 23.3051
450 681.818 23.3051
450 693.182 27.5424
450 704.545 33.8983
450 715.909 25.4237
450 727.273 29.661
450 738.636 42.3729
450 750 197.034
450 761.364 362.288
450 772.727 247.881
450 784.091 226.695
450 795.455 177.966
450 806.818 127.119
450 818.182 137.712
450 829.545 209.746
450 840.909 394.068
450 852.273 203.39
450 863.636 355.932
450 875 144.068
450 886.364 580.508
450 897.727 644.068
450 909.091 644.068
454.545 45.4545 569.915
454.545 56.8182 205.508
454.545 68.1818 205.508
454.545 79.5455 447.034
454.545 90.9091 275.424
454.545 102.273 82.6271
454.545 113.636 84.7458
454.545 125 224.576
454.545 136.364 254.237
454.545 147.727 366.525
454.545 159.091 423.729
454.545 170.455 235.169
454.545 181.818 190.678
454.545 193.182 91.1017
454.545 204.545 76.2712
454.545 215.909 127.119
454.545 227.273 199.153
454.545 238.636 116.525
454.545 250 129.237
454.545 261.364 27.5424
454.545 272.727 21.1864
454.545 284.091 21.1864
454.545 295.455 23.3051
454.545 306.818 29.661
454.545 318.182 33.8983
454.545 329.545 36.0169
454.545 340.909 44.4915
454.545 352.273 33.8983
454.545 363.636 40.2542
454.545 375 31.7797
454.545 386.364 91.1017
454.545 397.727 84.7458
454.545 602.273 21.1864
454.545 613.636 59.322
454.545 625 44.4915
454.545 636.364 33.8983
454.545 647.727 59.322
454.545 659.091 59.322
454.545 670.455 23.3051
454.545 681.818 23.3051
454.545 693.182 23.3051
454.545 704.545 21.1864
454.545 715.909 21.1864
454.545 727.273 25.4237
454.545 738.636 36.0169
454.545 750 184.322
454.545 761.364 334.746
454.545 772.727 315.678
454.545 784.091 211.864
454.545 795.455 184.322
454.545 806.818 167.373
454.545 818.182 137.712
454.545 829.545 192.797
454.545 840.909 404.661
454.545 852.273 203.39
454.545 863.636 358.051
454.545 875 311.441
454.545 886.364 730.932
454.545 897.727 646.186
454.545 909.091 644.068
459.091 45.4545 565.678
459.091 56.8182 273.305
459.091 68.1818 205.508
459.091 79.5455 502.119
459.091 90.9091 173.729
459.091 102.273 82.6271
459.091 113.636 78.3898
459.091 125 222.458
459.091 136.364 256.356
459.091 147.727 220.339
459.091 159.091 536.017
459.091 170.455 271.186
459.091 181.818 127.119
459.091 193.182 72.0339
459.091 204.545 120.763
459.091 215.909 190.678
459.091 227.273 252.119
459.091 238.636 171.61
459.091 250 82.6271
459.091 261.364 27.5424
459.091 272.727 19.0678
459.091 284.091 21.1864
459.091 295.455 27.5424
459.091 306.818 29.661
459.091 318.182 38.1356
459.091 329.545 36.0169
459.091 340.909 38.1356
459.091 352.273 33.8983
459.091 363.636 38.1356
459.091 375 36.0169
459.091 386.364 95.339
459.091 602.273 86.8644
459.091 613.636 74.1525
459.091 625 44.4915
459.091 636.364 29.661
459.091 647.727 23.3051
459.091 659.091 59.322
459.091 670.455 55.0847
459.091 681.818 21.1864
459.091 693.182 21.1864
459.091 704.545 19.0678
459.091 715.909 21.1864
459.091 727.273 23.3051
459.091 738.636 29.661
459.091 750 36.0169
459.091 761.364 279.661
459.091 772.727 317.797
459.091 784.091 116.525
459.091 795.455 171.61
459.091 806.818 127.119
459.091 818.182 127.119
459.091 829.545 197.034
459.091 840.909 404.661
459.091 852.273 315.678
459.091 863.636 358.051
459.091 875 478.814
459.091 886.364 730.932
459.091 897.727 459.746
459.091 909.091 646.186
463.636 45.4545 561.441
463.636 56.8182 271.186
463.636 68.1818 203.39
463.636 79.5455 449.153
463.636 90.9091 237.288
463.636 102.273 82.6271
463.636 113.636 76.2712
463.636 125 222.458
463.636 136.364 254.237
463.636 147.727 290.254
463.636 159.091 512.712
463.636 170.455 177.966
463.636 181.818 82.6271
463.636 193.182 122.881
463.636 204.545 129.237
463.636 215.909 152.542
463.636 227.273 182.203
463.636 238.636 252.119
463.636 250 74.1525
463.636 261.364 23.3051
463.636 272.727 21.1864
463.636 284.091 19.0678
463.636 295.455 27.5424
463.636 306.818 36.0169
463.636 318.182 38.1356
463.636 329.545 31.7797
463.636 340.909 33.8983
463.636 352.273 33.8983
463.636 363.636 36.0169
463.636 375 99.5763
463.636 386.364 46.6102
463.636 602.273 86.8644
463.636 613.636 40.2542
463.636 625 42.3729
463.636 636.364 25.4237
463.636 647.727 23.3051
463.636 659.091 21.1864
463.636 670.455 57.2034
463.636 681.818 63.5593
463.636 693.182 19.0678
463.636 704.545 19.0678
463.636 715.909 19.0678
463.636 727.273 21.1864
463.636 738.636 27.5424
463.636 750 29.661
463.636 761.364 266.949
463.636 772.727 317.797
463.636 784.091 108.051
463.636 795.455 171.61
463.636 806.818 171.61
463.636 818.182 127.119
463.636 829.545 199.153
463.636 840.909 360.169
463.636 852.273 315.678
463.636 863.636 358.051
463.636 875 480.932
463.636 886.364 302.966
463.636 897.727 459.746
463.636 909.091 646.186
468.182 45.4545 559.322
468.182 56.8182 201.271
468.182 68.1818 355.932
468.182 79.5455 447.034
468.182 90.9091 237.288
468.182 102.273 80.5085
468.182 113.636 76.2712
468.182 125 279.661
468.182 136.364 233.051
468.182 147.727 362.288
468.182 159.091 514.831
468.182 170.455 169.492
468.182 181.818 135.593
468.182 193.182 135.593
468.182 204.545 194.915
468.182 215.909 205.508
468.182 227.273 127.119
468.182 238.636 271.186
468.182 250 103.814
468.182 261.364 23.3051
468.182 272.727 19.0678
468.182 284.091 21.1864
468.182 295.455 27.5424
468.182 306.818 74.1525
468.182 318.182 76.2712
468.182 329.545 80.5085
468.182 340.909 78.3898
468.182 352.273 78.3898
468.182 363.636 82.6271
468.182 375 44.4915
468.182 590.909 21.1864
468.182 602.273 99.5763
468.182 613.636 42.3729
468.182 625 38.1356
468.182 636.364 25.4237
468.182 647.727 23.3051
468.182 659.091 23.3051
468.182 670.455 21.1864
468.182 681.818 61.4407
468.182 693.182 48.7288
468.182 704.545 19.0678
468.182 715.909 21.1864
468.182 727.273 23.3051
468.182 738.636 29.661
468.182 750 31.7797
468.182 761.364 281.78
468.182 772.727 349.576
468.182 784.091 118.644
468.182 795.455 110.169
468.182 806.818 184.322
468.182 818.182 139.831
468.182 829.545 152.542
468.182 840.909 391.949
468.182 852.273 381.356
468.182 863.636 360.169
468.182 875 478.814
468.182 886.364 302.966
468.182 897.727 459.746
468.182 909.091 497.881
472.727 45.4545 557.203
472.727 56.8182 203.39
472.727 68.1818 355.932
472.727 79.5455 447.034
472.727 90.9091 169.492
472.727 102.273 146.186
472.727 113.636 76.2712
472.727 125 211.864
472.727 136.364 233.051
472.727 147.727 400.424
472.727 159.091 470.339
472.727 170.455 125
472.727 181.818 120.763
472.727 193.182 197.034
472.727 204.545 247.881
472.727 215.909 129.237
472.727 227.273 135.593
472.727 238.636 220.339
472.727 250 137.712
472.727 261.364 23.3051
472.727 272.727 25.4237
472.727 284.091 59.322
472.727 295.455 57.2034
472.727 306.818 57.2034
472.727 318.182 21.1864
472.727 329.545 25.4237
472.727 340.909 25.4237
472.727 590.909 61.4407
472.727 602.273 101.695
472.727 613.636 31.7797
472.727 625 36.0169
472.727 636.364 21.1864
472.727 647.727 21.1864
472.727 659.091 19.0678
472.727 670.455 23.3051
472.727 681.818 21.1864
472.727 693.182 50.8475
472.727 704.545 50.8475
472.727 715.909 19.0678
472.727 727.273 25.4237
472.727 738.636 33.8983
472.727 750 40.2542
472.727 761.364 262.712
472.727 772.727 379.237
472.727 784.091 171.61
472.727 795.455 110.169
472.727 806.818 184.322
472.727 818.182 216.102
472.727 829.545 152.542
472.727 840.909 315.678
472.727 852.273 381.356
472.727 863.636 360.169
472.727 875 478.814
472.727 886.364 474.576
472.727 897.727 459.746
472.727 909.091 497.881
477.273 45.4545 567.797
477.273 56.8182 525.424
477.273 68.1818 453.39
477.273 79.5455 444.915
477.273 90.9091 167.373
477.273 102.273 146.186
477.273 113.636 133.475
477.273 125 211.864
477.273 136.364 290.254
477.273 147.727 436.441
477.273 159.091 408.898
477.273 170.455 116.525
477.273 181.818 158.898
477.273 193.182 211.864
477.273 204.545 144.068
477.273 215.909 95.339
477.273 227.273 91.1017
477.273 238.636 230.932
477.273 250 161.017
477.273 261.364 61.4407
477.273 272.727 63.5593
477.273 284.091 57.2034
477.273 295.455 21.1864
477.273 306.818 25.4237
477.273 590.909 116.525
477.273 602.273 72.0339
477.273 613.636 29.661
477.273 625 25.4237
477.273 636.364 21.1864
477.273 647.727 21.1864
477.273 659.091 16.9492
477.273 670.455 29.661
477.273 681.818 21.1864
477.273 693.182 16.9492
477.273 704.545 52.9661
477.273 715.909 50.8475
477.273 727.273 25.4237
477.273 738.636 27.5424
477.273 750 38.1356
477.273 761.364 173.729
477.273 772.727 368.644
477.273 784.091 173.729
477.273 795.455 110.169
477.273 806.818 118.644
477.273 818.182 184.322
477.273 829.545 154.661
477.273 840.909 315.678
477.273 852.273 381.356
477.273 863.636 360.169
477.273 875 408.898
477.273 886.364 476.695
477.273 909.091 497.881
481.818 45.4545 565.678
481.818 56.8182 525.424
481.818 68.1818 389.831
481.818 79.5455 324.153
481.818 90.9091 169.492
481.818 102.273 144.068
481.818 113.636 133.475
481.818 125 146.186
481.818 136.364 358.051
481.818 147.727 495.763
481.818 159.091 366.525
481.818 170.455 112.288
481.818 181.818 199.153
481.818 193.182 167.373
481.818 204.545 80.5085
481.818 215.909 84.7458
481.818 227.273 91.1017
481.818 238.636 165.254
481.818 250 302.966
481.818 261.364 57.2034
481.818 272.727 25.4237
481.818 284.091 21.1864
481.818 590.909 116.525
481.818 602.273 38.1356
481.818 613.636 27.5424
481.818 625 25.4237
481.818 636.364 21.1864
481.818 647.727 29.661
481.818 659.091 21.1864
481.818 670.455 31.7797
481.818 681.818 23.3051
481.818 693.182 16.9492
481.818 704.545 19.0678
481.818 715.909 52.9661
481.818 727.273 59.322
481.818 738.636 27.5424
481.818 750 27.5424
481.818 761.364 194.915
481.818 772.727 404.661
481.818 784.091 220.339
481.818 795.455 118.644
481.818 806.818 110.169
481.818 818.182 184.322
481.818 829.545 213.983
481.818 840.909 313.559
481.818 852.273 381.356
481.818 863.636 355.932
481.818 875 411.017
481.818 886.364 476.695
481.818 909.091 497.881
481.818 920.455 497.881
486.364 34.0909 425.847
486.364 45.4545 561.441
486.364 56.8182 523.305
486.364 68.1818 387.712
486.364 79.5455 184.322
486.364 90.9091 91.1017
486.364 102.273 273.305
486.364 113.636 133.475
486.364 125 213.983
486.364 136.364 396.186
486.364 147.727 427.966
486.364 159.091 205.508
486.364 170.455 125
486.364 181.818 213.983
486.364 193.182 137.712
486.364 204.545 91.1017
486.364 215.909 131.356
486.364 227.273 144.068
486.364 238.636 300.847
486.364 250 256.356
486.364 261.364 101.695
486.364 590.909 122.881
486.364 602.273 38.1356
486.364 613.636 27.5424
486.364 625 25.4237
486.364 636.364 23.3051
486.364 647.727 27.5424
486.364 659.091 21.1864
486.364 670.455 23.3051
486.364 681.818 19.0678
486.364 693.182 19.0678
486.364 704.545 16.9492
486.364 715.909 19.0678
486.364 727.273 61.4407
486.364 738.636 67.7966
486.364 750 25.4237
486.364 761.364 105.932
486.364 772.727 351.695
486.364 784.091 262.712
486.364 795.455 118.644
486.364 806.818 110.169
486.364 818.182 171.61
486.364 829.545 211.864
486.364 840.909 258.475
486.364 852.273 288.136
486.364 863.636 355.932
486.364 875 413.136
486.364 886.364 379.237
486.364 920.455 497.881
490.909 34.0909 555.085
490.909 45.4545 620.763
490.909 56.8182 502.119
490.909 68.1818 385.593
490.909 79.5455 182.203
490.909 90.9091 91.1017
490.909 102.273 273.305
490.909 113.636 72.0339
490.909 125 197.034
490.909 136.364 466.102
490.909 147.727 427.966
490.909 159.091 163.136
490.909 170.455 171.61
490.909 181.818 209.746
490.909 193.182 93.2203
490.909 204.545 131.356
490.909 215.909 188.559
490.909 227.273 154.661
490.909 238.636 381.356
490.909 250 241.525
490.909 261.364 63.5593
490.909 579.545 31.7797
490.909 590.909 91.1017
490.909 602.273 69.9153
490.909 613.636 31.7797
490.909 625 25.4237
490.909 636.364 25.4237
490.909 647.727 25.4237
490.909 659.091 27.5424
490.909 670.455 23.3051
490.909 681.818 21.1864
490.909 693.182 21.1864
490.909 704.545 19.0678
490.909 715.909 21.1864
490.909 727.273 27.5424
490.909 738.636 80.5085
490.909 750 72.0339
490.909 761.364 116.525
490.909 772.727 319.915
490.909 784.091 300.847
490.909 795.455 108.051
490.909 806.818 110.169
490.909 818.182 171.61
490.909 829.545 264.831
490.909 840.909 258.475
490.909 852.273 290.254
490.909 863.636 408.898
490.909 875 413.136
490.909 886.364 389.831
490.909 920.455 497.881
495.455 34.0909 552.966
495.455 45.4545 406.78
495.455 56.8182 383.475
495.455 68.1818 118.644
495.455 79.5455 101.695
495.455 90.9091 184.322
495.455 102.273 218.22
495.455 113.636 133.475
495.455 125 250
495.455 136.364 466.102
495.455 147.727 402.542
495.455 159.091 148.305
495.455 170.455 120.763
495.455 181.818 163.136
495.455 193.182 105.932
495.455 204.545 209.746
495.455 215.909 146.186
495.455 227.273 192.797
495.455 238.636 349.576
495.455 250 290.254
495.455 261.364 97.4576
495.455 579.545 38.1356
495.455 590.909 40.2542
495.455 602.273 74.1525
495.455 613.636 69.9153
495.455 625 25.4237
495.455 636.364 25.4237
495.455 647.727 25.4237
495.455 659.091 23.3051
495.455 670.455 25.4237
495.455 681.818 21.1864
495.455 693.182 21.1864
495.455 704.545 19.0678
495.455 715.909 23.3051
495.455 727.273 27.5424
495.455 738.636 36.0169
495.455 750 82.6271
495.455 761.364 116.525
495.455 772.727 279.661
495.455 784.091 286.017
495.455 795.455 108.051
495.455 806.818 110.169
495.455 818.182 167.373
495.455 829.545 247.881
495.455 840.909 258.475
495.455 852.273 324.153
495.455 863.636 411.017
495.455 875 269.068
495.455 886.364 389.831
495.455 920.455 497.881
500 34.0909 614.407
500 45.4545 404.661
500 56.8182 383.475
500 68.1818 118.644
500 79.5455 103.814
500 90.9091 182.203
500 102.273 161.017
500 113.636 192.797
500 125 254.237
500 136.364 438.559
500 147.727 358.051
500 159.091 218.22
500 170.455 156.78
500 181.818 182.203
500 193.182 190.678
500 204.545 199.153
500 215.909 112.288
500 227.273 213.983
500 238.636 296.61
500 250 182.203
500 261.364 101.695
500 272.727 29.661
500 579.545 38.1356
500 590.909 29.661
500 602.273 23.3051
500 613.636 65.678
500 625 63.5593
500 636.364 27.5424
500 647.727 25.4237
500 659.091 21.1864
500 670.455 23.3051
500 681.818 21.1864
500 693.182 19.0678
500 704.545 19.0678
500 715.909 25.4237
500 727.273 27.5424
500 738.636 33.8983
500 750 36.0169
500 761.364 129.237
500 772.727 305.085
500 784.091 377.119
500 795.455 110.169
500 806.818 108.051
500 818.182 180.085
500 829.545 216.102
500 840.909 317.797
500 852.273 385.593
500 863.636 411.017
500 875 190.678
500 886.364 389.831
500 897.727 324.153
500 920.455 497.881
504.545 22.7273 536.017
504.545 34.0909 610.169
504.545 45.4545 161.017
504.545 56.8182 381.356
504.545 68.1818 101.695
504.545 79.5455 101.695
504.545 90.9091 163.136
504.545 102.273 218.22
504.545 113.636 190.678
504.545 125 271.186
504.545 136.364 417.373
504.545 147.727 383.475
504.545 159.091 197.034
504.545 170.455 129.237
504.545 181.818 173.729
504.545 193.182 201.271
504.545 204.545 201.271
504.545 215.909 186.441
504.545 227.273 277.542
504.545 238.636 188.559
504.545 250 112.288
504.545 261.364 139.831
504.545 272.727 27.5424
504.545 579.545 36.0169
504.545 590.909 27.5424
504.545 602.273 27.5424
504.545 613.636 23.3051
504.545 625 63.5593
504.545 636.364 67.7966
504.545 647.727 59.322
504.545 659.091 21.1864
504.545 670.455 21.1864
504.545 681.818 21.1864
504.545 693.182 19.0678
504.545 704.545 21.1864
504.545 715.909 25.4237
504.545 727.273 31.7797
504.545 738.636 36.0169
504.545 750 44.4915
504.545 761.364 80.5085
504.545 772.727 256.356
504.545 784.091 396.186
504.545 795.455 161.017
504.545 806.818 247.881
504.545 818.182 180.085
504.545 829.545 139.831
504.545 840.909 237.288
504.545 852.273 425.847
504.545 863.636 413.136
504.545 875 190.678
504.545 886.364 389.831
504.545 897.727 489.407
504.545 920.455 497.881
509.091 11.3636 398.305
509.091 22.7273 536.017
509.091 34.0909 260.593
509.091 45.4545 330.508
509.091 56.8182 250
509.091 68.1818 101.695
509.091 79.5455 101.695
509.091 90.9091 163.136
509.091 102.273 218.22
509.091 113.636 188.559
509.091 125 194.915
509.091 136.364 440.678
509.091 147.727 385.593
509.091 159.091 224.576
509.091 170.455 135.593
509.091 181.818 173.729
509.091 193.182 209.746
509.091 204.545 216.102
509.091 215.909 169.492
509.091 227.273 207.627
509.091 238.636 122.881
509.091 250 105.932
509.091 261.364 101.695
509.091 272.727 61.4407
509.091 602.273 25.4237
509.091 613.636 23.3051
509.091 625 21.1864
509.091 636.364 27.5424
509.091 647.727 55.0847
509.091 659.091 50.8475
509.091 670.455 19.0678
509.091 681.818 16.9492
509.091 693.182 16.9492
509.091 704.545 23.3051
509.091 715.909 25.4237
509.091 727.273 29.661
509.091 738.636 33.8983
509.091 750 42.3729
509.091 761.364 40.2542
509.091 772.727 192.797
509.091 784.091 402.542
509.091 795.455 372.881
509.091 806.818 247.881
509.091 818.182 218.22
509.091 829.545 150.424
509.091 840.909 283.898
509.091 852.273 315.678
509.091 863.636 413.136
509.091 875 190.678
509.091 886.364 188.559
509.091 897.727 491.525
509.091 920.455 497.881
513.636 11.3636 398.305
513.636 22.7273 536.017
513.636 34.0909 258.475
513.636 45.4545 427.966
513.636 56.8182 250
513.636 68.1818 101.695
513.636 79.5455 182.203
513.636 90.9091 163.136
513.636 102.273 239.407
513.636 113.636 203.39
513.636 125 78.3898
513.636 136.364 421.61
513.636 147.727 451.271
513.636 159.091 165.254
513.636 170.455 122.881
513.636 181.818 175.847
513.636 193.182 226.695
513.636 204.545 207.627
513.636 215.909 182.203
513.636 227.273 171.61
513.636 238.636 122.881
513.636 250 105.932
513.636 261.364 80.5085
513.636 272.727 127.119
513.636 636.364 25.4237
513.636 647.727 16.9492
513.636 659.091 46.6102
513.636 670.455 52.9661
513.636 681.818 19.0678
513.636 693.182 19.0678
513.636 704.545 23.3051
513.636 715.909 31.7797
513.636 727.273 31.7797
513.636 738.636 29.661
513.636 750 40.2542
513.636 761.364 40.2542
513.636 772.727 131.356
513.636 784.091 425.847
513.636 795.455 411.017
513.636 806.818 216.102
513.636 818.182 218.22
513.636 829.545 216.102
513.636 840.909 283.898
513.636 852.273 315.678
513.636 863.636 413.136
513.636 875 190.678
513.636 886.364 239.407
513.636 897.727 491.525
513.636 920.455 497.881
518.182 11.3636 533.898
518.182 22.7273 536.017
518.182 34.0909 256.356
518.182 45.4545 425.847
518.182 56.8182 114.407
518.182 68.1818 101.695
518.182 79.5455 180.085
518.182 90.9091 91.1017
518.182 102.273 237.288
518.182 113.636 203.39
518.182 125 141.949
518.182 136.364 440.678
518.182 147.727 453.39
518.182 159.091 283.898
518.182 170.455 161.017
518.182 181.818 122.881
518.182 193.182 226.695
518.182 204.545 199.153
518.182 215.909 125
518.182 227.273 122.881
518.182 238.636 146.186
518.182 250 112.288
518.182 261.364 29.661
518.182 272.727 163.136
518.182 647.727 16.9492
518.182 659.091 14.8305
518.182 670.455 52.9661
518.182 681.818 50.8475
518.182 693.182 21.1864
518.182 704.545 23.3051
518.182 715.909 27.5424
518.182 727.273 29.661
518.182 738.636 31.7797
518.182 750 38.1356
518.182 761.364 40.2542
518.182 772.727 42.3729
518.182 784.091 368.644
518.182 795.455 506.356
518.182 806.818 275.424
518.182 818.182 201.271
518.182 829.545 218.22
518.182 840.909 345.339
518.182 852.273 281.78
518.182 863.636 355.932
518.182 875 317.797
518.182 886.364 239.407
518.182 897.727 491.525
522.727 11.3636 533.898
522.727 22.7273 258.475
522.727 34.0909 258.475
522.727 45.4545 497.881
522.727 56.8182 116.525
522.727 68.1818 101.695
522.727 79.5455 161.017
522.727 90.9091 91.1017
522.727 102.273 216.102
522.727 113.636 203.39
522.727 125 205.508
522.727 136.364 370.763
522.727 147.727 504.237
522.727 159.091 252.119
522.727 170.455 152.542
522.727 181.818 116.525
522.727 193.182 237.288
522.727 204.545 211.864
522.727 215.909 173.729
522.727 227.273 129.237
522.727 238.636 177.966
522.727 250 65.678
522.727 261.364 72.0339
522.727 272.727 175.847
522.727 659.091 14.8305
522.727 670.455 16.9492
522.727 681.818 48.7288
522.727 693.182 52.9661
